# .PCD v0.7 - Point Cloud Data file format
VERSION 0.7
FIELDS x y z rgba
SIZE 4 4 4 4
TYPE F F F U
COUNT 1 1 1 1
WIDTH 1106
HEIGHT 1
VIEWPOINT 0 0 0 1 0 0 0
POINTS 1106
DATA ascii
-0.098631434 0.095077142 0.93300003 14469764
-0.09706191 0.09528096 0.93500006 14403971
-0.09528096 0.09528096 0.93500006 14272901
-0.093500003 0.09528096 0.93500006 14207108
-0.091719054 0.09528096 0.93500006 14338178
-0.089938097 0.09528096 0.93500006 14403971
-0.088440001 0.095586672 0.93800002 14536321
-0.086653329 0.095586672 0.93800002 14865286
-0.084866665 0.095586672 0.93800002 14272917
-0.083257146 0.095790483 0.94000006 14009745
-0.081466675 0.095790483 0.94000006 14469760
-0.079676196 0.095790483 0.94000006 14930311
-0.077885717 0.095790483 0.94000006 14863748
-0.076095238 0.095790483 0.94000006 14797955
-0.074304767 0.095790483 0.94000006 14864261
-0.072514288 0.095790483 0.94000006 15587984
-0.070723809 0.095790483 0.94000006 14996090
-0.068933338 0.095790483 0.94000006 15127676
-0.067142867 0.095790483 0.94000006 14733211
-0.06521333 0.095586672 0.93800002 14535832
-0.063426666 0.095586672 0.93800002 14996090
-0.061639998 0.095586672 0.93800002 15193469
-0.059853334 0.095586672 0.93800002 14995845
-0.057880957 0.09528096 0.93500006 14995845
-0.056100003 0.09528096 0.93500006 14995595
-0.054202858 0.095077142 0.93300003 15061388
-0.052425716 0.095077142 0.93300003 14929552
-0.050485715 0.094771437 0.93000007 14929552
-0.048609525 0.094567627 0.92800003 14929550
-0.046690479 0.094261907 0.92500007 15126929
-0.044928573 0.094261907 0.92500007 14798225
-0.043073334 0.094058096 0.92300004 14666639
-0.041315239 0.094058096 0.92300004 14798218
-0.039557144 0.094058096 0.92300004 15521941
-0.037799049 0.094058096 0.92300004 15654322
-0.035923809 0.093752384 0.92000002 16776401
-0.034171429 0.093752384 0.92000002 16711632
-0.11938572 0.094985716 0.91500002 13683308
-0.11764286 0.094985716 0.91500002 14140795
-0.11589999 0.094985716 0.91500002 14403967
-0.11453143 0.095297143 0.91800004 14205827
-0.11302857 0.095504761 0.92000002 14205827
-0.11163905 0.095816195 0.92300004 14272133
-0.10988096 0.095816195 0.92300004 14403719
-0.10835715 0.096023813 0.92500007 14271363
-0.10694095 0.09633524 0.92800003 14205570
-0.10517334 0.09633524 0.92800003 14270841
-0.10362858 0.096542865 0.93000007 14336634
-0.10218572 0.096854292 0.93300003 14271613
-0.10040857 0.096854292 0.93300003 14534785
-0.098631434 0.096854292 0.93300003 14338440
-0.09706191 0.09706191 0.93500006 14272647
-0.09528096 0.09706191 0.93500006 14469512
-0.093500003 0.09706191 0.93500006 14403719
-0.091719054 0.09706191 0.93500006 14535035
-0.089938097 0.09706191 0.93500006 14600828
-0.088440001 0.097373337 0.93800002 14206581
-0.086653329 0.097373337 0.93800002 14930304
-0.084866665 0.097373337 0.93800002 14537104
-0.083257146 0.097580954 0.94000006 14405518
-0.081466675 0.097580954 0.94000006 14536071
-0.079676196 0.097580954 0.94000006 14799243
-0.077885717 0.097580954 0.94000006 14929802
-0.076095238 0.097580954 0.94000006 14864009
-0.074146673 0.097373337 0.93800002 14864261
-0.072360002 0.097373337 0.93800002 15127433
-0.070573337 0.097373337 0.93800002 15127422
-0.068786673 0.097373337 0.93800002 15127422
-0.067142867 0.097580954 0.94000006 14995343
-0.06521333 0.097373337 0.93800002 14995343
-0.063426666 0.097373337 0.93800002 15061892
-0.061639998 0.097373337 0.93800002 15061892
-0.059853334 0.097373337 0.93800002 15061899
-0.057880957 0.09706191 0.93500006 14996106
-0.056100003 0.09706191 0.93500006 14403449
-0.054202858 0.096854292 0.93300003 14798207
-0.052425716 0.096854292 0.93300003 14600839
-0.050485715 0.096542865 0.93000007 14600839
-0.048609525 0.09633524 0.92800003 14535557
-0.046690479 0.096023813 0.92500007 14667143
-0.044928573 0.096023813 0.92500007 14732414
-0.043073334 0.095816195 0.92300004 14798207
-0.041315239 0.095816195 0.92300004 15060618
-0.039557144 0.095816195 0.92300004 16179099
-0.037799049 0.095816195 0.92300004 16445369
-0.035923809 0.095504761 0.92000002 16774334
-0.034171429 0.095504761 0.92000002 16381366
-0.12166286 0.095777147 0.90600002 16446925
-0.11993714 0.095777147 0.90600002 16445351
-0.11873334 0.096200004 0.91000003 14339975
-0.11738572 0.096517146 0.91300005 14272131
-0.11589999 0.096728571 0.91500002 14337924
-0.11453143 0.097045712 0.91800004 14140293
-0.11302857 0.097257145 0.92000002 14206086
-0.11163905 0.097574286 0.92300004 14272131
-0.10988096 0.097574286 0.92300004 14666889
-0.10835715 0.097785726 0.92500007 14271620
-0.10694095 0.09810286 0.92800003 14205827
-0.1054 0.098314293 0.93000007 14139766
-0.10396286 0.098631434 0.93300003 14271352
-0.10218572 0.098631434 0.93300003 14271872
-0.10040857 0.098631434 0.93300003 14864009
-0.098631434 0.098631434 0.93300003 14666891
-0.09706191 0.098842859 0.93500006 14403719
-0.09528096 0.098842859 0.93500006 14469510
-0.093500003 0.098842859 0.93500006 14403717
-0.091719054 0.098842859 0.93500006 14863993
-0.090226665 0.099160001 0.93800002 14929786
-0.088440001 0.099160001 0.93800002 14732673
-0.086653329 0.099160001 0.93800002 14930052
-0.085047618 0.099371433 0.94000006 14667657
-0.083257146 0.099371433 0.94000006 14667657
-0.081466675 0.099371433 0.94000006 14733452
-0.079676196 0.099371433 0.94000006 14799245
-0.077885717 0.099371433 0.94000006 14995847
-0.076095238 0.099371433 0.94000006 15324812
-0.074146673 0.099160001 0.93800002 15126663
-0.072360002 0.099160001 0.93800002 15258249
-0.070573337 0.099160001 0.93800002 15192452
-0.068786673 0.099160001 0.93800002 15258245
-0.067142867 0.099371433 0.94000006 15258758
-0.06521333 0.099160001 0.93800002 15192965
-0.063426666 0.099160001 0.93800002 15127431
-0.061639998 0.099160001 0.93800002 14995845
-0.059853334 0.099160001 0.93800002 14995854
-0.057880957 0.098842859 0.93500006 15259026
-0.056100003 0.098842859 0.93500006 15127690
-0.054202858 0.098631434 0.93300003 15325069
-0.052425716 0.098631434 0.93300003 14732950
-0.050485715 0.098314293 0.93000007 14864536
-0.048609525 0.09810286 0.92800003 15192463
-0.046841905 0.09810286 0.92800003 15587221
-0.044928573 0.097785726 0.92500007 16377223
-0.043166671 0.097785726 0.92500007 16574602
-0.041315239 0.097574286 0.92300004 16378293
-0.039557144 0.097574286 0.92300004 16509879
-0.037799049 0.097574286 0.92300004 16444079
-0.036040954 0.097574286 0.92300004 16115114
-0.12166286 0.097502857 0.90600002 16249017
-0.11993714 0.097502857 0.90600002 16577464
-0.11873334 0.097933337 0.91000003 14801053
-0.11738572 0.098256193 0.91300005 14798225
-0.11589999 0.098471433 0.91500002 14271881
-0.11453143 0.098794289 0.91800004 14205827
-0.11302857 0.099009521 0.92000002 14271620
-0.11163905 0.099332385 0.92300004 14402945
-0.11011905 0.099547625 0.92500007 14402945
-0.10835715 0.099547625 0.92500007 14206079
-0.10694095 0.099870481 0.92800003 14074493
-0.1054 0.10008572 0.93000007 14009200
-0.10396286 0.10040857 0.93300003 14140786
-0.10218572 0.10040857 0.93300003 14468990
-0.10040857 0.10040857 0.93300003 14732162
-0.098842859 0.10062382 0.93500006 14666889
-0.09706191 0.10062382 0.93500006 14601096
-0.09528096 0.10062382 0.93500006 14797964
-0.093500003 0.10062382 0.93500006 14797964
-0.092013337 0.10094667 0.93800002 15061386
-0.090226665 0.10094667 0.93800002 15061386
-0.088440001 0.10094667 0.93800002 14732421
-0.086838104 0.10116191 0.94000006 14798214
-0.085047618 0.10116191 0.94000006 14601348
-0.083257146 0.10116191 0.94000006 14798727
-0.081466675 0.10116191 0.94000006 14667918
-0.079676196 0.10116191 0.94000006 14667918
-0.077885717 0.10116191 0.94000006 14732164
-0.076095238 0.10116191 0.94000006 14929543
-0.074304767 0.10116191 0.94000006 14928510
-0.072514288 0.10116191 0.94000006 15257475
-0.070723809 0.10116191 0.94000006 14994814
-0.068933338 0.10116191 0.94000006 15192193
-0.067142867 0.10116191 0.94000006 15521678
-0.06535238 0.10116191 0.94000006 15390092
-0.063561909 0.10116191 0.94000006 15259276
-0.061639998 0.10094667 0.93800002 14930311
-0.059853334 0.10094667 0.93800002 14930052
-0.058066666 0.10094667 0.93800002 14930052
-0.056100003 0.10062382 0.93500006 14864761
-0.05431905 0.10062382 0.93500006 15062140
-0.052425716 0.10040857 0.93300003 14732923
-0.05064857 0.10040857 0.93300003 15061888
-0.048714291 0.10008572 0.93000007 15586183
-0.046841905 0.099870481 0.92800003 16178320
-0.044928573 0.099547625 0.92500007 16377521
-0.040646669 0.093736194 0.87100005 16443314
-0.038987622 0.093736194 0.87100005 16576451
-0.037414286 0.093951426 0.87300003 15984314
-0.035833336 0.094166674 0.87500006 15127681
-0.036040954 0.099332385 0.92300004 16443541
-0.12193143 0.099447623 0.90800005 14144163
-0.12020191 0.099447623 0.90800005 15655090
-0.11912477 0.099995241 0.91300005 16707778
-0.11738572 0.099995241 0.91300005 16246716
-0.11589999 0.10021429 0.91500002 15654579
-0.11453143 0.10054287 0.91800004 15456671
-0.11302857 0.10076191 0.92000002 14535569
-0.11163905 0.10109048 0.92300004 14205827
-0.11011905 0.10130953 0.92500007 14140034
-0.10870858 0.10163809 0.92800003 14205827
-0.10694095 0.10163809 0.92800003 14403206
-0.1054 0.10185715 0.93000007 14403449
-0.10396286 0.10218572 0.93300003 14864000
-0.10218572 0.10218572 0.93300003 14403449
-0.10040857 0.10218572 0.93300003 14337656
-0.098842859 0.10240477 0.93500006 14534533
-0.09706191 0.10240477 0.93500006 14600326
-0.09528096 0.10240477 0.93500006 14797703
-0.093500003 0.10240477 0.93500006 14797703
-0.092013337 0.10273334 0.93800002 15126670
-0.090226665 0.10273334 0.93800002 15521428
-0.088440001 0.10273334 0.93800002 14995847
-0.086838104 0.10295238 0.94000006 14995847
-0.085047618 0.10295238 0.94000006 14864011
-0.083257146 0.10295238 0.94000006 14995597
-0.081466675 0.10295238 0.94000006 14995602
-0.079676196 0.10295238 0.94000006 14929809
-0.077885717 0.10295238 0.94000006 14995597
-0.076095238 0.10295238 0.94000006 15061390
-0.074541911 0.10328095 0.94300002 15192202
-0.072745718 0.10328095 0.94300002 15652753
-0.070723809 0.10295238 0.94000006 15126159
-0.068933338 0.10295238 0.94000006 15060366
-0.067142867 0.10295238 0.94000006 15192972
-0.06535238 0.10295238 0.94000006 15192972
-0.063561909 0.10295238 0.94000006 15259019
-0.061639998 0.10273334 0.93800002 15522191
-0.059853334 0.10273334 0.93800002 15653005
-0.058066666 0.10273334 0.93800002 15587212
-0.056100003 0.10240477 0.93500006 16446586
-0.05431905 0.10240477 0.93500006 16775551
-0.052425716 0.10218572 0.93300003 16511664
-0.05064857 0.10218572 0.93300003 16577457
-0.048871431 0.10218572 0.93300003 16510903
-0.043964762 0.095395245 0.87100005 16774589
-0.042305715 0.095395245 0.87100005 15916981
-0.040646669 0.095395245 0.87100005 14403742
-0.038987622 0.095395245 0.87100005 14535296
-0.037414286 0.095614292 0.87300003 14074745
-0.035833336 0.095833339 0.87500006 14075002
-0.11938572 0.10195714 0.91500002 16378545
-0.11764286 0.10195714 0.91500002 16443827
-0.11628 0.10229144 0.91800004 16312241
-0.11478096 0.10251428 0.92000002 16114878
-0.11339714 0.10284857 0.92300004 15062190
-0.11188096 0.10307144 0.92500007 14667405
-0.11011905 0.10307144 0.92500007 14535819
-0.10870858 0.10340571 0.92800003 14666632
-0.10717143 0.10362858 0.93000007 14469253
-0.10574 0.10396286 0.93300003 14337908
-0.10396286 0.10396286 0.93300003 14601080
-0.10218572 0.10396286 0.93300003 14403710
-0.10040857 0.10396286 0.93300003 14403710
-0.098842859 0.10418572 0.93500006 14732164
-0.09706191 0.10418572 0.93500006 14732164
-0.09528096 0.10418572 0.93500006 14862726
-0.093800001 0.10452 0.93800002 14862726
-0.092013337 0.10452 0.93800002 14994571
-0.090226665 0.10452 0.93800002 15126157
-0.088628575 0.10474286 0.94000006 14995334
-0.086838104 0.10474286 0.94000006 14995334
-0.085047618 0.10474286 0.94000006 14929282
-0.083257146 0.10474286 0.94000006 15126661
-0.081466675 0.10474286 0.94000006 15061377
-0.079930477 0.10507714 0.94300002 14995584
-0.078134283 0.10507714 0.94300002 14995836
-0.07633809 0.10507714 0.94300002 15061629
-0.074541911 0.10507714 0.94300002 15126920
-0.072745718 0.10507714 0.94300002 15653264
-0.070723809 0.10474286 0.94000006 15521687
-0.068933338 0.10474286 0.94000006 15324308
-0.067142867 0.10474286 0.94000006 15192722
-0.06535238 0.10474286 0.94000006 15324308
-0.063561909 0.10474286 0.94000006 15587984
-0.061639998 0.10452 0.93800002 16048535
-0.059853334 0.10452 0.93800002 16376746
-0.058066666 0.10452 0.93800002 16310953
-0.056280002 0.10452 0.93800002 16579022
-0.05431905 0.10418572 0.93500006 16315850
-0.052538101 0.10418572 0.93500006 16576962
-0.047065716 0.096608572 0.86700004 16445376
-0.045414288 0.096608572 0.86700004 16510399
-0.043863807 0.096831433 0.86900002 16378813
-0.042208571 0.096831433 0.86900002 14472624
-0.040553335 0.096831433 0.86900002 13485729
-0.039077144 0.09727715 0.87300003 13945458
-0.037414286 0.09727715 0.87300003 13879665
-0.035833336 0.097500004 0.87500006 13879156
-0.11977715 0.10404 0.91800004 13354125
-0.11802858 0.10404 0.91800004 14469994
-0.11628 0.10404 0.91800004 15391096
-0.11478096 0.10426667 0.92000002 15785384
-0.11364286 0.10483334 0.92500007 15982763
-0.11224381 0.10517334 0.92800003 15916970
-0.1104762 0.10517334 0.92800003 16048556
-0.10894287 0.1054 0.93000007 15983026
-0.10717143 0.1054 0.93000007 15917233
-0.10574 0.10574 0.93300003 15916708
-0.10396286 0.10574 0.93300003 15785122
-0.10218572 0.10574 0.93300003 15520665
-0.10062382 0.10596667 0.93500006 15125907
-0.098842859 0.10596667 0.93500006 15191950
-0.09706191 0.10596667 0.93500006 15323536
-0.095586672 0.10630666 0.93800002 15191950
-0.093800001 0.10630666 0.93800002 15126157
-0.092013337 0.10630666 0.93800002 15192211
-0.090419047 0.10653334 0.94000006 15258004
-0.088628575 0.10653334 0.94000006 15586449
-0.086838104 0.10653334 0.94000006 15783828
-0.085319042 0.10687333 0.94300002 16046482
-0.083522864 0.10687333 0.94300002 16112275
-0.08172667 0.10687333 0.94300002 16311430
-0.079930477 0.10687333 0.94300002 16377223
-0.078134283 0.10687333 0.94300002 16379279
-0.07633809 0.10687333 0.94300002 16776093
-0.074541911 0.10687333 0.94300002 16579015
-0.072745718 0.10687333 0.94300002 16644808
-0.070723809 0.10653334 0.94000006 16577489
-0.068933338 0.10653334 0.94000006 16643282
-0.067142867 0.10653334 0.94000006 16510667
-0.06535238 0.10653334 0.94000006 16247495
-0.063561909 0.10653334 0.94000006 16378547
-0.061639998 0.10630666 0.93800002 16378547
-0.059853334 0.10630666 0.93800002 16049330
-0.058066666 0.10630666 0.93800002 15983537
-0.056100003 0.10596667 0.93500006 15061924
-0.05431905 0.10596667 0.93500006 14601373
-0.048548572 0.097920001 0.86400002 12824971
-0.046902858 0.097920001 0.86400002 12627592
-0.045414288 0.09826 0.86700004 13351533
-0.043762859 0.09826 0.86700004 14075256
-0.042208571 0.098486669 0.86900002 13485177
-0.040553335 0.098486669 0.86900002 10919250
-0.038987622 0.098713338 0.87100005 11183435
-0.037414286 0.09894 0.87300003 13091432
-0.035956193 0.099506669 0.87800002 13352067
-0.11790286 0.10117905 0.87800002 16646116
-0.11623047 0.10117905 0.87800002 15461054
-0.1145581 0.10117905 0.87800002 12500369
-0.11224286 0.10060286 0.87300003 12894578
-0.11058 0.10060286 0.87300003 13289336
-0.10891715 0.10060286 0.87300003 14600578
-0.10676286 0.10014191 0.86900002 15784852
-0.10510762 0.10014191 0.86900002 16178856
-0.11071429 0.10717143 0.93000007 16442028
-0.10929429 0.10751715 0.93300003 16443845
-0.10751715 0.10751715 0.93300003 15917501
-0.10574 0.10751715 0.93300003 16376748
-0.10396286 0.10751715 0.93300003 16442541
-0.10218572 0.10751715 0.93300003 16511171
-0.10062382 0.10774763 0.93500006 16247999
-0.098842859 0.10774763 0.93500006 16443827
-0.09706191 0.10774763 0.93500006 15917483
-0.09528096 0.10774763 0.93500006 16048294
-0.093800001 0.10809334 0.93800002 15982501
-0.092013337 0.10809334 0.93800002 16113835
-0.090419047 0.10832381 0.94000006 16179628
-0.088628575 0.10832381 0.94000006 16443843
-0.087115236 0.10866953 0.94300002 16443843
-0.085319042 0.10866953 0.94300002 16511435
-0.083522864 0.10866953 0.94300002 16445642
-0.08172667 0.10866953 0.94300002 16576460
-0.079930477 0.10866953 0.94300002 16247495
-0.071091428 0.098874293 0.85800004 16510658
-0.069457144 0.098874293 0.85800004 16510658
-0.074541911 0.10866953 0.94300002 16444356
-0.072745718 0.10866953 0.94300002 16641735
-0.064704761 0.099104762 0.86000001 16511699
-0.062920004 0.098874293 0.85800004 16511699
-0.061285719 0.098874293 0.85800004 16511445
-0.06535238 0.10832381 0.94000006 16116687
-0.063426666 0.10809334 0.93800002 16246979
-0.061639998 0.10809334 0.93800002 15786428
-0.054748576 0.098874293 0.85800004 14341783
-0.053114288 0.098874293 0.85800004 14012818
-0.051479999 0.098874293 0.85800004 13945244
-0.049961902 0.099104762 0.86000001 12892556
-0.048548572 0.099565722 0.86400002 12299861
-0.046902858 0.099565722 0.86400002 11576138
-0.045414288 0.099911429 0.86700004 11773521
-0.043762859 0.099911429 0.86700004 13878897
-0.042208571 0.10014191 0.86900002 13223554
-0.040553335 0.10014191 0.86900002 8223286
-0.038987622 0.10037239 0.87100005 9142016
-0.037414286 0.10060286 0.87300003 11576339
-0.035956193 0.10117905 0.87800002 12562265
-0.034361906 0.10140952 0.88000005 15917708
-0.11790286 0.10285143 0.87800002 16711652
-0.11623047 0.10285143 0.87800002 15593147
-0.11416667 0.10250001 0.87500006 10724465
-0.1125 0.10250001 0.87500006 11841915
-0.11058 0.10226572 0.87300003 12170880
-0.10891715 0.10226572 0.87300003 12825689
-0.10676286 0.10179714 0.86900002 13352033
-0.10510762 0.10179714 0.86900002 13942137
-0.10321429 0.10156287 0.86700004 14863239
-0.10156287 0.10156287 0.86700004 14403469
-0.10751715 0.10929429 0.93300003 13877125
-0.10574 0.10929429 0.93300003 14272385
-0.10396286 0.10929429 0.93300003 15390866
-0.10218572 0.10929429 0.93300003 16114058
-0.10040857 0.10929429 0.93300003 16179851
-0.098842859 0.10952857 0.93500006 15851399
-0.09706191 0.10952857 0.93500006 15654020
-0.09528096 0.10952857 0.93500006 15785102
-0.093800001 0.10988 0.93800002 15916688
-0.092013337 0.10988 0.93800002 15784850
-0.090419047 0.11011429 0.94000006 15850643
-0.088628575 0.11011429 0.94000006 15719075
-0.087115236 0.11046572 0.94300002 15192731
-0.085319042 0.11046572 0.94300002 14995073
-0.083522864 0.11046572 0.94300002 14863487
-0.074360006 0.10050857 0.85800004 14534040
-0.072725721 0.10050857 0.85800004 14139282
-0.071091428 0.10050857 0.85800004 14271381
-0.069457144 0.10050857 0.85800004 14468760
-0.067822859 0.10050857 0.85800004 14206340
-0.066188574 0.10050857 0.85800004 14008961
-0.064554289 0.10050857 0.85800004 13746814
-0.062920004 0.10050857 0.85800004 13681021
-0.061285719 0.10050857 0.85800004 14073982
-0.059651431 0.10050857 0.85800004 14271361
-0.058017146 0.10050857 0.85800004 14076040
-0.056382861 0.10050857 0.85800004 13286524
-0.054748576 0.10050857 0.85800004 12959085
-0.053114288 0.10050857 0.85800004 13353843
-0.051479999 0.10050857 0.85800004 13483419
-0.049961902 0.10074285 0.86000001 12957075
-0.048548572 0.10121143 0.86400002 12235353
-0.047065716 0.10156287 0.86700004 9866805
-0.045414288 0.10156287 0.86700004 11641951
-0.043863807 0.10179714 0.86900002 13549948
-0.042208571 0.10179714 0.86900002 12566615
-0.040553335 0.10179714 0.86900002 7697933
-0.038987622 0.10203143 0.87100005 7962958
-0.037414286 0.10226572 0.87300003 9936748
-0.036038097 0.10308572 0.88000005 11511117
-0.034361906 0.10308572 0.88000005 15787662
-0.11790286 0.10452381 0.87800002 16711652
-0.11623047 0.10452381 0.87800002 15659712
-0.11416667 0.10416667 0.87500006 10725237
-0.1125 0.10416667 0.87500006 11447652
-0.11058 0.10392857 0.87300003 12039789
-0.10891715 0.10392857 0.87300003 11708748
-0.10676286 0.10345238 0.86900002 12498264
-0.10486572 0.10321429 0.86700004 12891246
-0.10321429 0.10321429 0.86700004 14009727
-0.10121143 0.10285714 0.86400002 13353355
-0.099335246 0.10261905 0.86200005 12432253
-0.09746667 0.10238095 0.86000001 12433243
-0.09582857 0.10238095 0.86000001 13551724
-0.093971431 0.10214286 0.85800004 14206588
-0.092337146 0.10214286 0.85800004 13943416
-0.090702862 0.10214286 0.85800004 13811825
-0.089276187 0.10238095 0.86000001 13811825
-0.087638095 0.10238095 0.86000001 13943148
-0.093800001 0.11166666 0.93800002 14008941
-0.092013337 0.11166666 0.93800002 13943157
-0.090419047 0.11190477 0.94000006 14140536
-0.088628575 0.11190477 0.94000006 13417601
-0.086838104 0.11190477 0.94000006 13154429
-0.077447623 0.10190476 0.85600007 13089883
-0.075817153 0.10190476 0.85600007 13287262
-0.074186668 0.10190476 0.85600007 13024135
-0.072725721 0.10214286 0.85800004 13024135
-0.071091428 0.10214286 0.85800004 12760959
-0.069457144 0.10214286 0.85800004 12563580
-0.067822859 0.10214286 0.85800004 12563571
-0.066188574 0.10214286 0.85800004 11774055
-0.064554289 0.10214286 0.85800004 11840325
-0.062920004 0.10214286 0.85800004 12893013
-0.061285719 0.10214286 0.85800004 13942664
-0.059651431 0.10214286 0.85800004 14271629
-0.058017146 0.10214286 0.85800004 14142871
-0.056382861 0.10214286 0.85800004 12037495
-0.054748576 0.10214286 0.85800004 11971675
-0.053238098 0.10238095 0.86000001 12563812
-0.051599998 0.10238095 0.86000001 14007694
-0.050194286 0.10285714 0.86400002 13678729
-0.048717145 0.10321429 0.86700004 12431976
-0.047065716 0.10321429 0.86700004 11445081
-0.045414288 0.10321429 0.86700004 11838828
-0.043863807 0.10345238 0.86900002 12167793
-0.042208571 0.10345238 0.86900002 10987099
-0.040646669 0.10369048 0.87100005 7631656
-0.039077144 0.10392857 0.87300003 7176272
-0.037500001 0.10416667 0.87500006 9281648
-0.036038097 0.10476191 0.88000005 10591053
-0.034440003 0.105 0.88200003 15854493
-0.12052858 0.10704286 0.88500005 16646113
-0.11790286 0.10619619 0.87800002 16711650
-0.11623047 0.10619619 0.87800002 15791555
-0.11416667 0.10583334 0.87500006 10988666
-0.1125 0.10583334 0.87500006 10989663
-0.11058 0.10559143 0.87300003 11581800
-0.10891715 0.10559143 0.87300003 12761463
-0.10676286 0.10510762 0.86900002 13550979
-0.10486572 0.10486572 0.86700004 13550466
-0.10321429 0.10486572 0.86700004 12366192
-0.10121143 0.10450286 0.86400002 9080419
-0.099335246 0.10426096 0.86200005 6909250
-0.09746667 0.10401905 0.86000001 9406813
-0.09582857 0.10401905 0.86000001 13354393
-0.093971431 0.10377715 0.85800004 13615482
-0.092337146 0.10377715 0.85800004 12825966
-0.090702862 0.10377715 0.85800004 12234099
-0.089276187 0.10401905 0.86000001 12036720
-0.087638095 0.10401905 0.86000001 12364650
-0.086000003 0.10401905 0.86000001 13351545
-0.084165715 0.10377715 0.85800004 14073980
-0.08253143 0.10377715 0.85800004 14534531
-0.080897145 0.10377715 0.85800004 13219718
-0.07926286 0.10377715 0.85800004 11640686
-0.077447623 0.10353524 0.85600007 11971411
-0.075817153 0.10353524 0.85600007 13221478
-0.074186668 0.10353524 0.85600007 13220999
-0.072725721 0.10377715 0.85800004 13813136
-0.071091428 0.10377715 0.85800004 12894074
-0.069457144 0.10377715 0.85800004 10328147
-0.067822859 0.10377715 0.85800004 10525514
-0.066188574 0.10377715 0.85800004 10328135
-0.064554289 0.10377715 0.85800004 10984236
-0.062920004 0.10377715 0.85800004 13352784
-0.061285719 0.10377715 0.85800004 13352328
-0.059651431 0.10377715 0.85800004 13220742
-0.058152381 0.10401905 0.86000001 11513456
-0.056514286 0.10401905 0.86000001 9868631
-0.054876193 0.10401905 0.86000001 10067023
-0.053238098 0.10401905 0.86000001 10264402
-0.051720005 0.10426096 0.86200005 11708012
-0.050194286 0.10450286 0.86400002 13221251
-0.048717145 0.10486572 0.86700004 13287046
-0.047065716 0.10486572 0.86700004 13813390
-0.04551905 0.10510762 0.86900002 13156228
-0.043863807 0.10510762 0.86900002 10392922
-0.042305715 0.10534953 0.87100005 7503186
-0.040646669 0.10534953 0.87100005 6647877
-0.039077144 0.10559143 0.87300003 7832396
-0.037628572 0.10619619 0.87800002 10398323
-0.036038097 0.1064381 0.88000005 11380083
-0.034440003 0.10668 0.88200003 15919800
-0.12052858 0.10872858 0.88500005 16646113
-0.11844 0.10836001 0.88200003 16711650
-0.11623047 0.10786857 0.87800002 15923150
-0.11416667 0.10750001 0.87500006 11712398
-0.1125 0.10750001 0.87500006 10594919
-0.11058 0.10725429 0.87300003 11187056
-0.10866762 0.10700858 0.87100005 13417869
-0.10676286 0.10676286 0.86900002 14141592
-0.10510762 0.10676286 0.86900002 13486222
-0.10321429 0.10651714 0.86700004 9867607
-0.10156287 0.10651714 0.86700004 8162372
-0.099565722 0.10614857 0.86400002 6254375
-0.09746667 0.10565715 0.86000001 8685341
-0.09582857 0.10565715 0.86000001 11974991
-0.094190478 0.10565715 0.86000001 13419393
-0.092552379 0.10565715 0.86000001 12564084
-0.090914287 0.10565715 0.86000001 11577437
-0.089276187 0.10565715 0.86000001 11511644
-0.087638095 0.10565715 0.86000001 11509577
-0.086000003 0.10565715 0.86000001 13417574
-0.084165715 0.10541143 0.85800004 13679492
-0.08253143 0.10541143 0.85800004 13942664
-0.080897145 0.10541143 0.85800004 13088393
-0.07926286 0.10541143 0.85800004 9667157
-0.077628575 0.10541143 0.85800004 10192928
-0.07599429 0.10541143 0.85800004 12166718
-0.074360006 0.10541143 0.85800004 13154940
-0.072725721 0.10541143 0.85800004 13812870
-0.071091428 0.10541143 0.85800004 12895620
-0.069457144 0.10541143 0.85800004 10592865
-0.067822859 0.10541143 0.85800004 9933629
-0.066188574 0.10541143 0.85800004 10131008
-0.064554289 0.10541143 0.85800004 10786841
-0.062920004 0.10541143 0.85800004 13747526
-0.061285719 0.10541143 0.85800004 13024644
-0.059790477 0.10565715 0.86000001 11708784
-0.058152381 0.10565715 0.86000001 10331229
-0.056514286 0.10565715 0.86000001 9607506
-0.054876193 0.10565715 0.86000001 9280344
-0.053361908 0.10590286 0.86200005 9148758
-0.051720005 0.10590286 0.86200005 10263378
-0.050368574 0.10651714 0.86700004 11381859
-0.048717145 0.10651714 0.86700004 13549435
-0.047065716 0.10651714 0.86700004 14338951
-0.04551905 0.10676286 0.86900002 12960146
-0.043964762 0.10700858 0.87100005 7630913
-0.042305715 0.10700858 0.87100005 6781221
-0.040739998 0.10725429 0.87300003 6847014
-0.03916667 0.10750001 0.87500006 8160328
-0.037714288 0.10811429 0.88000005 10857841
-0.036038097 0.10811429 0.88000005 11511928
-0.034440003 0.10836001 0.88200003 16249024
-0.031256191 0.10897429 0.88700002 16646097
-0.12080096 0.11066382 0.88700002 16646115
-0.11884286 0.11041429 0.88500005 16711652
-0.11623047 0.10954095 0.87800002 16580320
-0.11416667 0.10916667 0.87500006 12830119
-0.11224286 0.10891715 0.87300003 10661245
-0.11058 0.10891715 0.87300003 10069108
-0.10866762 0.10866762 0.87100005 12697226
-0.10676286 0.1084181 0.86900002 13157777
-0.10510762 0.1084181 0.86900002 12566602
-0.10321429 0.10816857 0.86700004 7434752
-0.10156287 0.10816857 0.86700004 5732399
-0.099565722 0.10779429 0.86400002 5403434
-0.097693332 0.10754476 0.86200005 6650164
-0.09582857 0.10729524 0.86000001 7834438
-0.094190478 0.10729524 0.86000001 11249237
-0.092552379 0.10729524 0.86000001 13223027
-0.090914287 0.10729524 0.86000001 13287280
-0.089276187 0.10729524 0.86000001 12695143
-0.087638095 0.10729524 0.86000001 13286015
-0.086000003 0.10729524 0.86000001 13812359
-0.084165715 0.10704572 0.85800004 13219720
-0.08253143 0.10704572 0.85800004 11509102
-0.080897145 0.10704572 0.85800004 10127204
-0.07926286 0.10704572 0.85800004 8877137
-0.077628575 0.10704572 0.85800004 8812870
-0.07599429 0.10704572 0.85800004 9141835
-0.074360006 0.10704572 0.85800004 10325289
-0.072725721 0.10704572 0.85800004 11970114
-0.071091428 0.10704572 0.85800004 12497771
-0.069457144 0.10704572 0.85800004 13813631
-0.067822859 0.10704572 0.85800004 13089413
-0.066188574 0.10704572 0.85800004 12760448
-0.064554289 0.10704572 0.85800004 12892286
-0.062920004 0.10704572 0.85800004 13089665
-0.061285719 0.10704572 0.85800004 11974500
-0.059790477 0.10729524 0.86000001 10263882
-0.058152381 0.10729524 0.86000001 9542751
-0.056514286 0.10729524 0.86000001 9608544
-0.055003811 0.10754476 0.86200005 9477471
-0.053361908 0.10754476 0.86200005 9477471
-0.051840004 0.10779429 0.86400002 9870178
-0.050368574 0.10816857 0.86700004 9804385
-0.048717145 0.10816857 0.86700004 12892487
-0.047174286 0.1084181 0.86900002 14405726
-0.04551905 0.1084181 0.86900002 12565088
-0.043964762 0.10866762 0.87100005 7367441
-0.042305715 0.10866762 0.87100005 6257480
-0.040739998 0.10891715 0.87300003 7046996
-0.039300956 0.10954095 0.87800002 7964232
-0.037714288 0.10979048 0.88000005 10924917
-0.036120001 0.11004001 0.88200003 12564879
-0.034440003 0.11004001 0.88200003 16709838
-0.032945715 0.11066382 0.88700002 16646099
-0.11623047 0.11121333 0.87800002 16646120
-0.11416667 0.11083334 0.87500006 13093298
-0.11224286 0.11058 0.87300003 11120756
-0.11058 0.11058 0.87300003 9870689
-0.10866762 0.11032668 0.87100005 11120506
-0.10676286 0.11007334 0.86900002 11975815
-0.10510762 0.11007334 0.86900002 10200924
-0.10321429 0.10982 0.86700004 6384930
-0.10156287 0.10982 0.86700004 5469740
-0.099565722 0.10944 0.86400002 5732912
-0.097693332 0.10918667 0.86200005 5273120
-0.09582857 0.10893334 0.86000001 5536292
-0.094190478 0.10893334 0.86000001 9014298
-0.092552379 0.10893334 0.86000001 11843397
-0.090914287 0.10893334 0.86000001 13681273
-0.089276187 0.10893334 0.86000001 13681273
-0.087638095 0.10893334 0.86000001 13548955
-0.086000003 0.10893334 0.86000001 13483162
-0.084165715 0.10868 0.85800004 12497285
-0.08253143 0.10868 0.85800004 9931358
-0.080897145 0.10868 0.85800004 9274180
-0.07926286 0.10868 0.85800004 8879422
-0.077628575 0.10868 0.85800004 8813633
-0.07599429 0.10868 0.85800004 8353082
-0.074360006 0.10868 0.85800004 8811520
-0.072725721 0.10868 0.85800004 10127378
-0.071091428 0.10868 0.85800004 12493637
-0.069457144 0.10868 0.85800004 13283153
-0.067822859 0.10868 0.85800004 14270337
-0.066188574 0.10868 0.85800004 14204544
-0.064554289 0.10868 0.85800004 12958597
-0.063066669 0.10893334 0.86000001 11971702
-0.061428569 0.10893334 0.86000001 10529378
-0.059790477 0.10893334 0.86000001 9608276
-0.058287621 0.10918667 0.86200005 9017947
-0.056645717 0.10918667 0.86200005 9149533
-0.055003811 0.10918667 0.86200005 9148749
-0.053485714 0.10944 0.86400002 9543507
-0.051840004 0.10944 0.86400002 9542751
-0.050368574 0.10982 0.86700004 9213786
-0.048717145 0.10982 0.86700004 11313745
-0.047174286 0.11007334 0.86900002 13879672
-0.04551905 0.11007334 0.86900002 11711605
-0.043964762 0.11032668 0.87100005 7764025
-0.042305715 0.11032668 0.87100005 5996082
-0.040833335 0.11083334 0.87500006 6654012
-0.039300956 0.11121333 0.87800002 7636030
-0.037714288 0.11146668 0.88000005 11123059
-0.036120001 0.11172 0.88200003 13223318
-0.034557145 0.11210001 0.88500005 16776911
-0.032945715 0.11235333 0.88700002 16646104
-0.1145581 0.11288572 0.87800002 14145979
-0.1125 0.1125 0.87500006 10858881
-0.11083334 0.1125 0.87500006 9279849
-0.10891715 0.11224286 0.87300003 10858091
-0.10700858 0.11198572 0.87100005 11976572
-0.10534953 0.11198572 0.87100005 10463344
-0.10345238 0.11172857 0.86900002 6581557
-0.10156287 0.11147143 0.86700004 5732678
-0.099911429 0.11147143 0.86700004 6061643
-0.097693332 0.11082857 0.86200005 5666636
-0.096051432 0.11082857 0.86200005 5666636
-0.094190478 0.11057143 0.86000001 7503897
-0.092552379 0.11057143 0.86000001 9477687
-0.090914287 0.11057143 0.86000001 13089866
-0.089276187 0.11057143 0.86000001 14866277
-0.087638095 0.11057143 0.86000001 13745551
-0.086000003 0.11057143 0.86000001 11311210
-0.084165715 0.11031429 0.85800004 9470046
-0.08253143 0.11031429 0.85800004 8746323
-0.080897145 0.11031429 0.85800004 8683060
-0.07926286 0.11031429 0.85800004 9012025
-0.077628575 0.11031429 0.85800004 8945226
-0.07599429 0.11031429 0.85800004 8682054
-0.074360006 0.11031429 0.85800004 8812877
-0.072725721 0.11031429 0.85800004 8681291
-0.071091428 0.11031429 0.85800004 10192688
-0.069457144 0.11031429 0.85800004 11969099
-0.067822859 0.11031429 0.85800004 13679458
-0.066188574 0.11031429 0.85800004 14732146
-0.064554289 0.11031429 0.85800004 12958831
-0.063066669 0.11057143 0.86000001 10590283
-0.061428569 0.11057143 0.86000001 9477471
-0.059929527 0.11082857 0.86200005 9609057
-0.058287621 0.11082857 0.86200005 9215074
-0.056645717 0.11082857 0.86200005 9215074
-0.055131428 0.11108571 0.86400002 9346900
-0.053485714 0.11108571 0.86400002 9412693
-0.052020002 0.11147143 0.86700004 9411678
-0.050368574 0.11147143 0.86700004 8885334
-0.048829522 0.11172857 0.86900002 11051381
-0.047174286 0.11172857 0.86900002 13485722
-0.045623813 0.11198572 0.87100005 12763782
-0.044065714 0.11224286 0.87300003 8553030
-0.04240286 0.11224286 0.87300003 6391110
-0.040833335 0.1125 0.87500006 6259524
-0.039300956 0.11288572 0.87800002 8359240
-0.037714288 0.11314286 0.88000005 11517304
-0.036038097 0.11314286 0.88000005 12960391
-0.034440003 0.1134 0.88200003 16777159
-0.032945715 0.11404286 0.88700002 16646101
-0.031256191 0.11404286 0.88700002 16711638
-0.11623047 0.1145581 0.87800002 16646116
-0.1145581 0.1145581 0.87800002 14409410
-0.1125 0.11416667 0.87500006 12173960
-0.11083334 0.11416667 0.87500006 10265963
-0.10891715 0.11390572 0.87300003 11251302
-0.10700858 0.11364476 0.87100005 12369783
-0.10534953 0.11364476 0.87100005 10397810
-0.10345238 0.11338381 0.86900002 6976574
-0.10156287 0.11312287 0.86700004 5667135
-0.099911429 0.11312287 0.86700004 6061893
-0.097693332 0.11247049 0.86200005 5797701
-0.096051432 0.11247049 0.86200005 5995080
-0.094190478 0.11220952 0.86000001 6257448
-0.092552379 0.11220952 0.86000001 6257448
-0.090914287 0.11220952 0.86000001 11182404
-0.089276187 0.11220952 0.86000001 14143089
-0.087638095 0.11220952 0.86000001 13483932
-0.086000003 0.11220952 0.86000001 9141594
-0.084361903 0.11220952 0.86000001 9403715
-0.08253143 0.11194857 0.85800004 9140543
-0.080897145 0.11194857 0.85800004 8551486
-0.07944762 0.11220952 0.86000001 8880451
-0.077809528 0.11220952 0.86000001 8880719
-0.07599429 0.11194857 0.85800004 8814926
-0.074360006 0.11194857 0.85800004 8945742
-0.072725721 0.11194857 0.85800004 8550984
-0.071091428 0.11194857 0.85800004 9010439
-0.069457144 0.11194857 0.85800004 10457885
-0.067822859 0.11194857 0.85800004 12889438
-0.066188574 0.11194857 0.85800004 14534263
-0.064704761 0.11220952 0.86000001 12236675
-0.063066669 0.11220952 0.86000001 10131299
-0.061428569 0.11220952 0.86000001 8820820
-0.059929527 0.11247049 0.86200005 9083992
-0.058287621 0.11247049 0.86200005 8557144
-0.056777142 0.11273143 0.86400002 9083488
-0.055322859 0.11312287 0.86700004 9215839
-0.053671431 0.11312287 0.86700004 9215839
-0.052020002 0.11312287 0.86700004 9411676
-0.050368574 0.11312287 0.86700004 9740641
-0.048829522 0.11338381 0.86900002 11776106
-0.047174286 0.11338381 0.86900002 13355138
-0.045623813 0.11364476 0.87100005 12765079
-0.044065714 0.11390572 0.87300003 9804394
-0.042500004 0.11416667 0.87500006 6784817
-0.040973332 0.1145581 0.87800002 6587438
-0.039300956 0.1145581 0.87800002 9344834
-0.037714288 0.11481905 0.88000005 12108140
-0.036038097 0.11481905 0.88000005 12763012
-0.034361906 0.11481905 0.88000005 16777160
-0.032685716 0.11481905 0.88000005 16646109
-0.11623047 0.11623047 0.87800002 16646116
-0.1145581 0.11623047 0.87800002 15198926
-0.1125 0.11583334 0.87500006 12501655
-0.11083334 0.11583334 0.87500006 11317381
-0.10891715 0.11556857 0.87300003 12565890
-0.10700858 0.11530381 0.87100005 14013336
-0.10534953 0.11530381 0.87100005 12698489
-0.10345238 0.11503904 0.86900002 7829807
-0.10179714 0.11503904 0.86900002 5798471
-0.099911429 0.11477429 0.86700004 6061643
-0.097920001 0.11437714 0.86400002 5732175
-0.096051432 0.11411238 0.86200005 6061140
-0.094409525 0.11411238 0.86200005 5994826
-0.092552379 0.11384762 0.86000001 5534275
-0.090914287 0.11384762 0.86000001 10393926
-0.089276187 0.11384762 0.86000001 13946748
-0.087638095 0.11384762 0.86000001 13023100
-0.086000003 0.11384762 0.86000001 8878141
-0.084361903 0.11384762 0.86000001 8354137
-0.082723811 0.11384762 0.86000001 8617309
-0.081085712 0.11384762 0.86000001 9011021
-0.07944762 0.11384762 0.86000001 9142607
-0.077809528 0.11384762 0.86000001 9077328
-0.076171428 0.11384762 0.86000001 8945742
-0.074533336 0.11384762 0.86000001 8880199
-0.072725721 0.11358286 0.85800004 8682820
-0.071091428 0.11358286 0.85800004 8879408
-0.069457144 0.11358286 0.85800004 9997889
-0.06798096 0.11384762 0.86000001 12233302
-0.06634286 0.11384762 0.86000001 14075506
-0.064704761 0.11384762 0.86000001 12631928
-0.063066669 0.11384762 0.86000001 10263380
-0.061428569 0.11384762 0.86000001 8821351
-0.059929527 0.11411238 0.86200005 9216109
-0.05842286 0.11437714 0.86400002 9214824
-0.056777142 0.11437714 0.86400002 9083238
-0.055322859 0.11477429 0.86700004 9084262
-0.053671431 0.11477429 0.86700004 9150055
-0.052020002 0.11477429 0.86700004 10068575
-0.050484765 0.11503904 0.86900002 12108158
-0.048829522 0.11503904 0.86900002 12959344
-0.04728286 0.11530381 0.87100005 13354102
-0.045728575 0.11556857 0.87300003 13223561
-0.044166669 0.11583334 0.87500006 13223561
-0.042500004 0.11583334 0.87500006 11713136
-0.040973332 0.11623047 0.87800002 10397276
-0.039300956 0.11623047 0.87800002 10463096
-0.037714288 0.11649524 0.88000005 11910542
-0.036038097 0.11649524 0.88000005 12369283
-0.034361906 0.11649524 0.88000005 16777162
-0.1145581 0.11790286 0.87800002 15264467
-0.1125 0.11750001 0.87500006 13749671
-0.11083334 0.11750001 0.87500006 13091741
-0.10891715 0.11723143 0.87300003 13484936
-0.10725429 0.11723143 0.87300003 13945487
-0.10534953 0.11696286 0.87100005 12960409
-0.10369048 0.11696286 0.87100005 9670759
-0.10179714 0.11669429 0.86900002 6060629
-0.099911429 0.11642572 0.86700004 5994836
-0.097920001 0.11602286 0.86400002 5600574
-0.096274287 0.11602286 0.86400002 5666367
-0.094409525 0.11575429 0.86200005 4748086
-0.092767626 0.11575429 0.86200005 4945465
-0.090914287 0.11548571 0.86000001 9933643
-0.089276187 0.11548571 0.86000001 13749637
-0.087638095 0.11548571 0.86000001 11972994
-0.086000003 0.11548571 0.86000001 8420172
-0.084361903 0.11548571 0.86000001 8287812
-0.082723811 0.11548571 0.86000001 8748363
-0.081085712 0.11548571 0.86000001 9208398
-0.07944762 0.11548571 0.86000001 9208398
-0.077809528 0.11548571 0.86000001 9340754
-0.076171428 0.11548571 0.86000001 8880203
-0.074533336 0.11548571 0.86000001 8748865
-0.072895236 0.11548571 0.86000001 8485693
-0.071091428 0.11521715 0.85800004 8551687
-0.069457144 0.11521715 0.85800004 10328098
-0.06798096 0.11548571 0.86000001 11970132
-0.06634286 0.11548571 0.86000001 13746543
-0.064704761 0.11548571 0.86000001 12303740
-0.063066669 0.11548571 0.86000001 10461536
-0.06157143 0.11575429 0.86200005 8689504
-0.059929527 0.11575429 0.86200005 9215848
-0.05842286 0.11602286 0.86400002 9674337
-0.056974288 0.11642572 0.86700004 9411165
-0.055322859 0.11642572 0.86700004 9214808
-0.053671431 0.11642572 0.86700004 9346394
-0.052020002 0.11642572 0.86700004 10789999
-0.050484765 0.11669429 0.86900002 12632203
-0.048829522 0.11669429 0.86900002 13025412
-0.04728286 0.11696286 0.87100005 12696447
-0.045728575 0.11723143 0.87300003 13221235
-0.044166669 0.11750001 0.87500006 13681786
-0.042500004 0.11750001 0.87500006 13418891
-0.040973332 0.11790286 0.87800002 12760961
-0.039390478 0.11817144 0.88000005 10727020
-0.037714288 0.11817144 0.88000005 10661227
-0.036120001 0.11844 0.88200003 12040570
-0.034440003 0.11844 0.88200003 16777158
-0.033020001 0.11938 0.88900006 16646116
-0.1145581 0.11957524 0.87800002 15198678
-0.11288572 0.11957524 0.87800002 14078398
-0.11083334 0.11916667 0.87500006 13749433
-0.10916667 0.11916667 0.87500006 12827779
-0.10725429 0.11889429 0.87300003 11709298
-0.10559143 0.11889429 0.87300003 11840897
-0.10369048 0.11862192 0.87100005 12564620
-0.10179714 0.11834953 0.86900002 9345659
-0.10014191 0.11834953 0.86900002 6187595
-0.09826 0.11807714 0.86700004 5207371
-0.096274287 0.11766857 0.86400002 5733715
-0.094628572 0.11766857 0.86400002 6651202
-0.092767626 0.1173962 0.86200005 9151336
-0.091125719 0.1173962 0.86200005 11972229
-0.089276187 0.11712381 0.86000001 13814433
-0.087638095 0.11712381 0.86000001 13747588
-0.086000003 0.11712381 0.86000001 11576419
-0.084361903 0.11712381 0.86000001 9143921
-0.082723811 0.11712381 0.86000001 8354405
-0.081085712 0.11712381 0.86000001 8618060
-0.07944762 0.11712381 0.86000001 8749646
-0.077809528 0.11712381 0.86000001 8945992
-0.076171428 0.11712381 0.86000001 8682820
-0.074533336 0.11712381 0.86000001 9011519
-0.072895236 0.11712381 0.86000001 8814140
-0.071257144 0.11712381 0.86000001 9536053
-0.069619045 0.11712381 0.86000001 12957289
-0.06798096 0.11712381 0.86000001 13418614
-0.06634286 0.11712381 0.86000001 13352821
-0.064704761 0.11712381 0.86000001 12566133
-0.063213333 0.1173962 0.86200005 12434547
-0.06157143 0.1173962 0.86200005 11121285
-0.059929527 0.1173962 0.86200005 10002804
-0.05842286 0.11766857 0.86400002 9150046
-0.056974288 0.11807714 0.86700004 9084253
-0.055322859 0.11807714 0.86700004 9674069
-0.053671431 0.11807714 0.86700004 11121515
-0.052020002 0.11807714 0.86700004 12368236
-0.050484765 0.11834953 0.86900002 12828787
-0.048829522 0.11834953 0.86900002 11248506
-0.04728286 0.11862192 0.87100005 8682579
-0.045728575 0.11889429 0.87300003 10259033
-0.044166669 0.11916667 0.87500006 13482890
-0.042500004 0.11916667 0.87500006 13681032
-0.040973332 0.11957524 0.87800002 13812618
-0.039390478 0.11984763 0.88000005 11711603
-0.037800003 0.12012 0.88200003 10922087
-0.036242858 0.12052858 0.88500005 12107392
-0.034713335 0.12107334 0.88900006 16777160
-0.033020001 0.12107334 0.88900006 16646116
-0.1145581 0.12124762 0.87800002 16185564
-0.11288572 0.12124762 0.87800002 14539700
-0.11121333 0.12124762 0.87800002 12763289
-0.10916667 0.12083334 0.87500006 13089910
-0.10750001 0.12083334 0.87500006 10655569
-0.10559143 0.12055714 0.87300003 11378761
-0.10369048 0.12028096 0.87100005 13418344
-0.10179714 0.12000477 0.86900002 11777179
-0.10014191 0.12000477 0.86900002 6711118
-0.09826 0.11972857 0.86700004 5141248
-0.096608572 0.11972857 0.86700004 5733385
-0.094628572 0.11931429 0.86400002 7502884
-0.092982858 0.11931429 0.86400002 11187292
-0.091125719 0.1190381 0.86200005 13351556
-0.089483812 0.1190381 0.86200005 14009486
-0.087638095 0.1187619 0.86000001 13747849
-0.086000003 0.1187619 0.86000001 12826747
-0.084361903 0.1187619 0.86000001 10789255
-0.082723811 0.1187619 0.86000001 9276016
-0.081085712 0.1187619 0.86000001 8553550
-0.07944762 0.1187619 0.86000001 8421964
-0.077809528 0.1187619 0.86000001 8618042
-0.076171428 0.1187619 0.86000001 8552249
-0.074533336 0.1187619 0.86000001 9208884
-0.072895236 0.1187619 0.86000001 9801021
-0.071257144 0.1187619 0.86000001 11442782
-0.069619045 0.1187619 0.86000001 13350779
-0.06798096 0.1187619 0.86000001 13747343
-0.06634286 0.1187619 0.86000001 13023620
-0.064704761 0.1187619 0.86000001 13024374
-0.063213333 0.1190381 0.86200005 13353339
-0.06157143 0.1190381 0.86200005 12764829
-0.060068574 0.11931429 0.86400002 11580555
-0.05842286 0.11931429 0.86400002 8824170
-0.056974288 0.11972857 0.86700004 8232033
-0.055322859 0.11972857 0.86700004 9738828
-0.053671431 0.11972857 0.86700004 12107376
-0.052140001 0.12000477 0.86900002 12958590
-0.050484765 0.12000477 0.86900002 11905902
-0.048829522 0.12000477 0.86900002 10721376
-0.04728286 0.12028096 0.87100005 8813379
-0.045728575 0.12055714 0.87300003 9798942
-0.044166669 0.12083334 0.87500006 12167490
-0.042645715 0.12124762 0.87800002 14139523
-0.041066669 0.12152381 0.88000005 14073730
-0.039480001 0.12180001 0.88200003 12631156
-0.03792857 0.12221429 0.88500005 11249503
-0.036242858 0.12221429 0.88500005 12566903
-0.034635238 0.12249048 0.88700002 16777148
-0.031256191 0.12249048 0.88700002 16580581
-0.1145581 0.12292001 0.87800002 16449235
-0.11288572 0.12292001 0.87800002 15328419
-0.11121333 0.12292001 0.87800002 11907183
-0.10954095 0.12292001 0.87800002 11248224
-0.10786857 0.12292001 0.87800002 8879676
-0.10583334 0.12250001 0.87500006 10061904
-0.10416667 0.12250001 0.87500006 13483140
-0.10226572 0.12222001 0.87300003 12301707
-0.10037239 0.12194 0.87100005 10459503
-0.098486669 0.12166 0.86900002 10002764
-0.096831433 0.12166 0.86900002 10265936
-0.094957143 0.12138 0.86700004 12368493
-0.092982858 0.12096 0.86400002 13355388
-0.091337144 0.12096 0.86400002 12959090
-0.089483812 0.12068 0.86200005 11906402
-0.087841913 0.12068 0.86200005 12827238
-0.086000003 0.1204 0.86000001 13748340
-0.084361903 0.1204 0.86000001 12564116
-0.082723811 0.1204 0.86000001 11774600
-0.081085712 0.1204 0.86000001 10328689
-0.07944762 0.1204 0.86000001 8354899
-0.077809528 0.1204 0.86000001 8420663
-0.076171428 0.1204 0.86000001 8749628
-0.074533336 0.1204 0.86000001 9930820
-0.072895236 0.1204 0.86000001 13088884
-0.071257144 0.1204 0.86000001 13022850
-0.069619045 0.1204 0.86000001 12891264
-0.06798096 0.1204 0.86000001 10196583
-0.06634286 0.1204 0.86000001 8222793
-0.064855248 0.12068 0.86200005 9669476
-0.063213333 0.12068 0.86200005 12564368
-0.06157143 0.12068 0.86200005 13353600
-0.060068574 0.12096 0.86400002 13748358
-0.058625717 0.12138 0.86700004 12171897
-0.056974288 0.12138 0.86700004 10724451
-0.055322859 0.12138 0.86700004 11710070
-0.053795237 0.12166 0.86900002 13223309
-0.052140001 0.12166 0.86900002 12695150
-0.050600957 0.12194 0.87100005 9339707
-0.049054284 0.12222001 0.87300003 9142603
-0.047500003 0.12250001 0.87500006 8747845
-0.045990478 0.12292001 0.87800002 9076292
-0.044318095 0.12292001 0.87800002 9997394
-0.042742856 0.1232 0.88000005 12562017
-0.041160002 0.12348001 0.88200003 13746291
-0.039480001 0.12348001 0.88200003 12236650
-0.03792857 0.1239 0.88500005 10920790
-0.036242858 0.1239 0.88500005 12633459
-0.034635238 0.12418 0.88700002 16777141
-0.032945715 0.12418 0.88700002 16646118
-0.11146668 0.1248762 0.88000005 11314551
-0.10954095 0.12459239 0.87800002 11313490
-0.10786857 0.12459239 0.87800002 9668665
-0.10583334 0.12416668 0.87500006 10062399
-0.10416667 0.12416668 0.87500006 11970396
-0.10226572 0.12388287 0.87300003 12760441
-0.10037239 0.12359905 0.87100005 11839339
-0.098713338 0.12359905 0.87100005 11838817
-0.096831433 0.12331524 0.86900002 13088884
-0.095176198 0.12331524 0.86900002 13747856
-0.093305722 0.12303144 0.86700004 13550477
-0.091337144 0.12260572 0.86400002 12500342
-0.089483812 0.1223219 0.86200005 10197587
-0.087841913 0.1223219 0.86200005 10920254
-0.086000003 0.1220381 0.86000001 12433493
-0.084361903 0.1220381 0.86000001 13746325
-0.082723811 0.1220381 0.86000001 13219981
-0.081085712 0.1220381 0.86000001 11973003
-0.07944762 0.1220381 0.86000001 8946525
-0.077809528 0.1220381 0.86000001 8879360
-0.076171428 0.1220381 0.86000001 9537280
-0.074706666 0.1223219 0.86200005 11442260
-0.073064767 0.1223219 0.86200005 13613429
-0.071257144 0.1220381 0.86000001 13812629
-0.069619045 0.1220381 0.86000001 11575667
-0.068139054 0.1223219 0.86200005 8819019
-0.066497147 0.1223219 0.86200005 6647850
-0.064855248 0.1223219 0.86200005 8159006
-0.063359998 0.12260572 0.86400002 10856519
-0.061714288 0.12260572 0.86400002 13284473
-0.060068574 0.12260572 0.86400002 14073989
-0.058625717 0.12303144 0.86700004 13747345
-0.056974288 0.12303144 0.86700004 13352587
-0.055322859 0.12303144 0.86700004 12761997
-0.053795237 0.12331524 0.86900002 12564618
-0.052140001 0.12331524 0.86900002 11839078
-0.050600957 0.12359905 0.87100005 9141565
-0.049054284 0.12388287 0.87300003 8814410
-0.047500003 0.12416668 0.87500006 8814410
-0.045990478 0.12459239 0.87800002 8748599
-0.044318095 0.12459239 0.87800002 9340736
-0.042742856 0.1248762 0.88000005 11049814
-0.041160002 0.12515999 0.88200003 13155190
-0.039480001 0.12515999 0.88200003 11644509
-0.03792857 0.12558572 0.88500005 11052372
-0.036242858 0.12558572 0.88500005 13092736
-0.034635238 0.12586953 0.88700002 16777149
-0.032945715 0.12586953 0.88700002 16646118
-0.11378572 0.12727144 0.88500005 15329216
-0.11172 0.12684001 0.88200003 10394741
-0.10979048 0.12655239 0.88000005 11051874
-0.10786857 0.12626477 0.87800002 9604428
-0.10619619 0.12626477 0.87800002 9931601
-0.10416667 0.12583335 0.87500006 9865808
-0.10250001 0.12583335 0.87500006 10719311
-0.10060286 0.12554571 0.87300003 13943168
-0.098713338 0.1252581 0.87100005 13878933
