# .PCD v0.7 - Point Cloud Data file format
VERSION 0.7
FIELDS x y z rgba
SIZE 4 4 4 4
TYPE F F F U
COUNT 1 1 1 1
WIDTH 1109
HEIGHT 1
VIEWPOINT 0 0 0 1 0 0 0
POINTS 1109
DATA ascii
-0.013260001 0.12402001 0.81900007 16053155
-0.011700001 0.12402001 0.81900007 16052678
-0.092140004 0.12466 0.81300002 15789513
-0.090368576 0.12435335 0.81100005 9933936
-0.088823818 0.12435335 0.81100005 9407239
-0.087063812 0.12404668 0.80900002 12631096
-0.08552286 0.12404668 0.80900002 12105616
-0.083774291 0.12374 0.80700004 10197619
-0.082033344 0.12343334 0.80500007 9608805
-0.080300003 0.12312667 0.80300003 9608805
-0.078770474 0.12312667 0.80300003 9016920
-0.077144764 0.12297334 0.80200005 9082713
-0.075428575 0.12266667 0.80000001 9476942
-0.073720008 0.12236001 0.79800004 10332251
-0.072019048 0.12205334 0.79600006 12038515
-0.070502862 0.12205334 0.79600006 12564859
-0.068986669 0.12205334 0.79600006 13088652
-0.067470483 0.12205334 0.79600006 13812375
-0.06595429 0.12205334 0.79600006 13419150
-0.064276196 0.12174667 0.79400003 11642739
-0.06276381 0.12174667 0.79400003 8819543
-0.061097149 0.12144001 0.79200006 6187823
-0.059588574 0.12144001 0.79200006 4812587
-0.057933334 0.12113333 0.79000002 4878380
-0.05642857 0.12113333 0.79000002 5271076
-0.05492381 0.12113333 0.79000002 6915901
-0.053419046 0.12113333 0.79000002 9867584
-0.051848572 0.12098 0.78900003 11775581
-0.050345715 0.12098 0.78900003 13220481
-0.048842859 0.12098 0.78900003 12365172
-0.047400001 0.12113333 0.79000002 11970927
-0.045895241 0.12113333 0.79000002 12892029
-0.044502862 0.12144001 0.79200006 13023863
-0.042994291 0.12144001 0.79200006 12431726
-0.041485716 0.12144001 0.79200006 11314026
-0.040078096 0.12174667 0.79400003 8616513
-0.038565718 0.12174667 0.79400003 8485943
-0.037146669 0.12205334 0.79600006 8814908
-0.035630479 0.12205334 0.79600006 8155440
-0.03411429 0.12205334 0.79600006 8352819
-0.032598101 0.12205334 0.79600006 8352805
-0.031081906 0.12205334 0.79600006 8681770
-0.029640002 0.12236001 0.79800004 10391100
-0.028190477 0.12266667 0.80000001 14075508
-0.026733335 0.12297334 0.80200005 12828814
-0.025237143 0.12312667 0.80300003 10657645
-0.023884762 0.12404668 0.80900002 9214299
-0.022343809 0.12404668 0.80900002 9280092
-0.020854287 0.12435335 0.81100005 9608807
-0.019357143 0.12466 0.81300002 9543014
-0.017852381 0.12496667 0.81500006 10067289
-0.016340001 0.12527333 0.81700003 11909493
-0.01478381 0.12527333 0.81700003 13024883
-0.013260001 0.12558001 0.81900007 16314533
-0.011700001 0.12558001 0.81900007 16184264
-0.092140004 0.12620857 0.81300002 16053463
-0.090368576 0.12589811 0.81100005 10658437
-0.088823818 0.12589811 0.81100005 10655567
-0.087279052 0.12589811 0.81100005 12892529
-0.08552286 0.12558763 0.80900002 12302466
-0.083774291 0.12527715 0.80700004 10526055
-0.082237147 0.12527715 0.80700004 9740391
-0.080300003 0.12465619 0.80300003 9937770
-0.078770474 0.12465619 0.80300003 9345894
-0.077144764 0.12450096 0.80200005 9345894
-0.075617142 0.12450096 0.80200005 9542240
-0.073720008 0.12388001 0.79800004 9410654
-0.072200008 0.12388001 0.79800004 10789209
-0.070502862 0.12356954 0.79600006 12697206
-0.068986669 0.12356954 0.79600006 13023629
-0.067470483 0.12356954 0.79600006 12431492
-0.06595429 0.12356954 0.79600006 10525555
-0.064276196 0.12325906 0.79400003 7564870
-0.06276381 0.12325906 0.79400003 6191153
-0.061251432 0.12325906 0.79400003 6059567
-0.059588574 0.12294858 0.79200006 5535031
-0.058080003 0.12294858 0.79200006 6192961
-0.05642857 0.1226381 0.79000002 6059341
-0.05492381 0.1226381 0.79000002 5861962
-0.053419046 0.1226381 0.79000002 7437098
-0.051914286 0.1226381 0.79000002 8226614
-0.050409522 0.1226381 0.79000002 10524510
-0.048904765 0.1226381 0.79000002 13156230
-0.047400001 0.1226381 0.79000002 13352587
-0.045895241 0.1226381 0.79000002 13484173
-0.044502862 0.12294858 0.79200006 12760950
-0.04310286 0.12325906 0.79400003 9800265
-0.041590478 0.12325906 0.79400003 8550732
-0.040078096 0.12325906 0.79400003 8616525
-0.038565718 0.12325906 0.79400003 8683081
-0.037146669 0.12356954 0.79600006 8880460
-0.035630479 0.12356954 0.79600006 8681554
-0.03411429 0.12356954 0.79600006 8944726
-0.032598101 0.12356954 0.79600006 8748365
-0.031160003 0.12388001 0.79800004 8419400
-0.029714286 0.12419049 0.80000001 9799740
-0.028260954 0.12450096 0.80200005 13878906
-0.026733335 0.12450096 0.80200005 12565883
-0.025300002 0.12496667 0.80500007 10197335
-0.023884762 0.12558763 0.80900002 8886881
-0.022343809 0.12558763 0.80900002 8952674
-0.020854287 0.12589811 0.81100005 9543266
-0.019357143 0.12620857 0.81300002 10135403
-0.017852381 0.12651907 0.81500006 10921569
-0.016340001 0.12682953 0.81700003 11908464
-0.01478381 0.12682953 0.81700003 12695652
-0.013260001 0.12714 0.81900007 16314267
-0.011700001 0.12714 0.81900007 16579272
-0.092140004 0.12775715 0.81300002 16513752
-0.090591431 0.12775715 0.81300002 10921347
-0.089042857 0.12775715 0.81300002 11246372
-0.087279052 0.12744285 0.81100005 13878092
-0.085734285 0.12744285 0.81100005 13025678
-0.083981901 0.12712857 0.80900002 11380853
-0.082237147 0.12681429 0.80700004 9740902
-0.080500007 0.12650001 0.80500007 9806695
-0.078966677 0.12650001 0.80500007 9476710
-0.077240959 0.12618573 0.80300003 9542503
-0.075617142 0.12602857 0.80200005 9476960
-0.07390476 0.12571429 0.80000001 9345374
-0.072380953 0.12571429 0.80000001 9935437
-0.07068 0.12540001 0.79800004 12369778
-0.068986669 0.12508573 0.79600006 12762265
-0.067470483 0.12508573 0.79600006 11512198
-0.06595429 0.12508573 0.79600006 8950868
-0.064276196 0.12477144 0.79400003 6187562
-0.06276381 0.12477144 0.79400003 5470010
-0.061251432 0.12477144 0.79400003 5798975
-0.05973905 0.12477144 0.79400003 5271848
-0.058080003 0.12445715 0.79200006 5995571
-0.056571431 0.12445715 0.79200006 5994318
-0.05506286 0.12445715 0.79200006 5599560
-0.053554289 0.12445715 0.79200006 5337100
-0.051914286 0.12414286 0.79000002 5139721
-0.050409522 0.12414286 0.79000002 8882207
-0.048904765 0.12414286 0.79000002 13027166
-0.047400001 0.12414286 0.79000002 13353371
-0.046011433 0.12445715 0.79200006 13287578
-0.044615239 0.12477144 0.79400003 12170362
-0.04310286 0.12477144 0.79400003 8683333
-0.041590478 0.12477144 0.79400003 8091196
-0.040078096 0.12477144 0.79400003 8683333
-0.038662862 0.12508573 0.79600006 8945224
-0.037146669 0.12508573 0.79600006 8945224
-0.035630479 0.12508573 0.79600006 8682056
-0.03411429 0.12508573 0.79600006 8945228
-0.032680001 0.12540001 0.79800004 8552269
-0.031238094 0.12571429 0.80000001 8223304
-0.029714286 0.12571429 0.80000001 9470791
-0.028260954 0.12602857 0.80200005 13549957
-0.026766667 0.12618573 0.80300003 12302970
-0.025300002 0.12650001 0.80500007 10394973
-0.023884762 0.12712857 0.80900002 9214560
-0.022343809 0.12712857 0.80900002 9082974
-0.020854287 0.12744285 0.81100005 9148997
-0.019404763 0.12807143 0.81500006 10201685
-0.01789619 0.12838572 0.81700003 11380603
-0.016340001 0.12838572 0.81700003 10985845
-0.01478381 0.12838572 0.81700003 12100925
-0.013260001 0.1287 0.81900007 16640642
-0.011700001 0.1287 0.81900007 16644815
-0.094380006 0.13026001 0.81900007 16711650
-0.092593342 0.12994191 0.81700003 16580312
-0.091037147 0.12994191 0.81700003 12632732
-0.089042857 0.12930572 0.81300002 13353339
-0.087494291 0.12930572 0.81300002 13813890
-0.085734285 0.12898763 0.81100005 13222021
-0.083981901 0.12866952 0.80900002 12695677
-0.082440957 0.12866952 0.80900002 10463603
-0.080700003 0.12835144 0.80700004 9739880
-0.078966677 0.12803334 0.80500007 9215344
-0.077240959 0.12771523 0.80300003 9610102
-0.075711429 0.12771523 0.80300003 9675109
-0.074089527 0.12755619 0.80200005 9938281
-0.072561905 0.12755619 0.80200005 9804653
-0.07068 0.12692 0.79800004 11712650
-0.068986669 0.1266019 0.79600006 12237429
-0.067470483 0.1266019 0.79600006 10592604
-0.06595429 0.1266019 0.79600006 8424792
-0.064438097 0.1266019 0.79600006 6056244
-0.062921911 0.1266019 0.79600006 5600068
-0.061251432 0.12628381 0.79400003 5994826
-0.05973905 0.12628381 0.79400003 5928774
-0.058226667 0.12628381 0.79400003 5994567
-0.056571431 0.12596571 0.79200006 6125654
-0.05506286 0.12596571 0.79200006 5862482
-0.053554289 0.12596571 0.79200006 5403177
-0.052045718 0.12596571 0.79200006 5140005
-0.050537147 0.12596571 0.79200006 6714417
-0.049028575 0.12596571 0.79200006 10793583
-0.047520004 0.12596571 0.79200006 11775100
-0.046011433 0.12596571 0.79200006 11248756
-0.044615239 0.12628381 0.79400003 11051608
-0.04310286 0.12628381 0.79400003 8485681
-0.041590478 0.12628381 0.79400003 8353873
-0.040078096 0.12628381 0.79400003 8551252
-0.038662862 0.1266019 0.79600006 8813379
-0.037146669 0.1266019 0.79600006 8813379
-0.035630479 0.1266019 0.79600006 8945226
-0.03411429 0.1266019 0.79600006 9011019
-0.032680001 0.12692 0.79800004 8683342
-0.031238094 0.12723809 0.80000001 9209686
-0.029788572 0.12755619 0.80200005 10193018
-0.028260954 0.12755619 0.80200005 13877426
-0.026766667 0.12771523 0.80300003 13287796
-0.025362857 0.12835144 0.80700004 12629866
-0.023884762 0.12866952 0.80900002 10725503
-0.022399049 0.12898763 0.81100005 9804401
-0.020905714 0.12930572 0.81300002 9805646
-0.019404763 0.12962382 0.81500006 11318885
-0.01789619 0.12994191 0.81700003 11775872
-0.016340001 0.12994191 0.81700003 10328426
-0.014820001 0.13026001 0.81900007 11050559
-0.013260001 0.13026001 0.81900007 15787655
-0.011728572 0.1305781 0.82100004 16645324
-0.094380006 0.13182001 0.81900007 16646116
-0.092820004 0.13182001 0.81900007 16646118
-0.091037147 0.1314981 0.81700003 13225138
-0.089261912 0.1311762 0.81500006 13813136
-0.087494291 0.13085429 0.81300002 12957827
-0.085734285 0.13053238 0.81100005 12958052
-0.084189527 0.13053238 0.81100005 13155431
-0.082440957 0.13021049 0.80900002 11252368
-0.080700003 0.12988858 0.80700004 9804922
-0.079162858 0.12988858 0.80700004 9280605
-0.07743334 0.12956668 0.80500007 9346398
-0.075711429 0.12924476 0.80300003 9214808
-0.074089527 0.12908381 0.80200005 9149015
-0.072561905 0.12908381 0.80200005 9542233
-0.070857145 0.1287619 0.80000001 11976574
-0.069333337 0.1287619 0.80000001 12566669
-0.067639999 0.12843999 0.79800004 11579774
-0.06595429 0.12811811 0.79600006 7966038
-0.064438097 0.12811811 0.79600006 5926455
-0.062921911 0.12811811 0.79600006 5008433
-0.061405718 0.12811811 0.79600006 5929535
-0.05973905 0.12779619 0.79400003 5994567
-0.058226667 0.12779619 0.79400003 5994567
-0.056714289 0.12779619 0.79400003 5994068
-0.055201907 0.12779619 0.79400003 5862482
-0.053689525 0.12779619 0.79400003 5796922
-0.052045718 0.12747429 0.79200006 5533750
-0.050537147 0.12747429 0.79200006 5928463
-0.049028575 0.12747429 0.79200006 10205008
-0.047640003 0.12779619 0.79400003 11513470
-0.046127621 0.12779619 0.79400003 11381884
-0.044615239 0.12779619 0.79400003 10131038
-0.04310286 0.12779619 0.79400003 8420420
-0.041590478 0.12779619 0.79400003 8156737
-0.040179051 0.12811811 0.79600006 8551495
-0.038662862 0.12811811 0.79600006 8748099
-0.037146669 0.12811811 0.79600006 8945478
-0.035630479 0.12811811 0.79600006 8945744
-0.03411429 0.12811811 0.79600006 8814158
-0.032680001 0.12843999 0.79800004 8945224
-0.031238094 0.1287619 0.80000001 10590049
-0.029788572 0.12908381 0.80200005 11903617
-0.028260954 0.12908381 0.80200005 13614235
-0.026766667 0.12924476 0.80300003 13680739
-0.025362857 0.12988858 0.80700004 13549153
-0.023884762 0.13021049 0.80900002 12170875
-0.022399049 0.13053238 0.81100005 10460257
-0.020905714 0.13085429 0.81300002 10263628
-0.019404763 0.1311762 0.81500006 11908453
-0.01789619 0.1314981 0.81700003 12038276
-0.016380001 0.13182001 0.81900007 9603935
-0.014820001 0.13182001 0.81900007 9866273
-0.013260001 0.13182001 0.81900007 16182401
-0.011757143 0.13246381 0.82300001 16580560
-0.094610475 0.13370572 0.82100004 16646120
-0.093046673 0.13370572 0.82100004 16646122
-0.091260001 0.13338001 0.81900007 14935504
-0.089261912 0.13272858 0.81500006 13880739
-0.087494291 0.13240287 0.81300002 10591089
-0.085945718 0.13240287 0.81300002 10985795
-0.084189527 0.13207716 0.81100005 12630620
-0.082440957 0.13175143 0.80900002 11973531
-0.080899999 0.13175143 0.80900002 11052429
-0.079162858 0.13142572 0.80700004 9345892
-0.07743334 0.13110001 0.80500007 9214306
-0.075711429 0.13077429 0.80300003 9345887
-0.074089527 0.13061143 0.80200005 10069610
-0.072561905 0.13061143 0.80200005 10986610
-0.07103429 0.13061143 0.80200005 13026193
-0.069333337 0.13028571 0.80000001 13353105
-0.067639999 0.12996 0.79800004 13221519
-0.066119999 0.12996 0.79800004 10133639
-0.064438097 0.12963429 0.79600006 6383438
-0.062921911 0.12963429 0.79600006 5272389
-0.061405718 0.12963429 0.79600006 5667147
-0.059889529 0.12963429 0.79600006 5929033
-0.058226667 0.12930857 0.79400003 5402689
-0.056714289 0.12930857 0.79400003 5533774
-0.055201907 0.12930857 0.79400003 5599567
-0.053689525 0.12930857 0.79400003 5599819
-0.052177146 0.12930857 0.79400003 5270854
-0.050664764 0.12930857 0.79400003 7109938
-0.049152382 0.12930857 0.79400003 10991725
-0.047640003 0.12930857 0.79400003 11972985
-0.046127621 0.12930857 0.79400003 12038778
-0.044615239 0.12930857 0.79400003 11248758
-0.043211434 0.12963429 0.79600006 8485452
-0.041695241 0.12963429 0.79600006 8091207
-0.040179051 0.12963429 0.79600006 8420172
-0.038662862 0.12963429 0.79600006 8682318
-0.037240002 0.12996 0.79800004 8945490
-0.035720002 0.12996 0.79800004 8879951
-0.034199998 0.12996 0.79800004 8287814
-0.032761905 0.13028571 0.80000001 9733193
-0.031238094 0.13028571 0.80000001 12825464
-0.029788572 0.13061143 0.80200005 12497537
-0.028296191 0.13077429 0.80300003 11444849
-0.026833337 0.13110001 0.80500007 13089585
-0.025425715 0.13175143 0.80900002 13944894
-0.02394381 0.13207716 0.81100005 13287546
-0.022454288 0.13240287 0.81300002 13024374
-0.020905714 0.13240287 0.81300002 12499325
-0.019452382 0.13305429 0.81700003 12433532
-0.017940002 0.13338001 0.81900007 11775100
-0.016380001 0.13338001 0.81900007 8880208
-0.014820001 0.13338001 0.81900007 9406806
-0.013292382 0.13370572 0.82100004 16183485
-0.011757143 0.13403143 0.82300001 16580562
-0.094610475 0.13526952 0.82100004 16646124
-0.093046673 0.13526952 0.82100004 16646116
-0.091482863 0.13526952 0.82100004 15462098
-0.089480951 0.13461047 0.81700003 13618839
-0.087709531 0.13428096 0.81500006 9144915
-0.085945718 0.13395143 0.81300002 8816640
-0.084189527 0.13362192 0.81100005 10658828
-0.082644768 0.13362192 0.81100005 12827281
-0.080899999 0.13329238 0.80900002 12103558
-0.079162858 0.13296287 0.80700004 10529396
-0.077625714 0.13296287 0.80700004 9213536
-0.075900003 0.13263334 0.80500007 9541701
-0.074181907 0.13230382 0.80300003 10791768
-0.072652385 0.13230382 0.80300003 12496254
-0.07103429 0.13213904 0.80200005 13417356
-0.069333337 0.13180953 0.80000001 13613942
-0.06780953 0.13180953 0.80000001 13811321
-0.066119999 0.13147999 0.79800004 11646344
-0.064599998 0.13147999 0.79800004 8488280
-0.063079998 0.13147999 0.79800004 4747585
-0.061405718 0.13115048 0.79600006 5208136
-0.059889529 0.13115048 0.79600006 5797447
-0.058373336 0.13115048 0.79600006 5468482
-0.056857146 0.13115048 0.79600006 5599289
-0.055340957 0.13115048 0.79600006 5467703
-0.053824764 0.13115048 0.79600006 4746544
-0.052177146 0.13082094 0.79400003 4943923
-0.050664764 0.13082094 0.79400003 8160564
-0.049152382 0.13082094 0.79400003 11976558
-0.047640003 0.13082094 0.79400003 13353350
-0.046127621 0.13082094 0.79400003 13221764
-0.044615239 0.13082094 0.79400003 11775363
-0.043211434 0.13115048 0.79600006 9472608
-0.041695241 0.13115048 0.79600006 8550470
-0.040179051 0.13115048 0.79600006 8813642
-0.038760003 0.13147999 0.79800004 9077064
-0.037240002 0.13147999 0.79800004 8813892
-0.035720002 0.13147999 0.79800004 8945226
-0.034199998 0.13147999 0.79800004 9011019
-0.032761905 0.13180953 0.80000001 10653028
-0.031316195 0.13213904 0.80200005 13284748
-0.029788572 0.13213904 0.80200005 12696465
-0.028296191 0.13230382 0.80300003 9538401
-0.026833337 0.13263334 0.80500007 10588960
-0.025425715 0.13329238 0.80900002 12825922
-0.02394381 0.13362192 0.81100005 14140545
-0.022454288 0.13395143 0.81300002 14140545
-0.020957144 0.13428096 0.81500006 13681309
-0.019452382 0.13461047 0.81700003 12760207
-0.017940002 0.13494001 0.81900007 11577714
-0.016420001 0.13526952 0.82100004 8880201
-0.014892381 0.13559905 0.82300001 9209168
-0.013357143 0.13592857 0.82500005 16446398
-0.011814286 0.1362581 0.82700002 16645852
-0.010239048 0.1362581 0.82700002 16777182
-0.093273334 0.13716668 0.82300001 16646104
-0.091482863 0.13683334 0.82100004 15462342
-0.089480951 0.13616668 0.81700003 13619334
-0.087709531 0.13583335 0.81500006 8026929
-0.085945718 0.13550001 0.81300002 8029755
-0.084189527 0.13516667 0.81100005 8292927
-0.082644768 0.13516667 0.81100005 10592361
-0.080899999 0.13483334 0.80900002 13289874
-0.079359047 0.13483334 0.80900002 12632194
-0.077625714 0.13450001 0.80700004 11053162
-0.075900003 0.13416667 0.80500007 11776624
-0.074181907 0.13383333 0.80300003 13289863
-0.072652385 0.13383333 0.80300003 13483914
-0.07103429 0.13366666 0.80200005 12102261
-0.069506668 0.13366666 0.80200005 13219929
-0.06780953 0.13333333 0.80000001 13746273
-0.066119999 0.133 0.79800004 12696172
-0.064599998 0.133 0.79800004 12301414
-0.063079998 0.133 0.79800004 8622967
-0.061560001 0.133 0.79800004 6386005
-0.059889529 0.13266668 0.79600006 5600073
-0.058373336 0.13266668 0.79600006 5665866
-0.056857146 0.13266668 0.79600006 5270333
-0.055340957 0.13266668 0.79600006 6059849
-0.053824764 0.13266668 0.79600006 7109698
-0.052177146 0.13233334 0.79400003 10004590
-0.050664764 0.13233334 0.79400003 12106345
-0.049276195 0.13266668 0.79600006 12632689
-0.047760002 0.13266668 0.79600006 13090678
-0.046243813 0.13266668 0.79600006 13419643
-0.044727623 0.13266668 0.79600006 13089665
-0.043211434 0.13266668 0.79600006 12629114
-0.041695241 0.13266668 0.79600006 11511167
-0.040179051 0.13266668 0.79600006 9800549
-0.038760003 0.133 0.79800004 8617288
-0.037240002 0.133 0.79800004 8090944
-0.035809524 0.13333333 0.80000001 9339214
-0.034285713 0.13333333 0.80000001 12365692
-0.03284381 0.13366666 0.80200005 12826236
-0.031316195 0.13366666 0.80200005 12760443
-0.029825715 0.13383333 0.80300003 10856285
-0.028366668 0.13416667 0.80500007 6513947
-0.026900001 0.13450001 0.80700004 7699518
-0.025488574 0.13516667 0.81100005 7896897
-0.02394381 0.13516667 0.81100005 11379031
-0.022454288 0.13550001 0.81300002 13879165
-0.020957144 0.13583335 0.81500006 13746836
-0.019452382 0.13616668 0.81700003 11707253
-0.017940002 0.13650002 0.81900007 10524001
-0.016420001 0.13683334 0.82100004 9273934
-0.014892381 0.13716668 0.82300001 10063198
-0.013357143 0.13750002 0.82500005 16774598
-0.011785715 0.13750002 0.82500005 16646122
-0.010214286 0.13750002 0.82500005 16711659
-0.093273334 0.1387343 0.82300001 16646111
-0.091705717 0.1387343 0.82300001 16119767
-0.089919046 0.13839714 0.82100004 13291914
-0.087924771 0.13772286 0.81700003 7765302
-0.086157143 0.13738571 0.81500006 6720068
-0.084397145 0.13704857 0.81300002 6522689
-0.082644768 0.13671143 0.81100005 9277244
-0.081100002 0.13671143 0.81100005 12698480
-0.079359047 0.13637429 0.80900002 13158290
-0.077625714 0.13603714 0.80700004 12631946
-0.075900003 0.13570002 0.80500007 12368263
-0.074181907 0.13536286 0.80300003 13289365
-0.072652385 0.13536286 0.80300003 13483930
-0.07103429 0.13519429 0.80200005 10523245
-0.069506668 0.13519429 0.80200005 11244595
-0.067979053 0.13519429 0.80200005 12560455
-0.066285715 0.13485715 0.80000001 13614455
-0.064599998 0.13451999 0.79800004 13548662
-0.063079998 0.13451999 0.79800004 11316868
-0.061560001 0.13451999 0.79800004 8882527
-0.059889529 0.13418287 0.79600006 5600054
-0.058373336 0.13418287 0.79600006 5205296
-0.056857146 0.13418287 0.79600006 4417536
-0.055340957 0.13418287 0.79600006 5864973
-0.053824764 0.13418287 0.79600006 8620359
-0.052308574 0.13418287 0.79600006 11910009
-0.050792385 0.13418287 0.79600006 12895368
-0.049276195 0.13418287 0.79600006 12040059
-0.047760002 0.13418287 0.79600006 12104560
-0.046243813 0.13418287 0.79600006 12828283
-0.044727623 0.13418287 0.79600006 13615241
-0.043211434 0.13418287 0.79600006 13417862
-0.041695241 0.13418287 0.79600006 13023120
-0.040280003 0.13451999 0.79800004 11575674
-0.038760003 0.13451999 0.79800004 9210197
-0.037240002 0.13451999 0.79800004 8683853
-0.035809524 0.13485715 0.80000001 9537329
-0.034371432 0.13519429 0.80200005 13221737
-0.03284381 0.13519429 0.80200005 13223061
-0.031355239 0.13536286 0.80300003 11183478
-0.029825715 0.13536286 0.80300003 8819793
-0.028366668 0.13570002 0.80500007 6648624
-0.026900001 0.13603714 0.80700004 6125892
-0.025488574 0.13671143 0.81100005 5665341
-0.024002858 0.13704857 0.81300002 8487710
-0.022454288 0.13704857 0.81300002 13224806
-0.020957144 0.13738571 0.81500006 13287849
-0.019500002 0.13806 0.81900007 10524543
-0.017983811 0.13839714 0.82100004 9996363
-0.016460001 0.1387343 0.82300001 9667398
-0.014892381 0.1387343 0.82300001 10786930
-0.013324762 0.1387343 0.82300001 16776149
-0.011757143 0.1387343 0.82300001 16646122
-0.010189524 0.1387343 0.82300001 16580329
-0.093273334 0.1403019 0.82300001 16646116
-0.091705717 0.1403019 0.82300001 16054235
-0.089919046 0.13996094 0.82100004 14673040
-0.087924771 0.13927905 0.81700003 8225326
-0.086157143 0.1389381 0.81500006 6653512
-0.084397145 0.13859715 0.81300002 5929789
-0.082848579 0.13859715 0.81300002 7765579
-0.081100002 0.13825619 0.81100005 10199920
-0.079359047 0.13791524 0.80900002 13156703
-0.077625714 0.13757429 0.80700004 13683047
-0.076088578 0.13757429 0.80700004 13550720
-0.074181907 0.13689238 0.80300003 12300653
-0.072652385 0.13689238 0.80300003 10984811
-0.071122855 0.13689238 0.80300003 9537365
-0.069506668 0.13672192 0.80200005 9405248
-0.067979053 0.13672192 0.80200005 9273662
-0.06645143 0.13672192 0.80200005 11904335
-0.064761907 0.13638094 0.80000001 13812332
-0.063238099 0.13638094 0.80000001 12892799
-0.061714288 0.13638094 0.80000001 12695420
-0.060040005 0.13604 0.79800004 8950901
-0.05852 0.13604 0.79800004 5924423
-0.056857146 0.13569905 0.79600006 6452311
-0.055340957 0.13569905 0.79600006 10531477
-0.053824764 0.13569905 0.79600006 12039035
-0.052308574 0.13569905 0.79600006 12696965
-0.050792385 0.13569905 0.79600006 12237168
-0.049276195 0.13569905 0.79600006 10394964
-0.047760002 0.13569905 0.79600006 10198105
-0.046243813 0.13569905 0.79600006 10066519
-0.044727623 0.13569905 0.79600006 11905382
-0.043320004 0.13604 0.79800004 13155449
-0.041800003 0.13604 0.79800004 13220220
-0.040280003 0.13604 0.79800004 13614978
-0.038857143 0.13638094 0.80000001 12629636
-0.037333332 0.13638094 0.80000001 11116397
-0.035899047 0.13672192 0.80200005 11576167
-0.034371432 0.13672192 0.80200005 13089406
-0.03284381 0.13672192 0.80200005 11579229
-0.031355239 0.13689238 0.80300003 8026407
-0.029825715 0.13689238 0.80300003 6257721
-0.028366668 0.13723335 0.80500007 6257721
-0.026966667 0.13791524 0.80900002 6257482
-0.025488574 0.13825619 0.81100005 5862724
-0.024002858 0.13859715 0.81300002 7896374
-0.022509526 0.1389381 0.81500006 11449196
-0.020957144 0.1389381 0.81500006 12038526
-0.019500002 0.13962001 0.81900007 9406806
-0.017983811 0.13996094 0.82100004 9341011
-0.016420001 0.13996094 0.82100004 9209425
-0.014856191 0.13996094 0.82100004 10854011
-0.013260001 0.13962001 0.81900007 16777180
-0.011700001 0.13962001 0.81900007 16646118
-0.093500003 0.1422143 0.82500005 16711652
-0.091705717 0.14186952 0.82300001 16382943
-0.089919046 0.14152478 0.82100004 14672824
-0.087924771 0.14083524 0.81700003 9540970
-0.086157143 0.14049049 0.81500006 6980694
-0.084397145 0.14014572 0.81300002 6520143
-0.082848579 0.14014572 0.81300002 7634754
-0.081100002 0.13980097 0.81100005 8621649
-0.079359047 0.13945618 0.80900002 11773526
-0.077625714 0.13911143 0.80700004 14142074
-0.076088578 0.13911143 0.80700004 13747867
-0.074181907 0.13842191 0.80300003 10589803
-0.072652385 0.13842191 0.80300003 9670228
-0.071122855 0.13842191 0.80300003 8683333
-0.069506668 0.13824953 0.80200005 8748099
-0.067979053 0.13824953 0.80200005 8353341
-0.06645143 0.13824953 0.80200005 10521644
-0.064923815 0.13824953 0.80200005 12627020
-0.063238099 0.13790476 0.80000001 13548156
-0.061714288 0.13790476 0.80000001 13613949
-0.060190476 0.13790476 0.80000001 11777419
-0.05852 0.13756 0.79800004 9145699
-0.056857146 0.13721524 0.79600006 9210960
-0.055340957 0.13721524 0.79600006 12237438
-0.053824764 0.13721524 0.79600006 12957827
-0.052308574 0.13721524 0.79600006 12628862
-0.050792385 0.13721524 0.79600006 11645299
-0.049400002 0.13756 0.79800004 9934681
-0.047880001 0.13756 0.79800004 8951370
-0.046360001 0.13756 0.79800004 8951370
-0.044840001 0.13756 0.79800004 10723159
-0.043428574 0.13790476 0.80000001 11512675
-0.041904762 0.13790476 0.80000001 13021807
-0.040380955 0.13790476 0.80000001 13877116
-0.038857143 0.13790476 0.80000001 13483921
-0.037333332 0.13790476 0.80000001 13220749
-0.035899047 0.13824953 0.80200005 12629623
-0.034371432 0.13824953 0.80200005 11379556
-0.032884765 0.13842191 0.80300003 10197335
-0.031355239 0.13842191 0.80300003 7499822
-0.029900001 0.13876668 0.80500007 5601583
-0.028437143 0.13911143 0.80700004 5930548
-0.026966667 0.13945618 0.80900002 6126666
-0.025488574 0.13980097 0.81100005 5797701
-0.024002858 0.14014572 0.81300002 6649387
-0.022509526 0.14049049 0.81500006 10925932
-0.020957144 0.14049049 0.81500006 11579793
-0.019500002 0.14118001 0.81900007 8948073
-0.017940002 0.14118001 0.81900007 8486935
-0.016420001 0.14152478 0.82100004 9342244
-0.014856191 0.14152478 0.82100004 11051638
-0.013260001 0.14118001 0.81900007 16777172
-0.011700001 0.14118001 0.81900007 16646116
-0.091705717 0.14343715 0.82300001 16448736
-0.089919046 0.14308858 0.82100004 15460810
-0.087924771 0.14239143 0.81700003 10855300
-0.086157143 0.14204286 0.81500006 7636090
-0.084397145 0.14169429 0.81300002 7175539
-0.082848579 0.14169429 0.81300002 7045470
-0.081100002 0.14134572 0.81100005 7242849
-0.079359047 0.14099714 0.80900002 11379270
-0.077625714 0.14064859 0.80700004 13813611
-0.076088578 0.14064859 0.80700004 13287008
-0.074181907 0.13995144 0.80300003 8944670
-0.072652385 0.13995144 0.80300003 8946512
-0.071122855 0.13995144 0.80300003 8683340
-0.06959334 0.13995144 0.80300003 8682329
-0.067979053 0.13977715 0.80200005 8484950
-0.06645143 0.13977715 0.80200005 9734186
-0.064923815 0.13977715 0.80200005 9668393
-0.063238099 0.13942859 0.80000001 11705943
-0.061714288 0.13942859 0.80000001 13745526
-0.060190476 0.13942859 0.80000001 13090185
-0.05852 0.13908 0.79800004 13287564
-0.057 0.13908 0.79800004 12762501
-0.05548 0.13908 0.79800004 12894087
-0.053959999 0.13908 0.79800004 12236162
-0.052440003 0.13908 0.79800004 10722923
-0.050920002 0.13908 0.79800004 9608287
-0.049400002 0.13908 0.79800004 9410908
-0.047880001 0.13908 0.79800004 9148749
-0.046360001 0.13908 0.79800004 9017163
-0.044840001 0.13908 0.79800004 9803867
-0.043428574 0.13942859 0.80000001 9606488
-0.041904762 0.13942859 0.80000001 10787932
-0.040380955 0.13942859 0.80000001 12761722
-0.038857143 0.13942859 0.80000001 13352830
-0.037426669 0.13977715 0.80200005 13879174
-0.035899047 0.13977715 0.80200005 12498816
-0.034371432 0.13977715 0.80200005 9340752
-0.032884765 0.13995144 0.80300003 7109457
-0.031355239 0.13995144 0.80300003 6846285
-0.029900001 0.14030002 0.80500007 5995825
-0.028437143 0.14064859 0.80700004 6127411
-0.026966667 0.14099714 0.80900002 6257993
-0.025488574 0.14134572 0.81100005 5863235
-0.024061905 0.14204286 0.81500006 6781246
-0.022509526 0.14204286 0.81500006 10926205
-0.021008572 0.14239143 0.81700003 11776656
-0.019500002 0.14274001 0.81900007 10395003
-0.017940002 0.14274001 0.81900007 9801812
-0.016420001 0.14308858 0.82100004 10591328
-0.014856191 0.14308858 0.82100004 11381105
-0.013292382 0.14308858 0.82100004 16777162
-0.011728572 0.14308858 0.82100004 16711652
-0.089700006 0.14430001 0.81900007 15855822
-0.087924771 0.14394762 0.81700003 10987140
-0.086157143 0.14359525 0.81500006 8753772
-0.084397145 0.14324285 0.81300002 7240533
-0.082848579 0.14324285 0.81300002 5994826
-0.081100002 0.14289048 0.81100005 6257998
-0.079555243 0.14289048 0.81100005 9604944
-0.077818096 0.1425381 0.80900002 13026180
-0.076088578 0.14218573 0.80700004 11577716
-0.074366674 0.14183335 0.80500007 8814410
-0.072652385 0.14148095 0.80300003 9274443
-0.071122855 0.14148095 0.80300003 9011271
-0.06959334 0.14148095 0.80300003 8944717
-0.06806381 0.14148095 0.80300003 9010510
-0.06645143 0.14130478 0.80200005 9274432
-0.064923815 0.14130478 0.80200005 8945467
-0.063396193 0.14130478 0.80200005 9930025
-0.061714288 0.14095238 0.80000001 11969608
-0.060190476 0.14095238 0.80000001 13547897
-0.058666669 0.14095238 0.80000001 14205827
-0.057142857 0.14095238 0.80000001 13615509
-0.05548 0.1406 0.79800004 13154958
-0.053959999 0.1406 0.79800004 11383165
-0.052440003 0.1406 0.79800004 9475168
-0.050920002 0.1406 0.79800004 9082965
-0.049400002 0.1406 0.79800004 9411930
-0.048 0.14095238 0.80000001 9477210
-0.046476189 0.14095238 0.80000001 9411417
-0.044952381 0.14095238 0.80000001 9214558
-0.043428574 0.14095238 0.80000001 8885593
-0.041904762 0.14095238 0.80000001 9344584
-0.040380955 0.14095238 0.80000001 10660444
-0.038954284 0.14130478 0.80200005 12892286
-0.037426669 0.14130478 0.80200005 14010767
-0.035899047 0.14130478 0.80200005 11909257
-0.034414288 0.14148095 0.80300003 7237954
-0.032884765 0.14148095 0.80300003 5600574
-0.031355239 0.14148095 0.80300003 6061125
-0.029900001 0.14183335 0.80500007 6126396
-0.028437143 0.14218573 0.80700004 6257982
-0.026966667 0.1425381 0.80900002 6257739
-0.025488574 0.14289048 0.81100005 5928774
-0.024061905 0.14359525 0.81500006 6913084
-0.022564763 0.14394762 0.81700003 11452801
-0.021008572 0.14394762 0.81700003 13026461
-0.019500002 0.14430001 0.81900007 11513222
-0.017983811 0.14465238 0.82100004 10130243
-0.016420001 0.14465238 0.82100004 10985552
-0.014856191 0.14465238 0.82100004 12103554
-0.013292382 0.14465238 0.82100004 16777170
-0.089480951 0.14550382 0.81700003 15855301
-0.087709531 0.14514764 0.81500006 11381377
-0.085945718 0.14479144 0.81300002 8884858
-0.084397145 0.14479144 0.81300002 6845275
-0.082848579 0.14479144 0.81300002 6192716
-0.081100002 0.14443524 0.81100005 6324302
-0.079555243 0.14443524 0.81100005 10130270
-0.077818096 0.14407904 0.80900002 13288334
-0.076277144 0.14407904 0.80900002 12036466
-0.074366674 0.14336668 0.80500007 8944195
-0.072833337 0.14336668 0.80500007 8946503
-0.071122855 0.14301048 0.80300003 9275468
-0.06959334 0.14301048 0.80300003 9274193
-0.06806381 0.14301048 0.80300003 9208400
-0.066534288 0.14301048 0.80300003 9076814
-0.064923815 0.1428324 0.80200005 8747849
-0.063396193 0.1428324 0.80200005 9075522
-0.061714288 0.1424762 0.80000001 10128210
-0.060190476 0.1424762 0.80000001 12759627
-0.058666669 0.1424762 0.80000001 14075487
-0.057142857 0.1424762 0.80000001 12893058
-0.05548 0.14212 0.79800004 10853475
-0.053959999 0.14212 0.79800004 9345376
-0.052440003 0.14212 0.79800004 9213790
-0.051047619 0.1424762 0.80000001 8886881
-0.049523808 0.1424762 0.80000001 9215846
-0.048 0.1424762 0.80000001 9476958
-0.046476189 0.1424762 0.80000001 9411165
-0.044952381 0.1424762 0.80000001 9411680
-0.043537147 0.1428324 0.80200005 9806438
-0.042009525 0.1428324 0.80200005 9279583
-0.04048191 0.1428324 0.80200005 9345376
-0.038954284 0.1428324 0.80200005 12300903
-0.037426669 0.1428324 0.80200005 14208900
-0.035899047 0.1428324 0.80200005 12040311
-0.034414288 0.14301048 0.80300003 6250527
-0.032884765 0.14301048 0.80300003 5338194
-0.031355239 0.14301048 0.80300003 5864538
-0.029900001 0.14336668 0.80500007 6126664
-0.028437143 0.14372286 0.80700004 6060871
-0.026966667 0.14407904 0.80900002 6257482
-0.025488574 0.14443524 0.81100005 6915412
-0.024061905 0.14514764 0.81500006 8291946
-0.022564763 0.14550382 0.81700003 12371112
-0.021060001 0.14586002 0.81900007 13025930
-0.019500002 0.14586002 0.81900007 12894344
-0.017983811 0.1462162 0.82100004 12302466
-0.016420001 0.1462162 0.82100004 11578743
-0.014856191 0.1462162 0.82100004 12368277
-0.013292382 0.1462162 0.82100004 16777180
-0.011728572 0.1462162 0.82100004 16646120
-0.089480951 0.14706001 0.81700003 15854786
-0.087494291 0.14634 0.81300002 11709827
-0.085945718 0.14634 0.81300002 10594930
-0.084397145 0.14634 0.81300002 6976315
-0.082848579 0.14634 0.81300002 6520329
-0.081100002 0.14598 0.81100005 7178259
-0.079555243 0.14598 0.81100005 11049053
-0.077818096 0.14562 0.80900002 13746566
-0.076088578 0.14526001 0.80700004 11906177
-0.074366674 0.14490002 0.80500007 9142871
-0.072833337 0.14490002 0.80500007 9275209
-0.071122855 0.14454001 0.80300003 9209416
-0.06959334 0.14454001 0.80300003 9143382
-0.06806381 0.14454001 0.80300003 9143382
-0.066534288 0.14454001 0.80300003 8945994
-0.064923815 0.14436001 0.80200005 8617029
-0.063396193 0.14436001 0.80200005 8747827
-0.061868574 0.14436001 0.80200005 9866308
-0.060340952 0.14436001 0.80200005 11313479
-0.058813337 0.14436001 0.80200005 13747820
-0.057285715 0.14436001 0.80200005 11843214
-0.05561905 0.14399999 0.80000001 9606252
-0.054095238 0.14399999 0.80000001 8361811
-0.052571427 0.14399999 0.80000001 8559190
-0.051047619 0.14399999 0.80000001 8821338
-0.049523808 0.14399999 0.80000001 9216096
-0.048119999 0.14436001 0.80200005 9477221
-0.046592385 0.14436001 0.80200005 9345635
-0.045064762 0.14436001 0.80200005 9082452
-0.043537147 0.14436001 0.80200005 9345624
-0.042009525 0.14436001 0.80200005 8753746
-0.04048191 0.14436001 0.80200005 9082711
-0.038954284 0.14436001 0.80200005 11183206
-0.037426669 0.14436001 0.80200005 13683340
-0.035899047 0.14436001 0.80200005 11515782
-0.034414288 0.14454001 0.80300003 6252342
-0.032884765 0.14454001 0.80300003 5205035
-0.031355239 0.14454001 0.80300003 6191930
-0.029900001 0.14490002 0.80500007 6257739
-0.028437143 0.14526001 0.80700004 5994567
-0.026966667 0.14562 0.80900002 6257480
-0.025551429 0.14634 0.81300002 7968098
-0.024061905 0.14669999 0.81500006 10460525
-0.022564763 0.14706001 0.81700003 12500108
-0.021060001 0.14742002 0.81900007 12434288
-0.019500002 0.14742002 0.81900007 12697460
-0.017983811 0.14778 0.82100004 12763278
-0.016420001 0.14778 0.82100004 12236934
-0.014856191 0.14778 0.82100004 12566935
-0.013292382 0.14778 0.82100004 16777176
-0.011728572 0.14778 0.82100004 16646120
-0.087279052 0.14752477 0.81100005 11578764
-0.085734285 0.14752477 0.81100005 10660205
-0.084189527 0.14752477 0.81100005 9541724
-0.082644768 0.14752477 0.81100005 9937241
-0.081100002 0.14752477 0.81100005 11779445
-0.079555243 0.14752477 0.81100005 13286801
-0.077818096 0.14716095 0.80900002 14142110
-0.076088578 0.14679715 0.80700004 13747345
-0.074551433 0.14679715 0.80700004 10984039
-0.072833337 0.14643335 0.80500007 9341004
-0.071122855 0.14606953 0.80300003 8814660
-0.06959334 0.14606953 0.80300003 8946262
-0.06806381 0.14606953 0.80300003 9077848
-0.066534288 0.14606953 0.80300003 9076814
-0.064923815 0.14588763 0.80200005 8813642
-0.063396193 0.14588763 0.80200005 8682558
-0.061868574 0.14588763 0.80200005 9866832
-0.060340952 0.14588763 0.80200005 11511119
-0.058813337 0.14588763 0.80200005 14011253
-0.057285715 0.14588763 0.80200005 12368774
-0.0557581 0.14588763 0.80200005 9934433
-0.054095238 0.14552382 0.80000001 8887651
-0.052571427 0.14552382 0.80000001 8953444
-0.051047619 0.14552382 0.80000001 8952408
-0.049523808 0.14552382 0.80000001 9347166
-0.048119999 0.14588763 0.80200005 9542764
-0.046592385 0.14588763 0.80200005 9476971
-0.045064762 0.14588763 0.80200005 9016922
-0.043537147 0.14588763 0.80200005 9411680
-0.042009525 0.14588763 0.80200005 9213018
-0.04048191 0.14588763 0.80200005 10528878
-0.038954284 0.14588763 0.80200005 11774843
-0.037426669 0.14588763 0.80200005 13551254
-0.03594381 0.14606953 0.80300003 13026432
-0.034414288 0.14606953 0.80300003 10460505
-0.032884765 0.14606953 0.80300003 6257501
-0.031433333 0.14643335 0.80500007 5599571
-0.029974287 0.14679715 0.80700004 5404999
-0.028437143 0.14679715 0.80700004 5207620
-0.026966667 0.14716095 0.80900002 7766344
-0.025551429 0.14788857 0.81300002 11582338
-0.024061905 0.14825238 0.81500006 12039287
-0.022564763 0.14861619 0.81700003 11512943
-0.021060001 0.14898001 0.81900007 11711576
-0.019500002 0.14898001 0.81900007 11908955
-0.017983811 0.14934382 0.82100004 11974025
-0.016420001 0.14934382 0.82100004 12237197
-0.014856191 0.14934382 0.82100004 12960911
-0.013324762 0.14970763 0.82300001 16777166
-0.087279052 0.14906953 0.81100005 11250576
-0.085734285 0.14906953 0.81100005 11514206
-0.084189527 0.14906953 0.81100005 10461518
-0.082644768 0.14906953 0.81100005 10986583
-0.081100002 0.14906953 0.81100005 13355131
-0.079555243 0.14906953 0.81100005 13681300
-0.077818096 0.14870191 0.80900002 13681300
-0.076277144 0.14870191 0.80900002 13681811
-0.074551433 0.14833429 0.80700004 12365951
-0.073014289 0.14833429 0.80700004 9538411
-0.071300007 0.14796667 0.80500007 8617309
-0.06959334 0.14759906 0.80300003 8945224
-0.06806381 0.14759906 0.80300003 9076810
-0.066534288 0.14759906 0.80300003 9142344
-0.065004766 0.14759906 0.80300003 8813379
-0.063396193 0.14741525 0.80200005 8354084
-0.061868574 0.14741525 0.80200005 10262081
-0.060340952 0.14741525 0.80200005 12035694
-0.058813337 0.14741525 0.80200005 13812105
-0.057285715 0.14741525 0.80200005 12697226
-0.0557581 0.14741525 0.80200005 10723436
-0.054230478 0.14741525 0.80200005 9543262
-0.052702863 0.14741525 0.80200005 9280090
-0.05117524 0.14741525 0.80200005 8820304
-0.049647622 0.14741525 0.80200005 9083476
-0.048119999 0.14741525 0.80200005 9213536
-0.046592385 0.14741525 0.80200005 9081950
-0.045064762 0.14741525 0.80200005 8687948
-0.043537147 0.14741525 0.80200005 8885327
-0.042009525 0.14741525 0.80200005 9475656
-0.04048191 0.14741525 0.80200005 11383653
-0.038954284 0.14741525 0.80200005 12694655
-0.037473332 0.14759906 0.80300003 13615757
-0.03594381 0.14759906 0.80300003 13157257
-0.034414288 0.14759906 0.80300003 12104569
-0.032884765 0.14759906 0.80300003 9149820
-0.031433333 0.14796667 0.80500007 6847065
-0.029974287 0.14833429 0.80700004 5667889
-0.02850762 0.14870191 0.80900002 5470510
-0.027033335 0.14906953 0.81100005 8489297
-0.025614288 0.14980477 0.81500006 12436877
-0.024120953 0.15017238 0.81700003 13026191
-0.022620002 0.15054001 0.81900007 10526057
-0.021060001 0.15054001 0.81900007 10330193
-0.019547621 0.15090762 0.82100004 10922330
-0.017983811 0.15090762 0.82100004 12039539
-0.016420001 0.15090762 0.82100004 12039539
-0.014892381 0.15127525 0.82300001 13289361
-0.013324762 0.15127525 0.82300001 16777164
-0.011871428 0.15274572 0.83100003 16646122
-0.088570476 0.15284285 0.82300001 10855818
-0.085945718 0.15098572 0.81300002 11643743
-0.084397145 0.15098572 0.81300002 12893810
-0.082848579 0.15098572 0.81300002 13288055
-0.081300005 0.15098572 0.81300002 13814399
-0.079555243 0.15061429 0.81100005 12828040
-0.078010477 0.15061429 0.81100005 11314801
-0.076277144 0.15024287 0.80900002 11643766
-0.074736193 0.15024287 0.80900002 13025419
-0.073014289 0.14987144 0.80700004 11775104
-0.071300007 0.1495 0.80500007 10130279
-0.06959334 0.14912857 0.80300003 8814685
-0.06806381 0.14912857 0.80300003 8683099
-0.066534288 0.14912857 0.80300003 9011017
-0.065004766 0.14912857 0.80300003 9208396
-0.063475236 0.14912857 0.80300003 10326109
-0.061868574 0.14894287 0.80200005 12760450
-0.060340952 0.14894287 0.80200005 13155210
-0.058813337 0.14894287 0.80200005 13418382
-0.057285715 0.14894287 0.80200005 13024644
-0.0557581 0.14894287 0.80200005 12629886
-0.054230478 0.14894287 0.80200005 10726246
-0.052702863 0.14894287 0.80200005 9476179
-0.05117524 0.14894287 0.80200005 9280601
-0.049647622 0.14894287 0.80200005 9477980
-0.048119999 0.14894287 0.80200005 9018217
-0.046592385 0.14894287 0.80200005 8886631
-0.045064762 0.14894287 0.80200005 9805407
-0.043537147 0.14894287 0.80200005 10331751
-0.042009525 0.14894287 0.80200005 11906917
-0.04048191 0.14894287 0.80200005 13880707
-0.039002858 0.14912857 0.80300003 12628603
-0.037473332 0.14912857 0.80300003 11707501
-0.03594381 0.14912857 0.80300003 12761193
-0.034414288 0.14912857 0.80300003 14011260
-0.03296667 0.1495 0.80500007 12499604
-0.031433333 0.1495 0.80500007 11381123
-0.029974287 0.14987144 0.80700004 9150316
-0.02850762 0.15024287 0.80900002 8163421
-0.027033335 0.15061429 0.81100005 9606282
-0.025614288 0.15135716 0.81500006 12566967
-0.024120953 0.15172857 0.81700003 12500849
-0.022620002 0.15210001 0.81900007 10461266
-0.021111431 0.15247142 0.82100004 10068588
-0.019547621 0.15247142 0.82100004 10397553
-0.017983811 0.15247142 0.82100004 11382379
-0.016460001 0.15284285 0.82300001 11908723
-0.014928573 0.15321431 0.82500005 13421458
-0.013454286 0.15432858 0.83100003 16777162
-0.011871428 0.15432858 0.83100003 16711661
-0.088570476 0.15441047 0.82300001 10856331
-0.086368576 0.15328476 0.81700003 11443506
-0.08481238 0.15328476 0.81700003 13812054
-0.083256193 0.15328476 0.81700003 13945237
-0.081300005 0.15253429 0.81300002 13813651
-0.079751432 0.15253429 0.81300002 12172163
-0.078010477 0.15215907 0.81100005 9869408
-0.076277144 0.15178381 0.80900002 10657618
-0.074736193 0.15178381 0.80900002 12565615
-0.073014289 0.15140857 0.80700004 13024908
-0.071300007 0.15103334 0.80500007 11840634
-0.06976667 0.15103334 0.80500007 9409394
-0.06806381 0.1506581 0.80300003 8027741
-0.066534288 0.1506581 0.80300003 8946205
-0.065004766 0.1506581 0.80300003 10262065
-0.063475236 0.1506581 0.80300003 12298366
-0.061945714 0.1506581 0.80300003 13351054
-0.060416196 0.1506581 0.80300003 13483662
-0.058886666 0.1506581 0.80300003 12694146
-0.057285715 0.15047048 0.80200005 12497242
-0.0557581 0.15047048 0.80200005 12957793
-0.054230478 0.15047048 0.80200005 12105089
-0.052702863 0.15047048 0.80200005 11052401
-0.05117524 0.15047048 0.80200005 9084530
-0.049647622 0.15047048 0.80200005 8952944
-0.048119999 0.15047048 0.80200005 8821610
-0.046592385 0.15047048 0.80200005 8690024
-0.045064762 0.15047048 0.80200005 9674328
-0.043537147 0.15047048 0.80200005 10595430
-0.042061906 0.1506581 0.80300003 12497271
-0.040532384 0.1506581 0.80300003 12957822
-0.039002858 0.1506581 0.80300003 12562560
-0.037473332 0.1506581 0.80300003 11115114
-0.03594381 0.1506581 0.80300003 11509831
-0.034414288 0.1506581 0.80300003 13286242
-0.03296667 0.15103334 0.80500007 13877911
-0.03151143 0.15140857 0.80700004 12956809
-0.030048572 0.15178381 0.80900002 11251054
-0.028578097 0.15215907 0.81100005 10987882
-0.027033335 0.15215907 0.81100005 11382665
-0.025614288 0.15290953 0.81500006 11580044
-0.024120953 0.15328476 0.81700003 11382631
-0.022620002 0.15366001 0.81900007 10264150
-0.021111431 0.15403526 0.82100004 9872229
-0.019547621 0.15403526 0.82100004 10069608
-0.01802762 0.15441047 0.82300001 11316838
-0.0165 0.15478572 0.82500005 12040561
-0.014964762 0.15516096 0.82700002 13684875
-0.013454286 0.15591143 0.83100003 16777152
-0.011871428 0.15591143 0.83100003 16646122
-0.088785723 0.15635714 0.82500005 12961966
-0.087002859 0.1559781 0.82300001 11905125
-0.085227624 0.15559906 0.82100004 12497262
-0.083460003 0.15522002 0.81900007 12827515
-0.081500001 0.15446192 0.81500006 11906413
-0.079751432 0.15408286 0.81300002 10396779
-0.078202859 0.15408286 0.81300002 9804642
-0.076465718 0.15370381 0.81100005 10133611
-0.07492096 0.15370381 0.81100005 11054713
-0.073014289 0.15294571 0.80700004 12433763
-0.071477145 0.15294571 0.80700004 13025900
-0.06976667 0.15256667 0.80500007 10986118
-0.068233334 0.15256667 0.80500007 9472879
-0.066534288 0.15218763 0.80300003 10392936
-0.065004766 0.15218763 0.80300003 13485207
-0.063475236 0.15218763 0.80300003 13483660
-0.061945714 0.15218763 0.80300003 13088902
-0.060416196 0.15218763 0.80300003 11578736
-0.058886666 0.15218763 0.80300003 8091707
-0.057357144 0.15218763 0.80300003 8880451
-0.055827621 0.15218763 0.80300003 11709550
-0.054298095 0.15218763 0.80300003 11971718
-0.052768573 0.15218763 0.80300003 12892820
-0.051239051 0.15218763 0.80300003 10988418
-0.049647622 0.1519981 0.80200005 9606765
-0.048119999 0.1519981 0.80200005 9018476
-0.046592385 0.1519981 0.80200005 8821097
-0.045120955 0.15218763 0.80300003 11185752
-0.043591432 0.15218763 0.80300003 12698991
-0.042061906 0.15218763 0.80300003 12891514
-0.040532384 0.15218763 0.80300003 11378275
-0.039002858 0.15218763 0.80300003 10127986
-0.037473332 0.15218763 0.80300003 8877919
-0.03594381 0.15218763 0.80300003 9338174
-0.034500003 0.15256667 0.80500007 10917206
-0.03296667 0.15256667 0.80500007 12298609
-0.03151143 0.15294571 0.80700004 14075020
-0.030048572 0.15332475 0.80900002 13485438
-0.028578097 0.15370381 0.81100005 13682817
-0.027100001 0.15408286 0.81300002 12303240
-0.025614288 0.15446192 0.81500006 11184759
-0.024120953 0.15484096 0.81700003 10133850
-0.022620002 0.15522002 0.81900007 9607506
-0.021111431 0.15559906 0.82100004 9871961
-0.019547621 0.15559906 0.82100004 10135133
-0.01802762 0.1559781 0.82300001 10989422
-0.0165 0.15635714 0.82500005 11844731
-0.014964762 0.15673618 0.82700002 13684630
-0.013454286 0.15749429 0.83100003 16777162
-0.011871428 0.15749429 0.83100003 16646122
-0.010288572 0.15749429 0.83100003 16580329
-0.089431427 0.15907715 0.83100003 13225136
-0.087214291 0.15792859 0.82500005 12101478
-0.085435241 0.15754572 0.82300001 12627822
-0.083460003 0.15678002 0.81900007 12499343
-0.081700005 0.15639715 0.81700003 11249276
-0.079947628 0.15601431 0.81500006 10068829
-0.078202859 0.15563144 0.81300002 9937243
-0.076465718 0.15524858 0.81100005 9739880
-0.07492096 0.15524858 0.81100005 10003052
-0.073195241 0.15486573 0.80900002 11447384
-0.071477145 0.15448286 0.80700004 12368486
-0.06976667 0.1541 0.80500007 12958349
-0.068233334 0.1541 0.80500007 12300419
-0.066534288 0.15371715 0.80300003 11775093
-0.065004766 0.15371715 0.80300003 13354125
-0.063475236 0.15371715 0.80300003 13352848
-0.061945714 0.15371715 0.80300003 12431746
-0.060416196 0.15371715 0.80300003 9871466
-0.058886666 0.15371715 0.80300003 5529128
-0.057357144 0.15371715 0.80300003 6579968
-0.055827621 0.15371715 0.80300003 9672224
-0.054298095 0.15371715 0.80300003 12495720
-0.052768573 0.15371715 0.80300003 13548408
-0.051239051 0.15371715 0.80300003 12630672
-0.049647622 0.15352573 0.80200005 11117433
-0.048119999 0.15352573 0.80200005 9937772
-0.046592385 0.15352573 0.80200005 10464116
-0.045120955 0.15371715 0.80300003 12696956
-0.043591432 0.15371715 0.80300003 13025921
-0.042061906 0.15371715 0.80300003 12957329
-0.040532384 0.15371715 0.80300003 10259816
-0.039002858 0.15371715 0.80300003 9734744
-0.037473332 0.15371715 0.80300003 8879435
-0.036033336 0.1541 0.80500007 9011233
-0.034500003 0.1541 0.80500007 9011233
-0.03304857 0.15448286 0.80700004 11046714
-0.031589523 0.15486573 0.80900002 13020504
-0.030122858 0.15524858 0.81100005 13745789
-0.028648572 0.15563144 0.81300002 14008961
-0.027100001 0.15563144 0.81300002 12302736
-0.025677143 0.15639715 0.81700003 9999981
-0.024120953 0.15639715 0.81700003 9739603
-0.022620002 0.15678002 0.81900007 9871189
-0.021111431 0.15716286 0.82100004 9937500
-0.019547621 0.15716286 0.82100004 10398051
-0.018071428 0.15792859 0.82500005 11055229
-0.01654 0.15831143 0.82700002 12239503
-0.015000953 0.1586943 0.82900006 14803104
-0.013421906 0.1586943 0.82900006 16777155
-0.011871428 0.15907715 0.83100003 16646120
-0.089431427 0.16066001 0.83100003 13948598
-0.087214291 0.1595 0.82500005 12037521
-0.085435241 0.15911333 0.82300001 12234900
-0.083663814 0.15872668 0.82100004 12105359
-0.081900008 0.15834002 0.81900007 11184257
-0.079947628 0.15756667 0.81500006 10134892
-0.07839524 0.15756667 0.81500006 10069099
-0.076465718 0.15679334 0.81100005 9674600
-0.07492096 0.15679334 0.81100005 9411428
-0.073376194 0.15679334 0.81100005 10724438
-0.071477145 0.15602002 0.80700004 11382368
-0.069940001 0.15602002 0.80700004 12365944
-0.068233334 0.15563335 0.80500007 13681804
