# .PCD v0.7 - Point Cloud Data file format
VERSION 0.7
FIELDS x y z rgba
SIZE 4 4 4 4
TYPE F F F U
COUNT 1 1 1 1
WIDTH 1114
HEIGHT 1
VIEWPOINT 0 0 0 1 0 0 0
POINTS 1114
DATA ascii
-0.092185713 0.15091142 0.71700001 8688247
-0.09069334 0.15070096 0.71600002 8293489
-0.089329526 0.15070096 0.71600002 8425558
-0.087719999 0.15028 0.71400005 8293972
-0.086360008 0.15028 0.71400005 8293449
-0.085000008 0.15028 0.71400005 8359242
-0.083640002 0.15028 0.71400005 9014603
-0.082164772 0.15006953 0.71300006 10593635
-0.080580004 0.14964858 0.71100003 11379297
-0.079114296 0.1494381 0.71000004 12103020
-0.077761903 0.1494381 0.71000004 10396792
-0.076409526 0.1494381 0.71000004 6120247
-0.074845709 0.14901714 0.708 5401161
-0.073497139 0.14901714 0.708 5335368
-0.072148569 0.14901714 0.708 5466954
-0.070800006 0.14901714 0.708 5137989
-0.069451429 0.14901714 0.708 5138237
-0.068102859 0.14901714 0.708 5204030
-0.066754289 0.14901714 0.708 5138740
-0.065405719 0.14901714 0.708 5072947
-0.064057142 0.14901714 0.708 4613173
-0.062708572 0.14901714 0.708 4613173
-0.061360002 0.14901714 0.708 5269029
-0.060011428 0.14901714 0.708 8098128
-0.058828574 0.1494381 0.71000004 10328417
-0.057476193 0.1494381 0.71000004 12433793
-0.056123812 0.1494381 0.71000004 10986365
-0.054848574 0.14964858 0.71100003 7630922
-0.053644765 0.15006953 0.71300006 8220726
-0.05228667 0.15006953 0.71300006 8023347
-0.050928578 0.15006953 0.71300006 8022841
-0.04964 0.15028 0.71400005 8351806
-0.048280004 0.15028 0.71400005 8155451
-0.04705143 0.15070096 0.71600002 8023865
-0.04568762 0.15070096 0.71600002 7827247
-0.044323809 0.15070096 0.71600002 10524760
-0.043020003 0.15091142 0.71700001 11050887
-0.041828573 0.15154287 0.72000003 11314059
-0.040569525 0.15196382 0.72200006 10592354
-0.039248575 0.15217429 0.72300005 8684357
-0.03797619 0.15259524 0.72500002 9801789
-0.036696192 0.15301619 0.72700006 11841372
-0.035360001 0.15322667 0.72800004 13022843
-0.033973332 0.15322667 0.72800004 13220222
-0.032810476 0.15427905 0.73300004 12892556
-0.031457145 0.15448953 0.73400003 9076562
-0.030140955 0.15491048 0.73600006 8945920
-0.02873905 0.15491048 0.73600006 14998867
-0.027411429 0.15533143 0.73800004 16051897
-0.10680858 0.15567525 0.73300004 14539180
-0.10512476 0.15525047 0.73100001 13550986
-0.10359048 0.1550381 0.73000002 12629884
-0.10192001 0.15461335 0.72800004 11972488
-0.10039525 0.15440097 0.72700006 8617045
-0.099010482 0.15440097 0.72700006 8749869
-0.097088575 0.15355143 0.72300005 9144627
-0.095579058 0.15333906 0.72200006 10262374
-0.093812384 0.15270191 0.71900004 11972992
-0.092185713 0.15227714 0.71700001 10461823
-0.09069334 0.15206476 0.71600002 9014377
-0.089329526 0.15206476 0.71600002 8294744
-0.087965719 0.15206476 0.71600002 8228951
-0.086360008 0.15164001 0.71400005 8555856
-0.085000008 0.15164001 0.71400005 9147993
-0.083640002 0.15164001 0.71400005 10656619
-0.082164772 0.15142763 0.71300006 11906686
-0.080580004 0.15100287 0.71100003 12234077
-0.079225719 0.15100287 0.71100003 12628835
-0.077761903 0.15079048 0.71000004 11314812
-0.076409526 0.15079048 0.71000004 9669987
-0.075057149 0.15079048 0.71000004 6781810
-0.073497139 0.15036571 0.708 5005399
-0.072148569 0.15036571 0.708 4613444
-0.071000002 0.15079048 0.71000004 4679237
-0.069451429 0.15036571 0.708 5006651
-0.068102859 0.15036571 0.708 5006651
-0.066754289 0.15036571 0.708 5072949
-0.065405719 0.15036571 0.708 5270328
-0.064057142 0.15036571 0.708 5006410
-0.062708572 0.15036571 0.708 5203789
-0.061533332 0.15079048 0.71000004 6515264
-0.060180955 0.15079048 0.71000004 10331258
-0.058828574 0.15079048 0.71000004 11708262
-0.057557143 0.15100287 0.71100003 12760950
-0.056202859 0.15100287 0.71100003 11773823
-0.055002861 0.15142763 0.71300006 11115893
-0.053644765 0.15142763 0.71300006 9340772
-0.052360002 0.15164001 0.71400005 8288084
-0.051000003 0.15164001 0.71400005 8288577
-0.04964 0.15164001 0.71400005 8420163
-0.04841524 0.15206476 0.71600002 8023891
-0.04705143 0.15206476 0.71600002 7958098
-0.04568762 0.15206476 0.71600002 9010760
-0.044385713 0.15227714 0.71700001 12431996
-0.043140002 0.15270191 0.71900004 12300410
-0.041828573 0.1529143 0.72000003 10458206
-0.040625714 0.15355143 0.72300005 7501910
-0.039357144 0.15397619 0.72500002 6251843
-0.038080957 0.15440097 0.72700006 6910774
-0.036696192 0.15440097 0.72700006 8884564
-0.035360001 0.15461335 0.72800004 11576149
-0.034066666 0.1550381 0.73000002 13220974
-0.032810476 0.15567525 0.73300004 12630120
-0.031457145 0.15588762 0.73400003 8879919
-0.030140955 0.15631241 0.73600006 8814908
-0.028817143 0.15673715 0.73800004 14473106
-0.027411429 0.15673715 0.73800004 16381366
-0.10680858 0.15707143 0.73300004 14736557
-0.10512476 0.15664285 0.73100001 14341272
-0.10359048 0.15642858 0.73000002 12367482
-0.10192001 0.156 0.72800004 11381368
-0.10053334 0.156 0.72800004 7499581
-0.099010482 0.15578572 0.72700006 6714154
-0.097088575 0.15492858 0.72300005 6977326
-0.095579058 0.1547143 0.72200006 10326341
-0.093812384 0.15407144 0.71900004 12497510
-0.092442855 0.15407144 0.71900004 11578504
-0.09082 0.15364285 0.71700001 9736300
-0.089329526 0.15342857 0.71600002 8425810
-0.087965719 0.15342857 0.71600002 8162638
-0.086360008 0.15300001 0.71400005 8621644
-0.085000008 0.15300001 0.71400005 9674332
-0.083640002 0.15300001 0.71400005 11838328
-0.082164772 0.15278573 0.71300006 12233086
-0.080806673 0.15278573 0.71300006 12232539
-0.079225719 0.15235715 0.71100003 12298332
-0.077761903 0.15214287 0.71000004 11708284
-0.076409526 0.15214287 0.71000004 11050354
-0.075057149 0.15214287 0.71000004 8884604
-0.073704764 0.15214287 0.71000004 6779228
-0.07235238 0.15214287 0.71000004 3760958
-0.071000002 0.15214287 0.71000004 4155716
-0.069647625 0.15214287 0.71000004 5071666
-0.06829524 0.15214287 0.71000004 4874287
-0.066942856 0.15214287 0.71000004 3758872
-0.065590478 0.15214287 0.71000004 4416802
-0.064238101 0.15214287 0.71000004 5006109
-0.062885717 0.15214287 0.71000004 5795625
-0.061533332 0.15214287 0.71000004 8945478
-0.060180955 0.15214287 0.71000004 11577198
-0.058911432 0.15235715 0.71100003 11970421
-0.057719052 0.15278573 0.71300006 12036214
-0.056360956 0.15278573 0.71300006 12167298
-0.055002861 0.15278573 0.71300006 11969919
-0.053644765 0.15278573 0.71300006 11510901
-0.052360002 0.15300001 0.71400005 10129248
-0.051000003 0.15300001 0.71400005 8487507
-0.04964 0.15300001 0.71400005 7829577
-0.04841524 0.15342857 0.71600002 7696154
-0.04705143 0.15342857 0.71600002 8156705
-0.04568762 0.15342857 0.71600002 10192738
-0.044385713 0.15364285 0.71700001 12758665
-0.043140002 0.15407144 0.71900004 12104328
-0.041828573 0.15428571 0.72000003 8025162
-0.040625714 0.15492858 0.72300005 6845220
-0.039357144 0.15535714 0.72500002 5989911
-0.038080957 0.15578572 0.72700006 4876034
-0.03674667 0.156 0.72800004 5402378
-0.035457142 0.15642858 0.73000002 9669433
-0.034113333 0.15664285 0.73100001 12432739
-0.032855239 0.15728572 0.73400003 12036977
-0.031457145 0.15728572 0.73400003 9010499
-0.030140955 0.15771429 0.73600006 8945730
-0.028817143 0.15814286 0.73800004 14932893
-0.027411429 0.15814286 0.73800004 16381121
-0.02611143 0.15878572 0.74100006 16776393
-0.10695428 0.15868382 0.73400003 15131317
-0.10541239 0.15846762 0.73300004 14341533
-0.10373238 0.15803523 0.73100001 11709813
-0.1022 0.15781905 0.73000002 10002266
-0.10053334 0.15738668 0.72800004 6778409
-0.099010482 0.15717047 0.72700006 6320975
-0.097357146 0.1567381 0.72500002 5992010
-0.09571144 0.15630573 0.72300005 8290092
-0.094203815 0.15608953 0.72200006 11053398
-0.09257143 0.15565714 0.72000003 11248499
-0.091073342 0.15544096 0.71900004 11116913
-0.089454286 0.15500857 0.71700001 9935717
-0.087965719 0.15479238 0.71600002 9738338
-0.086601906 0.15479238 0.71600002 10986610
-0.085000008 0.15436 0.71400005 12039298
-0.083640002 0.15436 0.71400005 12430967
-0.082164772 0.15414383 0.71300006 11378279
-0.080806673 0.15414383 0.71300006 10456139
-0.079225719 0.15371142 0.71100003 10390346
-0.077871427 0.15371142 0.71100003 10852469
-0.076409526 0.15349525 0.71000004 12299915
-0.075057149 0.15349525 0.71000004 11249762
-0.073704764 0.15349525 0.71000004 9670730
-0.07235238 0.15349525 0.71000004 6781281
-0.071000002 0.15349525 0.71000004 5004870
-0.069647625 0.15349525 0.71000004 4349994
-0.06829524 0.15349525 0.71000004 4284201
-0.066942856 0.15349525 0.71000004 4218418
-0.065590478 0.15349525 0.71000004 5336899
-0.064238101 0.15349525 0.71000004 8554545
-0.062885717 0.15349525 0.71000004 10791507
-0.061533332 0.15349525 0.71000004 11576428
-0.060180955 0.15349525 0.71000004 11839600
-0.058911432 0.15371142 0.71100003 10655860
-0.057557143 0.15371142 0.71100003 10195309
-0.056360956 0.15414383 0.71300006 10918264
-0.055002861 0.15414383 0.71300006 12431503
-0.053644765 0.15414383 0.71300006 12167793
-0.052360002 0.15436 0.71400005 12299379
-0.051000003 0.15436 0.71400005 10919800
-0.04977905 0.15479238 0.71600002 9209182
-0.04841524 0.15479238 0.71600002 9670457
-0.04705143 0.15479238 0.71600002 10657352
-0.04575143 0.15500857 0.71700001 10918790
-0.044385713 0.15500857 0.71700001 11708306
-0.043200001 0.15565714 0.72000003 10592593
-0.041944765 0.15608953 0.72200006 6579220
-0.040738095 0.1567381 0.72500002 5532210
-0.039465718 0.15717047 0.72700006 5795382
-0.038080957 0.15717047 0.72700006 5664316
-0.03674667 0.15738668 0.72800004 5598523
-0.035457142 0.15781905 0.73000002 8551495
-0.03420667 0.15846762 0.73300004 11972731
-0.032855239 0.15868382 0.73400003 11576928
-0.031457145 0.15868382 0.73400003 8813622
-0.030140955 0.15911621 0.73600006 9076840
-0.028817143 0.15954857 0.73800004 15261382
-0.027522858 0.16019715 0.74100006 16512711
-0.10541239 0.15986381 0.73300004 14014115
-0.10401619 0.15986381 0.73300004 11119223
-0.1022 0.15920952 0.73000002 9149006
-0.10080953 0.15920952 0.73000002 6648872
-0.099146672 0.15877333 0.72800004 5599039
-0.097357146 0.15811905 0.72500002 5664832
-0.09571144 0.15768287 0.72300005 6846228
-0.094203815 0.15746477 0.72200006 9214776
-0.092828579 0.15746477 0.72200006 11313763
-0.091073342 0.15681049 0.71900004 11576935
-0.089454286 0.15637429 0.71700001 11182179
-0.088088572 0.15637429 0.71700001 11182179
-0.086601906 0.1561562 0.71600002 11905654
-0.085000008 0.15572001 0.71400005 12366205
-0.083640002 0.15572001 0.71400005 12561799
-0.082164772 0.15550192 0.71300006 10127458
-0.080806673 0.15550192 0.71300006 9403703
-0.079225719 0.15506572 0.71100003 9337910
-0.077871427 0.15506572 0.71100003 10917208
-0.076517142 0.15506572 0.71100003 12364654
-0.075162858 0.15506572 0.71100003 12365692
-0.073808573 0.15506572 0.71100003 11510383
-0.072454289 0.15506572 0.71100003 9081460
-0.071100004 0.15506572 0.71100003 7041877
-0.069745712 0.15506572 0.71100003 4876068
-0.06829524 0.15484762 0.71000004 4415517
-0.066942856 0.15484762 0.71000004 5136650
-0.065590478 0.15484762 0.71000004 7373612
-0.064238101 0.15484762 0.71000004 10130277
-0.062885717 0.15484762 0.71000004 11643516
-0.061533332 0.15484762 0.71000004 12430461
-0.060180955 0.15484762 0.71000004 11640945
-0.058911432 0.15506572 0.71100003 10197344
-0.057557143 0.15506572 0.71100003 9539414
-0.056360956 0.15550192 0.71300006 10327129
-0.055002861 0.15550192 0.71300006 11577196
-0.053644765 0.15550192 0.71300006 12495720
-0.052360002 0.15572001 0.71400005 12693099
-0.051000003 0.15572001 0.71400005 12563339
-0.04977905 0.1561562 0.71600002 11313272
-0.04841524 0.1561562 0.71600002 10065227
-0.04705143 0.1561562 0.71600002 11381087
-0.04575143 0.15637429 0.71700001 11840906
-0.044385713 0.15637429 0.71700001 10130288
-0.043200001 0.15702857 0.72000003 8291918
-0.041944765 0.15746477 0.72200006 6186542
-0.040738095 0.15811905 0.72500002 5402160
-0.039465718 0.15855525 0.72700006 5665332
-0.038133334 0.15877333 0.72800004 6254650
-0.03674667 0.15877333 0.72800004 5991478
-0.035457142 0.15920952 0.73000002 8158511
-0.03420667 0.15986381 0.73300004 11513954
-0.032855239 0.16008192 0.73400003 11051881
-0.031457145 0.16008192 0.73400003 8485954
-0.030140955 0.16051809 0.73600006 9339203
-0.028817143 0.1609543 0.73800004 15984296
-0.027522858 0.16160858 0.74100006 16578509
-0.02611143 0.16160858 0.74100006 16710095
-0.1055562 0.16147999 0.73400003 15327913
-0.10401619 0.16126001 0.73300004 11709298
-0.1022 0.16060001 0.73000002 9740134
-0.10080953 0.16060001 0.73000002 6713656
-0.099146672 0.16016001 0.72800004 5796169
-0.097357146 0.1595 0.72500002 6454099
-0.095976189 0.1595 0.72500002 6649910
-0.094203815 0.15884002 0.72200006 6649910
-0.092828579 0.15884002 0.72200006 9144629
-0.091200002 0.1584 0.72000003 12105314
-0.089454286 0.15774 0.71700001 12234104
-0.088088572 0.15774 0.71700001 12628862
-0.086601906 0.15752001 0.71600002 11971443
-0.085238092 0.15752001 0.71600002 10984548
-0.083640002 0.15708001 0.71400005 10062685
-0.082280003 0.15708001 0.71400005 8286274
-0.080806673 0.15686001 0.71300006 8220474
-0.079225719 0.15642001 0.71100003 8023095
-0.077871427 0.15642001 0.71100003 8879163
-0.076517142 0.15642001 0.71100003 10129230
-0.07537429 0.15686001 0.71300006 11378529
-0.073808573 0.15642001 0.71100003 12431217
-0.072454289 0.15642001 0.71100003 11183726
-0.071100004 0.15642001 0.71100003 10394210
-0.069745712 0.15642001 0.71100003 7306585
-0.068391435 0.15642001 0.71100003 5464381
-0.067037143 0.15642001 0.71100003 6776931
-0.065682858 0.15642001 0.71100003 10461339
-0.064238101 0.15620001 0.71000004 11706999
-0.062885717 0.15620001 0.71000004 11838585
-0.061533332 0.15620001 0.71000004 11050354
-0.060265716 0.15642001 0.71100003 9471322
-0.058911432 0.15642001 0.71100003 8817224
-0.057719052 0.15686001 0.71300006 8817224
-0.056360956 0.15686001 0.71300006 9145939
-0.055002861 0.15686001 0.71300006 9738076
-0.053720001 0.15708001 0.71400005 11248195
-0.052360002 0.15708001 0.71400005 11971918
-0.051000003 0.15708001 0.71400005 12497771
-0.04977905 0.15752001 0.71600002 12695150
-0.04841524 0.15752001 0.71600002 12366446
-0.04711714 0.15774 0.71700001 12498032
-0.04575143 0.15774 0.71700001 10986358
-0.044571429 0.1584 0.72000003 7565122
-0.043320004 0.15884002 0.72200006 6255431
-0.041944765 0.15884002 0.72200006 5926466
-0.040738095 0.1595 0.72500002 5664581
-0.039465718 0.15994 0.72700006 5993546
-0.038133334 0.16016001 0.72800004 6059056
-0.03674667 0.16016001 0.72800004 5532712
-0.035457142 0.16060001 0.73000002 8619075
-0.03420667 0.16126001 0.73300004 12500862
-0.032855239 0.16147999 0.73400003 12171359
-0.03154286 0.16192003 0.73600006 8881709
-0.030140955 0.16192003 0.73600006 10129248
-0.028856192 0.16258 0.73900002 16116411
-0.027522858 0.16302001 0.74100006 16578513
-0.02611143 0.16302001 0.74100006 16710099
-0.1055562 0.1628781 0.73400003 15393726
-0.10401619 0.1626562 0.73300004 11972490
-0.1022 0.16199048 0.73000002 10791028
-0.10080953 0.16199048 0.73000002 7369792
-0.099146672 0.16154668 0.72800004 5599541
-0.097625725 0.16132477 0.72700006 6060092
-0.095976189 0.16088095 0.72500002 6190901
-0.094334297 0.16043715 0.72300005 5532971
-0.092828579 0.16021524 0.72200006 6910464
-0.091200002 0.15977144 0.72000003 11318584
-0.089703813 0.15954953 0.71900004 12103556
-0.088088572 0.15910572 0.71700001 12235142
-0.086601906 0.15888381 0.71600002 12037236
-0.085238092 0.15888381 0.71600002 9471309
-0.083640002 0.15844001 0.71400005 9011017
-0.082280003 0.15844001 0.71400005 8221501
-0.080806673 0.1582181 0.71300006 8024122
-0.079448573 0.1582181 0.71300006 8024122
-0.077871427 0.1577743 0.71100003 8089897
-0.076517142 0.1577743 0.71100003 8879413
-0.07537429 0.1582181 0.71300006 10325571
-0.074016191 0.1582181 0.71300006 11641431
-0.072658099 0.1582181 0.71300006 12036979
-0.071300007 0.1582181 0.71300006 11444842
-0.069745712 0.1577743 0.71100003 10067314
-0.068391435 0.1577743 0.71100003 9212005
-0.067037143 0.1577743 0.71100003 9867614
-0.065682858 0.1577743 0.71100003 11315060
-0.064328574 0.1577743 0.71100003 12429702
-0.062974289 0.1577743 0.71100003 11640186
-0.061620004 0.1577743 0.71100003 9868899
-0.060265716 0.1577743 0.71100003 8684625
-0.059077147 0.1582181 0.71300006 8161863
-0.057719052 0.1582181 0.71300006 8359242
-0.056360956 0.1582181 0.71300006 8227665
-0.055002861 0.1582181 0.71300006 8161872
-0.053720001 0.15844001 0.71400005 9343046
-0.052360002 0.15844001 0.71400005 10264148
-0.051000003 0.15844001 0.71400005 11904351
-0.04977905 0.15888381 0.71600002 12957039
-0.04841524 0.15888381 0.71600002 12694916
-0.04711714 0.15910572 0.71700001 12431744
-0.045879051 0.15954953 0.71900004 9344863
-0.044571429 0.15977144 0.72000003 6252592
-0.043320004 0.16021524 0.72200006 5533765
-0.04200286 0.16043715 0.72300005 5665351
-0.040738095 0.16088095 0.72500002 5861436
-0.039465718 0.16132477 0.72700006 6124608
-0.038133334 0.16154668 0.72800004 5731631
-0.03674667 0.16154668 0.72800004 5600045
-0.035457142 0.16199048 0.73000002 9472588
-0.03420667 0.1626562 0.73300004 12893824
-0.032855239 0.1628781 0.73400003 12433541
-0.03154286 0.16332191 0.73600006 10196579
-0.030222857 0.16376573 0.73800004 10983269
-0.028856192 0.16398762 0.73900002 16575674
-0.027522858 0.16443144 0.74100006 16578252
-0.02611143 0.16443144 0.74100006 16775888
-0.10613143 0.16517143 0.73800004 15788235
-0.1041581 0.1642762 0.73400003 13156515
-0.10234 0.16360477 0.73100001 11514247
-0.10080953 0.16338095 0.73000002 8158804
-0.099146672 0.16293335 0.72800004 5730378
-0.097625725 0.16270953 0.72700006 5993550
-0.095976189 0.1622619 0.72500002 6124615
-0.094334297 0.1618143 0.72300005 5664064
-0.092828579 0.16159049 0.72200006 6909727
-0.091200002 0.16114287 0.72000003 9475654
-0.089703813 0.16091906 0.71900004 11379049
-0.088334292 0.16091906 0.71900004 11510635
-0.086722851 0.16047142 0.71700001 11116366
-0.085238092 0.16024762 0.71600002 7958302
-0.083640002 0.15980001 0.71400005 8025151
-0.082280003 0.15980001 0.71400005 8288323
-0.080920003 0.15980001 0.71400005 8156476
-0.079448573 0.15957619 0.71300006 8156476
-0.078090489 0.15957619 0.71300006 8155974
-0.07673239 0.15957619 0.71300006 7827009
-0.07537429 0.15957619 0.71300006 9274647
-0.07412 0.15980001 0.71400005 9800991
-0.072658099 0.15957619 0.71300006 10719825
-0.071300007 0.15957619 0.71300006 12233064
-0.069941908 0.15957619 0.71300006 11643266
-0.068583816 0.15957619 0.71300006 11511680
-0.067225717 0.15957619 0.71300006 11709034
-0.065867618 0.15957619 0.71300006 11248483
-0.064328574 0.15912858 0.71100003 10457464
-0.062974289 0.15912858 0.71100003 9602155
-0.061793335 0.15957619 0.71300006 8555340
-0.060435243 0.15957619 0.71300006 8423754
-0.059077147 0.15957619 0.71300006 8095816
-0.057719052 0.15957619 0.71300006 8095816
-0.056360956 0.15957619 0.71300006 8030550
-0.055080004 0.15980001 0.71400005 8030550
-0.053720001 0.15980001 0.71400005 8489054
-0.052360002 0.15980001 0.71400005 8752226
-0.051000003 0.15980001 0.71400005 10130000
-0.04977905 0.16024762 0.71600002 11774825
-0.04841524 0.16024762 0.71600002 11643516
-0.04711714 0.16047142 0.71700001 10788207
-0.045879051 0.16091906 0.71900004 8687424
-0.044695243 0.16159049 0.72200006 6187290
-0.043320004 0.16159049 0.72200006 5665103
-0.042119049 0.1622619 0.72500002 5862482
-0.040850475 0.16270953 0.72700006 6059590
-0.039465718 0.16270953 0.72700006 5862211
-0.038133334 0.16293335 0.72800004 6059056
-0.036847621 0.16338095 0.73000002 8296018
-0.035457142 0.16338095 0.73000002 10197101
-0.03420667 0.16405238 0.73300004 13157786
-0.032944765 0.16472383 0.73600006 12564620
-0.031628575 0.16517143 0.73800004 11972483
-0.030263809 0.16539524 0.73900002 12300937
-0.028856192 0.16539524 0.73900002 16314310
-0.027448572 0.16539524 0.73900002 16579022
-0.026040953 0.16539524 0.73900002 16777172
-0.10613143 0.16657715 0.73800004 16117190
-0.10444191 0.16612571 0.73600006 13024919
-0.10262001 0.16544858 0.73300004 12236934
-0.10094762 0.16499713 0.73100001 8749905
-0.099419042 0.16477144 0.73000002 7700551
-0.097625725 0.1640943 0.72700006 6713656
-0.09624096 0.1640943 0.72700006 5861693
-0.094334297 0.16319144 0.72300005 5532728
-0.092957146 0.16319144 0.72300005 6450214
-0.091200002 0.16251428 0.72000003 9016141
-0.089828581 0.16251428 0.72000003 10787948
-0.088334292 0.16228859 0.71900004 10787948
-0.086722851 0.16183715 0.71700001 10064459
-0.085238092 0.16161142 0.71600002 7827497
-0.083874285 0.16161142 0.71600002 7892806
-0.082280003 0.16116002 0.71400005 8090185
-0.080920003 0.16116002 0.71400005 8156978
-0.079560004 0.16116002 0.71400005 8091185
-0.078200005 0.16116002 0.71400005 8024649
-0.076840006 0.16116002 0.71400005 7893063
-0.075480007 0.16116002 0.71400005 8616752
-0.07412 0.16116002 0.71400005 9011510
-0.072760001 0.16116002 0.71400005 10193460
-0.071400002 0.16116002 0.71400005 11838285
-0.07004001 0.16116002 0.71400005 12298870
-0.068583816 0.1609343 0.71300006 12364663
-0.067225717 0.1609343 0.71300006 12037238
-0.065867618 0.1609343 0.71300006 10260827
-0.064509533 0.1609343 0.71300006 9801060
-0.063151434 0.1609343 0.71300006 9011544
-0.061793335 0.1609343 0.71300006 8096079
-0.060435243 0.1609343 0.71300006 8227665
-0.059077147 0.1609343 0.71300006 8161870
-0.057719052 0.1609343 0.71300006 8096077
-0.056360956 0.1609343 0.71300006 8226900
-0.055080004 0.16116002 0.71400005 8226900
-0.053720001 0.16116002 0.71400005 7832657
-0.052360002 0.16116002 0.71400005 8227415
-0.051142856 0.16161142 0.71600002 8752197
-0.04977905 0.16161142 0.71600002 10923366
-0.048482858 0.16183715 0.71700001 10922371
-0.04711714 0.16183715 0.71700001 9935476
-0.045879051 0.16228859 0.71900004 7767362
-0.044695243 0.16296573 0.72200006 5990951
-0.043380003 0.16319144 0.72300005 5532995
-0.042119049 0.16364287 0.72500002 5730374
-0.040850475 0.1640943 0.72700006 5994318
-0.039465718 0.1640943 0.72700006 5665353
-0.038133334 0.16432001 0.72800004 5993274
-0.036847621 0.16477144 0.73000002 9677682
-0.035505716 0.16499713 0.73100001 11315321
-0.03420667 0.16544858 0.73300004 11841665
-0.032944765 0.16612571 0.73600006 12168815
-0.031628575 0.16657715 0.73800004 12497780
-0.030345717 0.1672543 0.74100006 12629132
-0.028934287 0.1672543 0.74100006 16576712
-0.027522858 0.1672543 0.74100006 16644312
-0.10797429 0.16866572 0.74100006 16643782
-0.10656286 0.16866572 0.74100006 16380612
-0.10444191 0.16752765 0.73600006 12630411
-0.10262001 0.16684477 0.73300004 11446900
-0.10094762 0.16638952 0.73100001 10525798
-0.099419042 0.16616191 0.73000002 8556642
-0.097759999 0.16570666 0.72800004 6385473
-0.09624096 0.16547906 0.72700006 5467972
-0.094595239 0.16502382 0.72500002 5139007
-0.092957146 0.16456859 0.72300005 6252860
-0.091453344 0.16434096 0.72200006 8621408
-0.089828581 0.16388571 0.72000003 10525285
-0.088457145 0.16388571 0.72000003 10393699
-0.086964764 0.1636581 0.71900004 10195788
-0.085357144 0.16320287 0.71700001 7958826
-0.083874285 0.16297524 0.71600002 8024912
-0.082510479 0.16297524 0.71600002 7959119
-0.080920003 0.16252001 0.71400005 7959326
-0.079560004 0.16252001 0.71400005 8025119
-0.078200005 0.16252001 0.71400005 7892806
-0.076840006 0.16252001 0.71400005 7827013
-0.075480007 0.16252001 0.71400005 8221503
-0.07412 0.16252001 0.71400005 7958331
-0.072760001 0.16252001 0.71400005 8417583
-0.071400002 0.16252001 0.71400005 10786131
-0.07004001 0.16252001 0.71400005 12036439
-0.068680003 0.16252001 0.71400005 12496990
-0.067225717 0.16229239 0.71300006 11576930
-0.065867618 0.16229239 0.71300006 9142589
-0.064509533 0.16229239 0.71300006 8619343
-0.063151434 0.16229239 0.71300006 8685136
-0.061793335 0.16229239 0.71300006 8226900
-0.060435243 0.16229239 0.71300006 8424279
-0.059077147 0.16229239 0.71300006 8424270
-0.057719052 0.16229239 0.71300006 8292684
-0.056440003 0.16252001 0.71400005 8226902
-0.055080004 0.16252001 0.71400005 8621660
-0.053720001 0.16252001 0.71400005 8358495
-0.052360002 0.16252001 0.71400005 8753253
-0.051142856 0.16297524 0.71600002 9080412
-0.04977905 0.16297524 0.71600002 10725237
-0.048482858 0.16320287 0.71700001 11249787
-0.047248576 0.1636581 0.71900004 10394478
-0.045942858 0.16388571 0.72000003 7636314
-0.044695243 0.16434096 0.72200006 5333559
-0.043380003 0.16456859 0.72300005 4812085
-0.042119049 0.16502382 0.72500002 5141050
-0.040850475 0.16547906 0.72700006 5665612
-0.039520003 0.16570666 0.72800004 5797198
-0.038133334 0.16570666 0.72800004 7831122
-0.036847621 0.16616191 0.73000002 11581323
-0.035505716 0.16638952 0.73100001 11710565
-0.03420667 0.16684477 0.73300004 10131533
-0.033034287 0.16798286 0.73800004 10656871
-0.031671431 0.16821048 0.73900002 12301696
-0.030345717 0.16866572 0.74100006 12957329
-0.029051431 0.16934858 0.74400002 16774094
-0.027634285 0.16934858 0.74400002 16644565
-0.026322858 0.17003143 0.74700004 16776408
-0.10797429 0.17007715 0.74100006 16775368
-0.10656286 0.17007715 0.74100006 16644563
-0.10444191 0.16892953 0.73600006 12894362
-0.10276 0.16847049 0.73400003 11381350
-0.10122381 0.16824096 0.73300004 10920799
-0.099555232 0.1677819 0.73100001 10199924
-0.09802857 0.16755238 0.73000002 6515516
-0.096373342 0.16709335 0.72800004 5928233
-0.094856195 0.16686383 0.72700006 5204510
-0.093214288 0.16640477 0.72500002 5925131
-0.091453344 0.1657162 0.72200006 9412160
-0.089828581 0.16525714 0.72000003 10722666
-0.088457145 0.16525714 0.72000003 10788459
-0.086964764 0.16502762 0.71900004 10326877
-0.085357144 0.16456857 0.71700001 8353087
-0.083991431 0.16456857 0.71700001 8090444
-0.082510479 0.16433905 0.71600002 8156237
-0.081146665 0.16433905 0.71600002 8024624
-0.079782858 0.16433905 0.71600002 8024624
-0.078419052 0.16433905 0.71600002 7827013
-0.076840006 0.16388001 0.71400005 7892806
-0.075480007 0.16388001 0.71400005 7893054
-0.07412 0.16388001 0.71400005 7564089
-0.072760001 0.16388001 0.71400005 7563271
-0.071400002 0.16388001 0.71400005 9997612
-0.07004001 0.16388001 0.71400005 11181150
-0.068680003 0.16388001 0.71400005 12365424
-0.067320004 0.16388001 0.71400005 10723938
-0.065867618 0.16365048 0.71300006 8618562
-0.064509533 0.16365048 0.71300006 8357459
-0.063151434 0.16365048 0.71300006 8423252
-0.061793335 0.16365048 0.71300006 8357968
-0.060435243 0.16365048 0.71300006 8621140
-0.059160002 0.16388001 0.71400005 8555588
-0.057800002 0.16388001 0.71400005 8424002
-0.056440003 0.16388001 0.71400005 8161102
-0.055080004 0.16388001 0.71400005 8424274
-0.053720001 0.16388001 0.71400005 8226389
-0.052506667 0.16433905 0.71600002 8423768
-0.051142856 0.16433905 0.71600002 9014878
-0.049848571 0.16456857 0.71700001 11383426
-0.048618097 0.16502762 0.71900004 11842437
-0.047248576 0.16502762 0.71900004 11316093
-0.045942858 0.16525714 0.72000003 8294252
-0.044695243 0.1657162 0.72200006 5794118
-0.043380003 0.16594572 0.72300005 5074230
-0.04223524 0.16686383 0.72700006 4876851
-0.040850475 0.16686383 0.72700006 5206046
-0.039520003 0.16709335 0.72800004 5863976
-0.038133334 0.16709335 0.72800004 8947025
-0.036847621 0.16755238 0.73000002 12039296
-0.035505716 0.1677819 0.73100001 11710324
-0.03420667 0.16824096 0.73300004 9933913
-0.033034287 0.16938858 0.73800004 10329684
-0.031671431 0.1696181 0.73900002 11777130
-0.030386668 0.17030667 0.74200004 13219981
-0.029051431 0.17076571 0.74400002 16774345
-0.027745714 0.1714543 0.74700004 16512711
-0.026322858 0.1714543 0.74700004 16775883
-0.024900001 0.1714543 0.74700004 16513488
-0.10656286 0.17148858 0.74100006 16578511
-0.10472572 0.17079429 0.73800004 13617826
-0.10276 0.16986857 0.73400003 11381096
-0.1013619 0.16986857 0.73400003 11117924
-0.099555232 0.16917428 0.73100001 10397042
-0.09802857 0.16894285 0.73000002 7896908
-0.096373342 0.16848001 0.72800004 6717236
-0.094856195 0.16824858 0.72700006 6519857
-0.093214288 0.16778572 0.72500002 7962167
-0.091453344 0.16709144 0.72200006 11383403
-0.089828581 0.16662857 0.72000003 12168817
-0.088457145 0.16662857 0.72000003 12431989
-0.086964764 0.16639715 0.71900004 11248497
-0.085595243 0.16639715 0.71900004 8287812
-0.083991431 0.16593428 0.71700001 7894339
-0.082625717 0.16593428 0.71700001 8157511
-0.081146665 0.16570286 0.71600002 8024899
-0.079782858 0.16570286 0.71600002 7893313
-0.078419052 0.16570286 0.71600002 7892554
-0.077055238 0.16570286 0.71600002 7892554
-0.075691432 0.16570286 0.71600002 7892806
-0.074327618 0.16570286 0.71600002 7695427
-0.072963811 0.16570286 0.71600002 7760180
-0.071400002 0.16524 0.71400005 9602384
-0.07004001 0.16524 0.71400005 11181420
-0.068680003 0.16524 0.71400005 12365694
-0.067320004 0.16524 0.71400005 10788970
-0.065960005 0.16524 0.71400005 8815180
-0.064599998 0.16524 0.71400005 8357718
-0.063240007 0.16524 0.71400005 8291925
-0.061880007 0.16524 0.71400005 8226895
-0.060520004 0.16524 0.71400005 8424274
-0.059160002 0.16524 0.71400005 8293681
-0.057800002 0.16524 0.71400005 8491060
-0.056440003 0.16524 0.71400005 8161359
-0.055234287 0.16570286 0.71600002 8424531
-0.053870477 0.16570286 0.71600002 8358486
-0.052506667 0.16570286 0.71600002 8292693
-0.051214285 0.16593428 0.71700001 9474666
-0.049987622 0.16639715 0.71900004 11711628
-0.048685715 0.16662857 0.72000003 12104310
-0.047314286 0.16662857 0.72000003 12301689
-0.045942858 0.16662857 0.72000003 10855314
-0.044757146 0.16732286 0.72300005 9605247
-0.043380003 0.16732286 0.72300005 6585185
-0.04223524 0.16824858 0.72700006 4940360
-0.040850475 0.16824858 0.72700006 5795641
-0.039520003 0.16848001 0.72800004 8558947
-0.038133334 0.16848001 0.72800004 10526579
-0.036898095 0.16917428 0.73100001 11316095
-0.03565143 0.16986857 0.73400003 10987619
-0.034440003 0.17079429 0.73800004 9605966
-0.03307905 0.17102572 0.73900002 10066278
-0.031757142 0.17148858 0.74100006 11382138
-0.030386668 0.17172001 0.74200004 12760452
-0.029051431 0.17218286 0.74400002 16775624
-0.027745714 0.17287715 0.74700004 16513211
-0.026322858 0.17287715 0.74700004 16710590
-0.024900001 0.17287715 0.74700004 16579533
-0.023477143 0.17287715 0.74700004 16711119
-0.10670667 0.17313334 0.74200004 16577998
-0.10515144 0.17290001 0.74100006 13880485
-0.10304001 0.17173333 0.73600006 11446650
-0.1013619 0.17126666 0.73400003 10788720
-0.099827625 0.17103334 0.73300004 10462574
-0.098162852 0.17056666 0.73100001 8357198
-0.096638098 0.17033334 0.73000002 7831312
-0.094856195 0.16963336 0.72700006 8160277
-0.093214288 0.16916667 0.72500002 9670723
-0.091580003 0.16870001 0.72300005 12039271
-0.090078101 0.16846667 0.72200006 12562033
-0.088457145 0.16800001 0.72000003 12562033
-0.087085716 0.16800001 0.72000003 11117179
-0.085595243 0.16776668 0.71900004 9209182
-0.083991431 0.1673 0.71700001 7959630
-0.082625717 0.1673 0.71700001 7828044
-0.081259996 0.1673 0.71700001 8090435
-0.079782858 0.16706666 0.71600002 7958849
-0.078419052 0.16706666 0.71600002 7827531
-0.077055238 0.16706666 0.71600002 7695945
-0.075691432 0.16706666 0.71600002 7564341
-0.074327618 0.16706666 0.71600002 7564341
-0.072963811 0.16706666 0.71600002 7694900
-0.071400002 0.1666 0.71400005 10129241
-0.07004001 0.1666 0.71400005 11246698
-0.068680003 0.1666 0.71400005 11970421
-0.067320004 0.1666 0.71400005 10591852
-0.065960005 0.1666 0.71400005 8749648
-0.064599998 0.1666 0.71400005 8357711
-0.063240007 0.1666 0.71400005 8423504
-0.061880007 0.1666 0.71400005 8227145
-0.060520004 0.1666 0.71400005 8292938
-0.059160002 0.1666 0.71400005 7898939
-0.057800002 0.1666 0.71400005 8096318
-0.056440003 0.1666 0.71400005 8095566
-0.055234287 0.16706666 0.71600002 8227152
-0.053870477 0.16706666 0.71600002 8227406
-0.052579999 0.1673 0.71700001 8490578
-0.051214285 0.1673 0.71700001 10458738
-0.050057143 0.16800001 0.72000003 12169356
-0.048685715 0.16800001 0.72000003 12300662
-0.047314286 0.16800001 0.72000003 12366455
-0.046070479 0.16846667 0.72200006 12235662
-0.044757146 0.16870001 0.72300005 11643525
-0.043500002 0.16916667 0.72500002 9346162
-0.04223524 0.16963336 0.72700006 5859133
-0.040850475 0.16963336 0.72700006 6779137
-0.039520003 0.16986668 0.72800004 10397752
-0.038238097 0.17033334 0.73000002 11118966
-0.036999051 0.17103334 0.73300004 10395243
-0.035748575 0.17173333 0.73600006 10264670
-0.03448667 0.17243333 0.73900002 9672533
-0.033168573 0.17290001 0.74100006 9605716
-0.031757142 0.17290001 0.74100006 11250541
-0.030386668 0.17313334 0.74200004 12366203
-0.029051431 0.1736 0.74400002 16775105
-0.027708573 0.17406668 0.74600005 16511923
-0.026287619 0.17406668 0.74600005 16775609
-0.024866669 0.17406668 0.74600005 16513481
-0.10656286 0.17431143 0.74100006 16512466
-0.10515144 0.17431143 0.74100006 13946539
-0.10346 0.17384095 0.73900002 11577499
-0.1013619 0.17266476 0.73400003 8551021
-0.099827625 0.17242953 0.73300004 9211252
-0.098162852 0.17195906 0.73100001 10592905
-0.096638098 0.1717238 0.73000002 11052635
-0.09498667 0.17125334 0.72800004 11578979
-0.09347143 0.17101811 0.72700006 12234606
-0.091580003 0.17007715 0.72300005 12760950
-0.090078101 0.16984192 0.72200006 12102763
-0.088702865 0.16984192 0.72200006 11313247
-0.087085716 0.16937144 0.72000003 11248233
-0.085714288 0.16937144 0.72000003 11511405
-0.084225714 0.16913621 0.71900004 9735286
-0.082856201 0.16913621 0.71900004 7629910
-0.081259996 0.16866571 0.71700001 7696458
-0.079894282 0.16866571 0.71700001 7762251
-0.078528576 0.16866571 0.71700001 7827018
-0.077055238 0.16843048 0.71600002 7827018
-0.075691432 0.16843048 0.71600002 7761722
-0.074327618 0.16843048 0.71600002 8222273
-0.072963811 0.16843048 0.71600002 8878446
-0.071599998 0.16843048 0.71600002 12036510
-0.070236191 0.16843048 0.71600002 11970666
-0.068872385 0.16843048 0.71600002 11904873
-0.067508571 0.16843048 0.71600002 10985075
-0.065960005 0.16796002 0.71400005 10392938
-0.064599998 0.16796002 0.71400005 9015389
-0.063417144 0.16843048 0.71600002 8423252
-0.061880007 0.16796002 0.71400005 8095811
-0.060520004 0.16796002 0.71400005 8556362
-0.059325717 0.16843048 0.71600002 8161352
-0.057961904 0.16843048 0.71600002 8227145
-0.056598097 0.16843048 0.71600002 7964757
-0.055234287 0.16843048 0.71600002 8030550
-0.053945716 0.16866571 0.71700001 8884564
-0.052579999 0.16866571 0.71700001 11055733
-0.051357146 0.16913621 0.71900004 11512693
-0.050057143 0.16937144 0.72000003 10986349
-0.048685715 0.16937144 0.72000003 11247704
-0.047445718 0.16984192 0.72200006 11181911
-0.046070479 0.16984192 0.72200006 11905121
-0.044880953 0.17054763 0.72500002 13023602
-0.043500002 0.17054763 0.72500002 11776113
-0.04223524 0.17101811 0.72700006 10526046
-0.040906668 0.17125334 0.72800004 10921308
-0.039520003 0.17125334 0.72800004 12237168
-0.038238097 0.1717238 0.73000002 11382372
-0.037049524 0.17266476 0.73400003 9605961
-0.035748575 0.17313525 0.73600006 9279077
-0.034440003 0.17360573 0.73800004 9542249
-0.03307905 0.17384095 0.73900002 9870428
-0.031757142 0.17431143 0.74100006 10988909
-0.030345717 0.17431143 0.74100006 12761988
-0.028934287 0.17431143 0.74100006 16776903
-0.027708573 0.17548762 0.74600005 16645315
-0.026287619 0.17548762 0.74600005 16645315
-0.10656286 0.17572287 0.74100006 16512469
-0.10515144 0.17572287 0.74100006 14670265
-0.10346 0.17524858 0.73900002 12564627
-0.1013619 0.17406286 0.73400003 8814426
-0.099827625 0.17382573 0.73300004 9669692
-0.098431431 0.17382573 0.73300004 11380310
-0.096770473 0.17335142 0.73100001 12036214
-0.09498667 0.17264001 0.72800004 12562558
-0.09347143 0.17240286 0.72700006 12825716
-0.091833338 0.17192858 0.72500002 12496751
-0.090078101 0.17121716 0.72200006 11314542
-0.088702865 0.17121716 0.72200006 10590819
-0.087085716 0.17074287 0.72000003 11115614
-0.085714288 0.17074287 0.72000003 11970923
-0.08434286 0.17074287 0.72000003 11248516
-0.082856201 0.17050572 0.71900004 9274726
-0.081486672 0.17050572 0.71900004 7829592
-0.079894282 0.17003143 0.71700001 7303248
-0.078528576 0.17003143 0.71700001 7826734
-0.077162862 0.17003143 0.71700001 7760941
-0.075691432 0.16979429 0.71600002 7827213
-0.074327618 0.16979429 0.71600002 9011487
-0.072963811 0.16979429 0.71600002 10981743
-0.071599998 0.16979429 0.71600002 12494982
-0.070236191 0.16979429 0.71600002 12364661
-0.068872385 0.16979429 0.71600002 11706731
-0.067508571 0.16979429 0.71600002 11312482
-0.066144764 0.16979429 0.71600002 11312482
-0.064780958 0.16979429 0.71600002 10198387
-0.063417144 0.16979429 0.71600002 9079906
-0.06205333 0.16979429 0.71600002 7963710
-0.060689528 0.16979429 0.71600002 8226882
-0.059325717 0.16979429 0.71600002 8357707
-0.057961904 0.16979429 0.71600002 8357707
-0.056598097 0.16979429 0.71600002 8096331
-0.055311427 0.17003143 0.71700001 8425296
-0.053945716 0.17003143 0.71700001 9869928
-0.052726667 0.17050572 0.71900004 11317374
-0.051357146 0.17050572 0.71900004 11709320
-0.050057143 0.17074287 0.72000003 9406565
-0.048820958 0.17121716 0.72200006 9864770
-0.047445718 0.17121716 0.72200006 10062149
-0.046070479 0.17121716 0.72200006 11509068
-0.044880953 0.17192858 0.72500002 12693342
-0.043620002 0.17240286 0.72700006 12825982
-0.042293333 0.17264001 0.72800004 12628603
-0.040906668 0.17264001 0.72800004 11906163
-0.039628573 0.17311428 0.73000002 12169335
-0.038290478 0.17335142 0.73100001 11513454
-0.037049524 0.17406286 0.73400003 9605457
-0.035748575 0.17453715 0.73600006 9148513
-0.034440003 0.17501144 0.73800004 9214306
-0.03307905 0.17524858 0.73900002 9870948
-0.031671431 0.17524858 0.73900002 11055222
-0.030345717 0.17572287 0.74100006 13419148
-0.028934287 0.17572287 0.74100006 16775619
-0.027634285 0.17643429 0.74400002 16578500
-0.026217142 0.17643429 0.74400002 16578500
-0.10656286 0.17713429 0.74100006 16512215
-0.10486761 0.17665619 0.73900002 15130562
-0.10346 0.17665619 0.73900002 13485711
-0.1013619 0.17546096 0.73400003 8551236
-0.099827625 0.17522192 0.73300004 9208650
-0.098431431 0.17522192 0.73300004 11445612
-0.096770473 0.17474382 0.73100001 12299145
-0.095247619 0.17450477 0.73000002 12496524
-0.093600005 0.17402668 0.72800004 12037477
-0.091833338 0.17330953 0.72500002 10458445
-0.090202861 0.17283143 0.72300005 9276249
-0.088702865 0.17259239 0.72200006 9078870
-0.087327629 0.17259239 0.72200006 9867098
-0.085714288 0.17211428 0.72000003 11182958
-0.08434286 0.17211428 0.72000003 11444338
-0.082971431 0.17211428 0.72000003 11181166
-0.081486672 0.17187524 0.71900004 9405814
-0.080117144 0.17187524 0.71900004 7826782
-0.078528576 0.17139713 0.71700001 7958856
-0.077162862 0.17139713 0.71700001 9011544
-0.075797141 0.17139713 0.71700001 10656559
-0.074327618 0.17115809 0.71600002 12104005
-0.072963811 0.17115809 0.71600002 11971195
-0.071599998 0.17115809 0.71600002 11905402
-0.070236191 0.17115809 0.71600002 11116913
-0.068872385 0.17115809 0.71600002 8156228
-0.067508571 0.17115809 0.71600002 9075811
-0.066144764 0.17115809 0.71600002 12036496
-0.064780958 0.17115809 0.71600002 11839870
-0.063417144 0.17115809 0.71600002 11181940
-0.06205333 0.17115809 0.71600002 9738844
-0.060689528 0.17115809 0.71600002 8686156
-0.059325717 0.17115809 0.71600002 8424020
-0.057961904 0.17115809 0.71600002 8358227
-0.056677144 0.17139713 0.71700001 9080914
-0.055311427 0.17139713 0.71700001 11120497
-0.054096192 0.17187524 0.71900004 11578234
-0.052800003 0.17211428 0.72000003 11709820
-0.051428575 0.17211428 0.72000003 11182967
-0.050057143 0.17211428 0.72000003 7827524
-0.048820958 0.17259239 0.72200006 8352828
-0.047445718 0.17259239 0.72200006 8418621
-0.046134286 0.17283143 0.72300005 9601069
-0.045004766 0.17378764 0.72700006 10851136
-0.043620002 0.17378764 0.72700006 11246698
-0.042293333 0.17402668 0.72800004 12825730
-0.041019049 0.17450477 0.73000002 12498550
-0.039682858 0.17474382 0.73100001 11906413
-0.038395241 0.17522192 0.73300004 10659169
-0.037049524 0.17546096 0.73400003 9343309
-0.035748575 0.17593907 0.73600006 9083240
-0.034440003 0.17641714 0.73800004 9149033
-0.03307905 0.17665619 0.73900002 10197855
-0.031671431 0.17665619 0.73900002 12500610
-0.030345717 0.17713429 0.74100006 14076821
-0.028934287 0.17713429 0.74100006 16775362
-0.027634285 0.17785142 0.74400002 16512968
-0.026217142 0.17785142 0.74400002 16447175
-0.10656286 0.17854571 0.74100006 16446673
-0.10486761 0.17806382 0.73900002 15986122
-0.10346 0.17806382 0.73900002 13420699
-0.1016381 0.17734095 0.73600006 8486224
-0.099963814 0.17685905 0.73400003 8419107
-0.098431431 0.1766181 0.73300004 11313999
-0.096770473 0.1761362 0.73100001 12167811
-0.095247619 0.17589524 0.73000002 12233604
-0.093600005 0.17541334 0.72800004 11578218
-0.091833338 0.17469047 0.72500002 9209670
-0.090452388 0.17469047 0.72500002 8817490
-0.088825718 0.17420858 0.72300005 8817490
-0.087327629 0.17396763 0.72200006 9473619
-0.085952386 0.17396763 0.72200006 10065756
-0.08434286 0.17348571 0.72000003 11378275
-0.082971431 0.17348571 0.72000003 11641447
-0.081600003 0.17348571 0.72000003 10721653
-0.080228575 0.17348571 0.72000003 7892554
-0.078747623 0.17324477 0.71900004 8286760
-0.077378094 0.17324477 0.71900004 10194757
-0.075797141 0.17276286 0.71700001 11444311
-0.074327618 0.17252192 0.71600002 12365413
-0.072963811 0.17252192 0.71600002 12431744
-0.071699999 0.17276286 0.71700001 11708021
-0.070236191 0.17252192 0.71600002 9410156
-0.068872385 0.17252192 0.71600002 6252092
-0.067508571 0.17252192 0.71600002 8089633
-0.066144764 0.17252192 0.71600002 10984525
-0.064871423 0.17276286 0.71700001 12298366
-0.063505717 0.17276286 0.71700001 12035194
-0.062139999 0.17276286 0.71700001 10855281
-0.060774285 0.17276286 0.71700001 9473628
-0.059408572 0.17276286 0.71700001 8096070
-0.058042858 0.17276286 0.71700001 8161863
-0.056677144 0.17276286 0.71700001 9999191
-0.055465717 0.17324477 0.71900004 11907188
-0.054096192 0.17324477 0.71900004 12299395
-0.052800003 0.17348571 0.72000003 11509879
-0.051428575 0.17348571 0.72000003 9932135
-0.050196193 0.17396763 0.72200006 7958345
-0.048820958 0.17396763 0.72200006 8025144
-0.047511432 0.17420858 0.72300005 8025144
-0.046134286 0.17420858 0.72300005 8287782
-0.045004766 0.17517239 0.72700006 8156196
-0.043620002 0.17517239 0.72700006 10324542
-0.042293333 0.17541334 0.72800004 13219434
-0.041019049 0.17589524 0.73000002 12433554
-0.039682858 0.1761362 0.73100001 11446659
-0.038395241 0.1766181 0.73300004 9673812
-0.037049524 0.17685905 0.73400003 9147468
-0.035748575 0.17734095 0.73600006 9214056
-0.034440003 0.17782286 0.73800004 9279849
-0.03307905 0.17806382 0.73900002 10525262
-0.031671431 0.17806382 0.73900002 12762224
-0.030345717 0.17854571 0.74100006 14930849
-0.028934287 0.17854571 0.74100006 16775109
-0.027522858 0.17854571 0.74100006 16578763
-0.10656286 0.17995715 0.74100006 16512205
-0.10486761 0.17947143 0.73900002 16249033
-0.10346 0.17947143 0.73900002 14932891
-0.10191429 0.17922857 0.73800004 8814142
-0.1002362 0.17874287 0.73600006 8813913
-0.098431431 0.17801429 0.73300004 10195566
-0.096770473 0.17752858 0.73100001 11905636
-0.095247619 0.17728572 0.73000002 12168808
-0.093600005 0.17680001 0.72800004 11381843
-0.092086673 0.17655715 0.72700006 9210674
-0.090701908 0.17655715 0.72700006 8818271
-0.08907143 0.17607142 0.72500002 8686685
-0.087448575 0.17558572 0.72300005 8817756
-0.085952386 0.17534287 0.72200006 8686170
-0.084577151 0.17534287 0.72200006 10195788
-0.082971431 0.17485714 0.72000003 11577441
-0.081600003 0.17485714 0.72000003 10786667
-0.080228575 0.17485714 0.72000003 10391909
-0.078747623 0.1746143 0.71900004 11577178
-0.077378094 0.1746143 0.71900004 12037729
-0.076008573 0.1746143 0.71900004 11642210
-0.074431427 0.17412858 0.71700001 11708003
-0.073065713 0.17412858 0.71700001 10262865
-0.071699999 0.17412858 0.71700001 7565352
-0.070236191 0.17388572 0.71600002 6253621
-0.068872385 0.17388572 0.71600002 5200933
-0.067602858 0.17412858 0.71700001 5988400
-0.066237144 0.17412858 0.71700001 7435846
-0.064871423 0.17412858 0.71700001 9997385
-0.063505717 0.17412858 0.71700001 11510624
-0.062139999 0.17412858 0.71700001 11314278
-0.060943812 0.1746143 0.71900004 11774829
-0.059574291 0.1746143 0.71900004 10658908
-0.058204763 0.1746143 0.71900004 10461529
-0.056835238 0.1746143 0.71900004 11248233
-0.05554286 0.17485714 0.72000003 11971956
-0.054171428 0.17485714 0.72000003 11641710
-0.052946672 0.17534287 0.72200006 8615232
-0.051571433 0.17534287 0.72200006 8287298
-0.050196193 0.17534287 0.72200006 8221505
-0.048888575 0.17558572 0.72300005 8156476
-0.047511432 0.17558572 0.72300005 8288062
-0.046261907 0.17607142 0.72500002 8418884
-0.045004766 0.17655715 0.72700006 8089919
-0.043680001 0.17680001 0.72800004 8287046
-0.042409524 0.17728572 0.73000002 11708282
-0.041019049 0.17728572 0.73000002 11907451
-0.039791431 0.17801429 0.73300004 11052142
-0.038447622 0.17825715 0.73400003 9279061
-0.037049524 0.17825715 0.73400003 9147475
-0.035748575 0.17874287 0.73600006 9148517
-0.034440003 0.17922857 0.73800004 9543275
-0.03307905 0.17947143 0.73900002 10591321
-0.031757142 0.17995715 0.74100006 12499318
-0.030386668 0.18020001 0.74200004 14405268
-0.028973334 0.18020001 0.74200004 16776643
-0.10656286 0.18136857 0.74100006 16578772
-0.10515144 0.18136857 0.74100006 16776151
-0.10346 0.18087906 0.73900002 14736305
-0.10191429 0.1806343 0.73800004 9275486
-0.099963814 0.17965524 0.73400003 8617783
-0.09856572 0.17965524 0.73400003 10131022
-0.097035244 0.17941049 0.73300004 10853491
-0.095378101 0.17892095 0.73100001 11708800
-0.093857147 0.17867619 0.73000002 10199143
-0.092086673 0.17794192 0.72700006 9080662
-0.090701908 0.17794192 0.72700006 8884319
-0.08907143 0.17745239 0.72500002 8884319
-0.087448575 0.17696287 0.72300005 8556380
-0.085952386 0.17671812 0.72200006 8227415
-0.084577151 0.17671812 0.72200006 9144906
-0.083201908 0.17671812 0.72200006 10329180
-0.081600003 0.17622858 0.72000003 11247211
-0.080228575 0.17622858 0.72000003 11839348
-0.078857146 0.17622858 0.72000003 12102531
-0.07748571 0.17622858 0.72000003 12168324
-0.076008573 0.17598382 0.71900004 11708014
-0.074639052 0.17598382 0.71900004 10721119
-0.073269531 0.17598382 0.71900004 8423502
-0.071900003 0.17598382 0.71900004 5528610
-0.070334285 0.17549428 0.71700001 5136943
-0.068968572 0.17549428 0.71700001 5268529
-0.067791432 0.17598382 0.71900004 4611619
-0.066421911 0.17598382 0.71900004 5664307
-0.065052383 0.17598382 0.71900004 7435312
-0.063682862 0.17598382 0.71900004 9409102
-0.062313333 0.17598382 0.71900004 11510358
-0.060943812 0.17598382 0.71900004 11970909
-0.059574291 0.17598382 0.71900004 11708262
-0.058204763 0.17598382 0.71900004 11510883
-0.056835238 0.17598382 0.71900004 11641717
-0.05554286 0.17622858 0.72000003 11312752
-0.054171428 0.17622858 0.72000003 10719325
-0.052946672 0.17671812 0.72200006 8350777
-0.051571433 0.17671812 0.72200006 7958583
-0.050196193 0.17671812 0.72200006 8287548
-0.048888575 0.17696287 0.72300005 8418621
-0.047642857 0.17745239 0.72500002 8418621
-0.046261907 0.17745239 0.72500002 7958583
-0.04506667 0.17818667 0.72800004 8090169
-0.043680001 0.17818667 0.72800004 8024624
-0.042409524 0.17867619 0.73000002 11182688
-0.041019049 0.17867619 0.73000002 11513479
-0.039791431 0.17941049 0.73300004 10855549
-0.038447622 0.17965524 0.73400003 9082200
-0.037049524 0.17965524 0.73400003 8950614
-0.035748575 0.18014477 0.73600006 8885332
-0.034440003 0.1806343 0.73800004 9674848
-0.033168573 0.18136857 0.74100006 11446632
-0.031757142 0.18136857 0.74100006 11446632
-0.030386668 0.18161334 0.74200004 14075529
-0.028973334 0.18161334 0.74200004 16776126
-0.10670667 0.18302667 0.74200004 16512716
-0.10515144 0.18278001 0.74100006 16775888
-0.10346 0.18228666 0.73900002 15196336
-0.10191429 0.18204001 0.73800004 10130275
-0.099963814 0.18105334 0.73400003 9669969
-0.09856572 0.18105334 0.73400003 10130520
-0.097035244 0.18080668 0.73300004 11380603
-0.09563905 0.18080668 0.73300004 11972740
-0.093857147 0.18006667 0.73000002 10460534
-0.092086673 0.17932668 0.72700006 9407846
-0.090701908 0.17932668 0.72700006 8752985
-0.08907143 0.17883334 0.72500002 8752985
-0.08769048 0.17883334 0.72500002 8555608
-0.086071432 0.17834002 0.72300005 8160850
-0.084577151 0.17809334 0.72200006 8882779
-0.083201908 0.17809334 0.72200006 9211744
-0.081600003 0.17760001 0.72000003 10326881
-0.080228575 0.17760001 0.72000003 11905913
-0.078857146 0.17760001 0.72000003 12102020
-0.07748571 0.17760001 0.72000003 11575676
