# .PCD v0.7 - Point Cloud Data file format
VERSION 0.7
FIELDS x y z rgba
SIZE 4 4 4 4
TYPE F F F U
COUNT 1 1 1 1
WIDTH 1110
HEIGHT 1
VIEWPOINT 0 0 0 1 0 0 0
POINTS 1110
DATA ascii
-0.11139524 0.17120476 0.78500003 16710340
-0.10990001 0.17120476 0.78500003 16578772
-0.10785238 0.17033237 0.78100002 14144431
-0.10636476 0.17033237 0.78100002 12040829
-0.10487714 0.17033237 0.78100002 9935453
-0.10325715 0.17011429 0.78000003 9936223
-0.10151048 0.16967811 0.77800006 10923118
-0.099514291 0.16880573 0.77400005 11579256
-0.09791334 0.16858763 0.77300006 10131810
-0.096191436 0.16815144 0.77100003 7569735
-0.094477147 0.16771525 0.76900005 6122289
-0.093012393 0.16771525 0.76900005 5730376
-0.091309525 0.16727905 0.76700002 5664583
-0.089848571 0.16727905 0.76700002 5336390
-0.088387616 0.16727905 0.76700002 4612667
-0.086813338 0.16706096 0.76600003 7500800
-0.085354283 0.16706096 0.76600003 10658855
-0.083895244 0.16706096 0.76600003 12234088
-0.082436197 0.16706096 0.76600003 12299881
-0.080977142 0.16706096 0.76600003 12693885
-0.079310484 0.16662477 0.76400006 12628092
-0.077855244 0.16662477 0.76400006 11773566
-0.076400004 0.16662477 0.76400006 9405018
-0.074944772 0.16662477 0.76400006 8616254
-0.073489532 0.16662477 0.76400006 7892531
-0.072034292 0.16662477 0.76400006 8024628
-0.070579059 0.16662477 0.76400006 8090421
-0.069123812 0.16662477 0.76400006 8155953
-0.067668572 0.16662477 0.76400006 7958574
-0.06638667 0.16706096 0.76600003 8812854
-0.064927623 0.16706096 0.76600003 9997128
-0.063468575 0.16706096 0.76600003 11969630
-0.062009525 0.16706096 0.76600003 12956525
-0.060550477 0.16706096 0.76600003 12891784
-0.059168573 0.16727905 0.76700002 12365440
-0.057707619 0.16727905 0.76700002 10789742
-0.056246668 0.16727905 0.76700002 9210710
-0.054785714 0.16727905 0.76700002 8687446
-0.053463813 0.16771525 0.76900005 8687446
-0.051999051 0.16771525 0.76900005 8687192
-0.050665714 0.16815144 0.77100003 8818778
-0.049324766 0.16858763 0.77300006 8753748
-0.047914285 0.16880573 0.77400005 8687955
-0.046440005 0.16880573 0.77400005 9080914
-0.045198098 0.16967811 0.77800006 11581048
-0.043716192 0.16967811 0.77800006 11318660
-0.04234286 0.17011429 0.78000003 9871214
-0.040909525 0.17033237 0.78100002 6914372
-0.03952286 0.17076857 0.78300005 5795891
-0.038225718 0.17164096 0.78700006 6191376
-0.036726668 0.17164096 0.78700006 9678405
-0.035317142 0.17207715 0.78900003 13485443
-0.033814285 0.17207715 0.78900003 16775864
-0.032311428 0.17207715 0.78900003 16577732
-0.11139524 0.1727 0.78500003 16710601
-0.10990001 0.1727 0.78500003 16579032
-0.10785238 0.17182001 0.78100002 14539449
-0.10622857 0.1716 0.78000003 12304265
-0.10474286 0.1716 0.78000003 9277787
-0.10325715 0.1716 0.78000003 9608037
-0.10151048 0.17116001 0.77800006 10660725
-0.099771433 0.17072001 0.77600002 11513706
-0.09791334 0.17006001 0.77300006 10395225
-0.096191436 0.16962001 0.77100003 7635291
-0.094477147 0.16918001 0.76900005 6056259
-0.093012393 0.16918001 0.76900005 5467972
-0.091309525 0.16874 0.76700002 5599558
-0.089848571 0.16874 0.76700002 5467972
-0.088387616 0.16874 0.76700002 5204800
-0.086813338 0.16852002 0.76600003 5990979
-0.085354283 0.16852002 0.76600003 7109460
-0.083895244 0.16852002 0.76600003 10260789
-0.082436197 0.16852002 0.76600003 12366165
-0.080977142 0.16852002 0.76600003 12759419
-0.079310484 0.16808 0.76400006 11048801
-0.077855244 0.16808 0.76400006 9733468
-0.076400004 0.16808 0.76400006 8483401
-0.074944772 0.16808 0.76400006 8222269
-0.073489532 0.16808 0.76400006 8090683
-0.072034292 0.16808 0.76400006 8155458
-0.070579059 0.16808 0.76400006 8221251
-0.069304764 0.16852002 0.76600003 8155458
-0.067845717 0.16852002 0.76600003 8089665
-0.06638667 0.16852002 0.76600003 8023613
-0.064927623 0.16852002 0.76600003 8155199
-0.063468575 0.16852002 0.76600003 9666896
-0.062009525 0.16852002 0.76600003 12759167
-0.060550477 0.16852002 0.76600003 12628866
-0.059168573 0.16874 0.76700002 11181420
-0.057707619 0.16874 0.76700002 9672295
-0.056246668 0.16874 0.76700002 9409123
-0.054928575 0.16918001 0.76900005 8359014
-0.053463813 0.16918001 0.76900005 8293221
-0.052134287 0.16962001 0.77100003 8885093
-0.050797146 0.17006001 0.77300006 9016679
-0.049388573 0.17028001 0.77400005 8688730
-0.047914285 0.17028001 0.77400005 8491351
-0.046560001 0.17072001 0.77600002 10065747
-0.045198098 0.17116001 0.77800006 12302709
-0.043828573 0.1716 0.78000003 12367228
-0.042397145 0.17182001 0.78100002 12367228
-0.040909525 0.17182001 0.78100002 9543038
-0.03952286 0.17226002 0.78300005 7569248
-0.038225718 0.17314 0.78700006 7834204
-0.036820002 0.17358001 0.78900003 11255440
-0.035317142 0.17358001 0.78900003 13289345
-0.033814285 0.17358001 0.78900003 16776888
-0.032311428 0.17358001 0.78900003 16578772
-0.11111143 0.17375144 0.78300005 16776138
-0.1092 0.17308572 0.78000003 16710877
-0.10771429 0.17308572 0.78000003 14671294
-0.10622857 0.17308572 0.78000003 13488268
-0.10474286 0.17308572 0.78000003 10067032
-0.10325715 0.17308572 0.78000003 9936980
-0.10151048 0.17264192 0.77800006 10923875
-0.099771433 0.17219809 0.77600002 11317120
-0.098040007 0.1717543 0.77400005 10659190
-0.096440956 0.17153239 0.77300006 7571042
-0.09472286 0.17108858 0.77100003 5992010
-0.093012393 0.17064478 0.76900005 5467976
-0.091309525 0.17020094 0.76700002 5599562
-0.089848571 0.17020094 0.76700002 5730376
-0.088387616 0.17020094 0.76700002 5598790
-0.086926669 0.17020094 0.76700002 5007672
-0.085465722 0.17020094 0.76700002 4481328
-0.083895244 0.16997905 0.76600003 8551713
-0.082436197 0.16997905 0.76600003 12038742
-0.080977142 0.16997905 0.76600003 12628120
-0.079518095 0.16997905 0.76600003 9864814
-0.078059055 0.16997905 0.76600003 8945730
-0.0766 0.16997905 0.76600003 8156214
-0.075140953 0.16997905 0.76600003 8090694
-0.073681906 0.16997905 0.76600003 8024901
-0.072222859 0.16997905 0.76600003 8090435
-0.070763811 0.16997905 0.76600003 8024642
-0.069304764 0.16997905 0.76600003 8155451
-0.067845717 0.16997905 0.76600003 8221244
-0.06638667 0.16997905 0.76600003 7958835
-0.064927623 0.16997905 0.76600003 7893042
-0.063468575 0.16997905 0.76600003 9010751
-0.062090475 0.17020094 0.76700002 12563573
-0.060629524 0.17020094 0.76700002 12432523
-0.059168573 0.17020094 0.76700002 10721905
-0.057707619 0.17020094 0.76700002 9212248
-0.056246668 0.17020094 0.76700002 8817490
-0.054928575 0.17064478 0.76900005 8424540
-0.053463813 0.17064478 0.76900005 8687712
-0.052134287 0.17108858 0.77100003 8754527
-0.050797146 0.17153239 0.77300006 8622941
-0.049388573 0.1717543 0.77400005 8426834
-0.047914285 0.1717543 0.77400005 8558420
-0.046680003 0.17264192 0.77800006 11180914
-0.045314286 0.17308572 0.78000003 12430981
-0.043828573 0.17308572 0.78000003 13153641
-0.042397145 0.17330763 0.78100002 13351020
-0.040909525 0.17330763 0.78100002 11843725
-0.03952286 0.17375144 0.78300005 10067314
-0.038225718 0.17463906 0.78700006 9214299
-0.036820002 0.17508286 0.78900003 10859124
-0.035317142 0.17508286 0.78900003 13682306
-0.033814285 0.17508286 0.78900003 16776376
-0.032311428 0.17508286 0.78900003 16578513
-0.11111143 0.17524286 0.78300005 16776145
-0.10962 0.17524286 0.78300005 16645074
-0.10771429 0.17457142 0.78000003 14605491
-0.10622857 0.17457142 0.78000003 13553798
-0.10474286 0.17457142 0.78000003 10658906
-0.10338953 0.17479524 0.78100002 11053414
-0.10177143 0.17457142 0.78000003 12303481
-0.10002857 0.17412382 0.77800006 12564620
-0.098040007 0.17322858 0.77400005 11577725
-0.096440956 0.17300478 0.77300006 8949370
-0.09472286 0.17255716 0.77100003 6580822
-0.093012393 0.17210953 0.76900005 5205581
-0.091547623 0.17210953 0.76900005 5468753
-0.089848571 0.17166191 0.76700002 5796418
-0.088387616 0.17166191 0.76700002 5664832
-0.086926669 0.17166191 0.76700002 5270595
-0.085465722 0.17166191 0.76700002 4678458
-0.08400476 0.17166191 0.76700002 7763003
-0.082436197 0.1714381 0.76600003 11250032
-0.080977142 0.1714381 0.76600003 12234608
-0.079518095 0.1714381 0.76600003 8944958
-0.078059055 0.1714381 0.76600003 8287798
-0.0766 0.1714381 0.76600003 8353591
-0.075140953 0.1714381 0.76600003 8090444
-0.073681906 0.1714381 0.76600003 8156237
-0.072222859 0.1714381 0.76600003 8090442
-0.070763811 0.1714381 0.76600003 7893063
-0.069304764 0.1714381 0.76600003 8089919
-0.067845717 0.1714381 0.76600003 8287298
-0.06638667 0.1714381 0.76600003 7893808
-0.064927623 0.1714381 0.76600003 7828015
-0.063551433 0.17166191 0.76700002 8945242
-0.062090475 0.17166191 0.76700002 12300685
-0.060629524 0.17166191 0.76700002 12366201
-0.059168573 0.17166191 0.76700002 11247720
-0.057707619 0.17166191 0.76700002 9278309
-0.056393337 0.17210953 0.76900005 8554586
-0.054928575 0.17210953 0.76900005 8293993
-0.053602856 0.17255716 0.77100003 8557165
-0.052134287 0.17255716 0.77100003 8687953
-0.05086286 0.17322858 0.77400005 8556367
-0.049388573 0.17322858 0.77400005 9147979
-0.048038095 0.17367619 0.77600002 10792804
-0.046680003 0.17412382 0.77800006 11970684
-0.045314286 0.17457142 0.78000003 11181168
-0.043828573 0.17457142 0.78000003 12429659
-0.042397145 0.17479524 0.78100002 13745519
-0.040909525 0.17479524 0.78100002 13024385
-0.03952286 0.17524286 0.78300005 12563834
-0.038225718 0.1761381 0.78700006 11382915
-0.036820002 0.17658572 0.78900003 10527606
-0.035317142 0.17658572 0.78900003 13025669
-0.033857141 0.17680953 0.79000002 16776384
-0.03235238 0.17680953 0.79000002 16578513
-0.11111143 0.1767343 0.78300005 16578252
-0.10962 0.1767343 0.78300005 16578770
-0.10785238 0.17628285 0.78100002 15328703
-0.10636476 0.17628285 0.78100002 13685141
-0.10487714 0.17628285 0.78100002 11250800
-0.10338953 0.17628285 0.78100002 11644531
-0.10177143 0.17605714 0.78000003 12368254
-0.10002857 0.17560573 0.77800006 13023104
-0.098293334 0.17515428 0.77600002 12365174
-0.096565716 0.17470287 0.77400005 10329474
-0.09496858 0.17447716 0.77300006 7697754
-0.093254283 0.17402571 0.77100003 5271876
-0.091547623 0.17357428 0.76900005 5337669
-0.089848571 0.17312287 0.76700002 5730376
-0.088387616 0.17312287 0.76700002 5532997
-0.086926669 0.17312287 0.76700002 5270583
-0.085465722 0.17312287 0.76700002 4941618
-0.08400476 0.17312287 0.76700002 6449955
-0.082543813 0.17312287 0.76700002 11055465
-0.080977142 0.17289715 0.76600003 11840902
-0.079518095 0.17289715 0.76600003 8946010
-0.078059055 0.17289715 0.76600003 8418862
-0.0766 0.17289715 0.76600003 8418862
-0.075140953 0.17289715 0.76600003 7958847
-0.073681906 0.17289715 0.76600003 8222019
-0.072222859 0.17289715 0.76600003 8287823
-0.070763811 0.17289715 0.76600003 8024651
-0.069304764 0.17289715 0.76600003 8090435
-0.06793429 0.17312287 0.76700002 8024642
-0.066473335 0.17312287 0.76700002 7960121
-0.06501238 0.17312287 0.76700002 7631156
-0.063551433 0.17312287 0.76700002 9011010
-0.062090475 0.17312287 0.76700002 12432246
-0.060629524 0.17312287 0.76700002 12366460
-0.059168573 0.17312287 0.76700002 11905909
-0.057858098 0.17357428 0.76900005 10199159
-0.056393337 0.17357428 0.76900005 8620127
-0.055071428 0.17402571 0.77100003 8490587
-0.053602856 0.17402571 0.77100003 8556380
-0.052269526 0.17447716 0.77300006 8095816
-0.05086286 0.17470287 0.77400005 8622160
-0.04951619 0.17515428 0.77600002 9607004
-0.048161909 0.17560573 0.77800006 11646587
-0.046800002 0.17605714 0.78000003 12366999
-0.045314286 0.17605714 0.78000003 9669486
-0.043884765 0.17628285 0.78100002 10783019
-0.042397145 0.17628285 0.78100002 12691016
-0.041014288 0.1767343 0.78300005 13942403
-0.03952286 0.1767343 0.78300005 14008196
-0.038225718 0.17763716 0.78700006 12368259
-0.036820002 0.17808858 0.78900003 11183985
-0.035317142 0.17808858 0.78900003 12566140
-0.033857141 0.1783143 0.79000002 16711099
-0.03235238 0.1783143 0.79000002 16578511
-0.11139524 0.17868096 0.78500003 16249287
-0.10990001 0.17868096 0.78500003 16446664
-0.10785238 0.17777048 0.78100002 15854527
-0.10636476 0.17777048 0.78100002 13881507
-0.10514572 0.17822573 0.78300005 11644545
-0.10338953 0.17777048 0.78100002 12038535
-0.10177143 0.17754287 0.78000003 11972742
-0.10028572 0.17754287 0.78000003 12235090
-0.098293334 0.17663239 0.77600002 11906125
-0.096565716 0.17617714 0.77400005 11249773
-0.09496858 0.17594953 0.77300006 10197085
-0.093496196 0.17594953 0.77300006 7503956
-0.091785714 0.1754943 0.77100003 5595959
-0.090082861 0.17503907 0.76900005 5270595
-0.0886181 0.17503907 0.76900005 5204802
-0.086926669 0.17458381 0.76700002 5598253
-0.085465722 0.17458381 0.76700002 6650941
-0.08400476 0.17458381 0.76700002 8485478
-0.082543813 0.17458381 0.76700002 12827816
-0.081082858 0.17458381 0.76700002 12365944
-0.079621911 0.17458381 0.76700002 10918498
-0.078160949 0.17458381 0.76700002 8813666
-0.0766 0.17435619 0.76600003 8024150
-0.075140953 0.17435619 0.76600003 8025664
-0.073681906 0.17435619 0.76600003 8223043
-0.072222859 0.17435619 0.76600003 8156485
-0.070763811 0.17435619 0.76600003 8024899
-0.069304764 0.17435619 0.76600003 8221503
-0.06793429 0.17458381 0.76700002 8024124
-0.066473335 0.17458381 0.76700002 8155703
-0.06501238 0.17458381 0.76700002 9866321
-0.063551433 0.17458381 0.76700002 10918226
-0.062090475 0.17458381 0.76700002 12563051
-0.060787622 0.17503907 0.76900005 12628605
-0.05932286 0.17503907 0.76900005 13023363
-0.057858098 0.17503907 0.76900005 11643523
-0.056393337 0.17503907 0.76900005 10327663
-0.055071428 0.1754943 0.77100003 9015139
-0.05374191 0.17594953 0.77300006 8883553
-0.052269526 0.17594953 0.77300006 8621919
-0.050994288 0.17663239 0.77600002 9214056
-0.049643811 0.17708763 0.77800006 10526064
-0.048161909 0.17708763 0.77800006 12105096
-0.046800002 0.17754287 0.78000003 12300158
-0.045314286 0.17754287 0.78000003 8615750
-0.043884765 0.17777048 0.78100002 8877893
-0.042397145 0.17777048 0.78100002 9470030
-0.041014288 0.17822573 0.78300005 11772767
-0.039623808 0.17868096 0.78500003 13680764
-0.038225718 0.1791362 0.78700006 12302711
-0.036820002 0.17959145 0.78900003 11315816
-0.035317142 0.17959145 0.78900003 13092738
-0.033857141 0.17981905 0.79000002 16711353
-0.03235238 0.17981905 0.79000002 16578511
-0.11139524 0.1801762 0.78500003 16447177
-0.10990001 0.1801762 0.78500003 16512459
-0.10812858 0.17971715 0.78300005 16117701
-0.10663715 0.17971715 0.78300005 14078098
-0.10514572 0.17971715 0.78300005 12170101
-0.10365429 0.17971715 0.78300005 12696215
-0.10177143 0.17902859 0.78000003 10722425
-0.10028572 0.17902859 0.78000003 10786374
-0.098293334 0.17811048 0.77600002 11049546
-0.096565716 0.17765144 0.77400005 11642487
-0.09496858 0.17742191 0.77300006 11839866
-0.093496196 0.17742191 0.77300006 8753036
-0.091785714 0.17696285 0.77100003 5660765
-0.090082861 0.17650382 0.76900005 5204508
-0.0886181 0.17650382 0.76900005 5072922
-0.087153338 0.17650382 0.76900005 5925903
-0.085465722 0.17604476 0.76700002 7965486
-0.08400476 0.17604476 0.76700002 11180146
-0.082543813 0.17604476 0.76700002 12693385
-0.081082858 0.17604476 0.76700002 12562542
-0.079621911 0.17604476 0.76700002 11641440
-0.078160949 0.17604476 0.76700002 10458981
-0.076700002 0.17604476 0.76700002 8748363
-0.075140953 0.17581524 0.76600003 7960121
-0.073681906 0.17581524 0.76600003 8091707
-0.072222859 0.17581524 0.76600003 7431969
-0.070763811 0.17581524 0.76600003 8155692
-0.069395244 0.17604476 0.76700002 8155444
-0.06793429 0.17604476 0.76700002 7892272
-0.066473335 0.17604476 0.76700002 8154920
-0.06501238 0.17604476 0.76700002 11181398
-0.063551433 0.17604476 0.76700002 11970416
-0.062252384 0.17650382 0.76900005 11970416
-0.060787622 0.17650382 0.76900005 12232548
-0.05932286 0.17650382 0.76900005 13022064
-0.057858098 0.17650382 0.76900005 12563589
-0.056540001 0.17696285 0.77100003 12103038
-0.05521429 0.17742191 0.77300006 10987137
-0.05374191 0.17742191 0.77300006 9737070
-0.052337144 0.17765144 0.77400005 9146705
-0.050994288 0.17811048 0.77600002 10002014
-0.04951619 0.17811048 0.77600002 11840116
-0.048161909 0.17856954 0.77800006 11774323
-0.046800002 0.17902859 0.78000003 11246711
-0.045314286 0.17902859 0.78000003 8746577
-0.043884765 0.17925811 0.78100002 8288577
-0.042397145 0.17925811 0.78100002 8420163
-0.041014288 0.17971715 0.78300005 10260280
-0.039623808 0.1801762 0.78500003 12957793
-0.038225718 0.18063524 0.78700006 12104828
-0.036820002 0.18109429 0.78900003 11578484
-0.035317142 0.18109429 0.78900003 13553044
-0.033857141 0.18132381 0.79000002 16711108
-0.03235238 0.18132381 0.79000002 16578772
-0.10990001 0.18167143 0.78500003 16446666
-0.10840476 0.18167143 0.78500003 16380873
-0.10663715 0.18120858 0.78300005 15130765
-0.10514572 0.18120858 0.78300005 11577943
-0.10365429 0.18120858 0.78300005 11512450
-0.1019019 0.18074572 0.78100002 9078109
-0.10028572 0.18051429 0.78000003 9077296
-0.098293334 0.17958857 0.77600002 9077296
-0.096565716 0.17912573 0.77400005 10193501
-0.095091432 0.17912573 0.77400005 12956807
-0.093496196 0.1788943 0.77300006 11117711
-0.092023812 0.1788943 0.77300006 8222819
-0.090317145 0.17843144 0.77100003 7307065
-0.088848568 0.17843144 0.77100003 7372858
-0.087379999 0.17843144 0.77100003 9933652
-0.085688576 0.17796859 0.76900005 11907442
-0.084223814 0.17796859 0.76900005 12036484
-0.082543813 0.17750572 0.76700002 11510140
-0.081082858 0.17750572 0.76700002 12103254
-0.079621911 0.17750572 0.76700002 12498012
-0.078160949 0.17750572 0.76700002 12235353
-0.076700002 0.17750572 0.76700002 11314251
-0.075239047 0.17750572 0.76700002 9999191
-0.0737781 0.17750572 0.76700002 8420159
-0.072317138 0.17750572 0.76700002 7761477
-0.070856191 0.17750572 0.76700002 7827270
-0.069395244 0.17750572 0.76700002 8483387
-0.06793429 0.17750572 0.76700002 10194005
-0.066473335 0.17750572 0.76700002 11312734
-0.06501238 0.17750572 0.76700002 12562801
-0.063717149 0.17796859 0.76900005 11839852
-0.062252384 0.17796859 0.76900005 9010753
-0.060787622 0.17796859 0.76900005 9471793
-0.059477147 0.17843144 0.77100003 10853446
-0.05800857 0.17843144 0.77100003 11839330
-0.05668667 0.1788943 0.77300006 12957811
-0.055285718 0.17912573 0.77400005 12629132
-0.053811431 0.17912573 0.77400005 11708030
-0.052337144 0.17912573 0.77400005 11381355
-0.050994288 0.17958857 0.77600002 11973492
-0.04951619 0.17958857 0.77600002 11774577
-0.048161909 0.18005145 0.77800006 9932373
-0.046800002 0.18051429 0.78000003 9010006
-0.045314286 0.18051429 0.78000003 8681041
-0.043884765 0.18074572 0.78100002 8485459
-0.042505719 0.18120858 0.78300005 8617045
-0.04111905 0.18167143 0.78500003 9668159
-0.039724763 0.1821343 0.78700006 12497258
-0.038322859 0.18259715 0.78900003 11644549
-0.036820002 0.18259715 0.78900003 11776135
-0.035451431 0.18329144 0.79200006 13552794
-0.03394286 0.18329144 0.79200006 16710858
-0.032434288 0.18329144 0.79200006 16645076
-0.11018001 0.18363334 0.78700006 16446412
-0.10840476 0.18316668 0.78500003 16512205
-0.10690953 0.18316668 0.78500003 15261854
-0.10541429 0.18316668 0.78500003 11248481
-0.10365429 0.18270001 0.78300005 11052401
-0.1019019 0.18223333 0.78100002 9078611
-0.10028572 0.18200001 0.78000003 8550959
-0.098293334 0.18106668 0.77600002 8616752
-0.096815243 0.18106668 0.77600002 10126143
-0.095091432 0.1806 0.77400005 12757863
-0.093617149 0.1806 0.77400005 12300182
-0.092023812 0.18036668 0.77300006 9076325
-0.090551436 0.18036668 0.77300006 8683301
-0.089079052 0.18036668 0.77300006 9341231
-0.087379999 0.17990001 0.77100003 11837804
-0.08591143 0.17990001 0.77100003 12824699
-0.084442854 0.17990001 0.77100003 12300169
-0.082759053 0.17943335 0.76900005 10129000
-0.081294291 0.17943335 0.76900005 10392629
-0.079621911 0.17896667 0.76700002 11774282
-0.078160949 0.17896667 0.76700002 12694655
-0.076700002 0.17896667 0.76700002 12102518
-0.075239047 0.17896667 0.76700002 10722934
-0.0737781 0.17896667 0.76700002 9209695
-0.072317138 0.17896667 0.76700002 7499570
-0.070856191 0.17896667 0.76700002 7565363
-0.069395244 0.17896667 0.76700002 8878913
-0.06793429 0.17896667 0.76700002 11247461
-0.066473335 0.17896667 0.76700002 11838343
-0.06501238 0.17896667 0.76700002 12298894
-0.063717149 0.17943335 0.76900005 11446648
-0.062252384 0.17943335 0.76900005 6906931
-0.060787622 0.17943335 0.76900005 7171842
-0.059477147 0.17990001 0.77100003 7698186
-0.05800857 0.17990001 0.77100003 10652730
-0.05668667 0.18036668 0.77300006 12297555
-0.055285718 0.1806 0.77400005 13285765
-0.053811431 0.1806 0.77400005 12956800
-0.052472383 0.18106668 0.77600002 11775093
-0.051125716 0.18153335 0.77800006 11906679
-0.049643811 0.18153335 0.77800006 11905393
-0.048285715 0.18200001 0.78000003 8681536
-0.046800002 0.18200001 0.78000003 8549428
-0.045314286 0.18200001 0.78000003 8681014
-0.043828573 0.18200001 0.78000003 8288325
-0.042505719 0.18270001 0.78300005 8683083
-0.04111905 0.18316668 0.78500003 9010999
-0.039825715 0.1841 0.78900003 12103270
-0.038371429 0.18433334 0.79000002 11250525
-0.036960002 0.1848 0.79200006 11908455
-0.035451431 0.1848 0.79200006 13683601
-0.03394286 0.1848 0.79200006 16776386
-0.032434288 0.1848 0.79200006 16645074
-0.11018001 0.18513238 0.78700006 16446412
-0.10868096 0.18513238 0.78700006 16512205
-0.10690953 0.18466191 0.78500003 15526057
-0.10541429 0.18466191 0.78500003 10788961
-0.10418382 0.18513238 0.78700006 10658908
-0.10216286 0.18419144 0.78300005 9145669
-0.10041429 0.18372095 0.78100002 8617538
-0.098293334 0.18254477 0.77600002 8551745
-0.096815243 0.18254477 0.77600002 9272410
-0.095091432 0.18207429 0.77400005 10456684
-0.093617149 0.18207429 0.77400005 11114612
-0.092142865 0.18207429 0.77400005 11904128
-0.090551436 0.18183906 0.77300006 11971695
-0.089079052 0.18183906 0.77300006 12498039
-0.087606676 0.18183906 0.77300006 11971445
-0.08591143 0.18136857 0.77100003 11708273
-0.084442854 0.18136857 0.77100003 10722673
-0.082759053 0.1808981 0.76900005 8946262
-0.081294291 0.1808981 0.76900005 8816695
-0.079829529 0.1808981 0.76900005 9672004
-0.078364767 0.1808981 0.76900005 10919282
-0.076900005 0.1808981 0.76900005 11971970
-0.075435244 0.1808981 0.76900005 11313790
-0.0737781 0.18042763 0.76700002 10984825
-0.072317138 0.18042763 0.76700002 9538418
-0.071040951 0.1808981 0.76900005 8814695
-0.069576196 0.1808981 0.76900005 9602421
-0.068111435 0.1808981 0.76900005 11970969
-0.066473335 0.18042763 0.76700002 11707529
-0.06501238 0.18042763 0.76700002 10260083
-0.063717149 0.1808981 0.76900005 7962683
-0.062252384 0.1808981 0.76900005 5988893
-0.060945716 0.18136857 0.77100003 5728838
-0.059477147 0.18136857 0.77100003 5992010
-0.058159053 0.18183906 0.77300006 7960355
-0.05668667 0.18183906 0.77300006 9078836
-0.055285718 0.18207429 0.77400005 11181891
-0.053950477 0.18254477 0.77600002 13221474
-0.052472383 0.18254477 0.77600002 12695911
-0.051125716 0.18301526 0.77800006 11380051
-0.049643811 0.18301526 0.77800006 10326859
-0.048285715 0.18348572 0.78000003 8550448
-0.046800002 0.18348572 0.78000003 8550970
-0.045314286 0.18348572 0.78000003 8682556
-0.043828573 0.18348572 0.78000003 8289093
-0.042505719 0.18419144 0.78300005 8420679
-0.04111905 0.18466191 0.78500003 9734224
-0.039825715 0.18560286 0.78900003 13221253
-0.038371429 0.1858381 0.79000002 13222755
-0.036960002 0.18630858 0.79200006 13025376
-0.035451431 0.18630858 0.79200006 14012818
-0.03394286 0.18630858 0.79200006 16777152
-0.032434288 0.18630858 0.79200006 16645326
-0.11018001 0.18663144 0.78700006 16513488
-0.10868096 0.18663144 0.78700006 16710867
-0.10718191 0.18663144 0.78700006 15855803
-0.10568286 0.18663144 0.78700006 10987121
-0.10418382 0.18663144 0.78700006 10986095
-0.10242382 0.18615715 0.78500003 9341270
-0.10041429 0.18520857 0.78100002 8749124
-0.098293334 0.18402286 0.77600002 8617538
-0.096815243 0.18402286 0.77600002 8615761
-0.095091432 0.18354858 0.77400005 9142105
-0.093617149 0.18354858 0.77400005 10850645
-0.092142865 0.18354858 0.77400005 12561263
-0.090551436 0.18331145 0.77300006 13022600
-0.089079052 0.18331145 0.77300006 12956807
-0.087606676 0.18331145 0.77300006 11578243
-0.086134292 0.18331145 0.77300006 10393969
-0.084442854 0.18283714 0.77100003 9279072
-0.082974285 0.18283714 0.77100003 8423763
-0.081505716 0.18283714 0.77100003 8095287
-0.079829529 0.18236287 0.76900005 8555838
-0.078364767 0.18236287 0.76900005 9801816
-0.076900005 0.18236287 0.76900005 10920297
-0.075435244 0.18236287 0.76900005 12233586
-0.073970482 0.18236287 0.76900005 12036207
-0.07250572 0.18236287 0.76900005 11117692
-0.071040951 0.18236287 0.76900005 10788727
-0.069576196 0.18236287 0.76900005 10853496
-0.068111435 0.18236287 0.76900005 11643012
-0.066473335 0.18188857 0.76700002 11314057
-0.06501238 0.18188857 0.76700002 8353372
-0.063717149 0.18236287 0.76900005 6123793
-0.062414289 0.18283714 0.77100003 5860621
-0.060945716 0.18283714 0.77100003 5336639
-0.059631433 0.18331145 0.77300006 5205053
-0.058159053 0.18331145 0.77300006 5795875
-0.05668667 0.18331145 0.77300006 5664289
-0.055285718 0.18354858 0.77400005 8946704
-0.053950477 0.18402286 0.77600002 12960077
-0.052472383 0.18402286 0.77600002 12630420
-0.051125716 0.18449716 0.77800006 11051388
-0.049643811 0.18449716 0.77800006 8749367
-0.048285715 0.18497142 0.78000003 8223023
-0.046800002 0.18497142 0.78000003 8551238
-0.045314286 0.18497142 0.78000003 8617031
-0.043884765 0.18520857 0.78100002 8420940
-0.042614289 0.18615715 0.78500003 8552526
-0.041223813 0.18663144 0.78700006 10588250
-0.039825715 0.18710573 0.78900003 13483142
-0.038371429 0.18734287 0.79000002 13682038
-0.036960002 0.18781714 0.79200006 13945210
-0.035451431 0.18781714 0.79200006 14472606
-0.03394286 0.18781714 0.79200006 16776389
-0.032434288 0.18781714 0.79200006 16645065
-0.11046 0.18860857 0.78900003 16580037
-0.10895715 0.18860857 0.78900003 16777161
-0.10690953 0.18765238 0.78500003 16381382
-0.10541429 0.18765238 0.78500003 13354904
-0.10418382 0.1881305 0.78700006 11972507
-0.10268477 0.1881305 0.78700006 10261889
-0.10067143 0.18717431 0.78300005 8748883
-0.098800004 0.18645716 0.78000003 8748883
-0.097064771 0.18597905 0.77800006 8682589
-0.095337145 0.18550095 0.77600002 8353624
-0.093617149 0.18502288 0.77400005 9141326
-0.092142865 0.18502288 0.77400005 11773046
-0.090668574 0.18502288 0.77400005 12299649
-0.089079052 0.18478382 0.77300006 11904891
-0.087606676 0.18478382 0.77300006 10460285
-0.086134292 0.18478382 0.77300006 8552288
-0.084661908 0.18478382 0.77300006 8490315
-0.082974285 0.18430573 0.77100003 8621901
-0.081505716 0.18430573 0.77100003 8358731
-0.080037147 0.18430573 0.77100003 8424524
-0.07856857 0.18430573 0.77100003 8948556
-0.077100001 0.18430573 0.77100003 9014349
-0.075631432 0.18430573 0.77100003 10656330
-0.074162856 0.18430573 0.77100003 11972190
-0.072694287 0.18430573 0.77100003 11905659
-0.071225718 0.18430573 0.77100003 12168831
-0.069757141 0.18430573 0.77100003 11906931
-0.068288572 0.18430573 0.77100003 9801555
-0.066646673 0.18382762 0.76900005 7566170
-0.065181904 0.18382762 0.76900005 6645068
-0.063882858 0.18430573 0.77100003 5664539
-0.062414289 0.18430573 0.77100003 5993504
-0.061103813 0.18478382 0.77300006 5467972
-0.059631433 0.18478382 0.77300006 5402179
-0.058159053 0.18478382 0.77300006 5927486
-0.056760002 0.18502288 0.77400005 5598521
-0.055285718 0.18502288 0.77400005 6581559
-0.053950477 0.18550095 0.77600002 10463346
-0.052607622 0.18597905 0.77800006 11512954
-0.051125716 0.18597905 0.77800006 9933922
-0.049643811 0.18597905 0.77800006 8156989
-0.048285715 0.18645716 0.78000003 7762231
-0.046800002 0.18645716 0.78000003 8420168
-0.045372382 0.18669619 0.78100002 8354375
-0.043884765 0.18669619 0.78100002 8813640
-0.042722862 0.1881305 0.78700006 10655844
-0.041223813 0.1881305 0.78700006 11246711
-0.039876193 0.18884763 0.79000002 12825743
-0.038371429 0.18884763 0.79000002 12629107
-0.036960002 0.18932572 0.79200006 14537104
-0.035451431 0.18932572 0.79200006 14932653
-0.034028571 0.18980381 0.79400003 16776399
-0.032680001 0.19076 0.79800004 16645828
-0.031160003 0.19076 0.79800004 16777159
-0.10895715 0.19011143 0.78900003 16776912
-0.10690953 0.18914762 0.78500003 16644565
-0.10541429 0.18914762 0.78500003 13618087
-0.10418382 0.18962952 0.78700006 13483930
-0.10268477 0.18962952 0.78700006 10918003
-0.10092857 0.18914762 0.78500003 9865558
-0.098926663 0.18818381 0.78100002 9141835
-0.097314283 0.18794286 0.78000003 8814428
-0.095582865 0.18746096 0.77800006 8419670
-0.093859047 0.18697906 0.77600002 8813883
-0.092380948 0.18697906 0.77600002 11314017
-0.090668574 0.18649715 0.77400005 11840904
-0.08919429 0.18649715 0.77400005 11248767
-0.087719999 0.18649715 0.77400005 9541222
-0.086134292 0.1862562 0.77300006 8751706
-0.084661908 0.1862562 0.77300006 8621651
-0.083189532 0.1862562 0.77300006 8621651
-0.081505716 0.18577428 0.77100003 8490063
-0.080037147 0.18577428 0.77100003 8358477
-0.07856857 0.18577428 0.77100003 8292427
-0.077100001 0.18577428 0.77100003 8292427
-0.075631432 0.18577428 0.77100003 9210681
-0.074162856 0.18577428 0.77100003 10921299
-0.072694287 0.18577428 0.77100003 11970421
-0.071225718 0.18577428 0.77100003 12628351
-0.069757141 0.18577428 0.77100003 11972994
-0.068288572 0.18577428 0.77100003 7170105
-0.066820003 0.18577428 0.77100003 6515001
-0.065351434 0.18577428 0.77100003 5857071
-0.063882858 0.18577428 0.77100003 5072418
-0.06257619 0.1862562 0.77300006 5532969
-0.061103813 0.1862562 0.77300006 5598271
-0.059631433 0.1862562 0.77300006 5400892
-0.058234289 0.18649715 0.77400005 5400885
-0.056760002 0.18649715 0.77400005 5071920
-0.055428572 0.18697906 0.77600002 5072643
-0.053950477 0.18697906 0.77600002 9809739
-0.052607622 0.18746096 0.77800006 10857351
-0.051257145 0.18794286 0.78000003 9673077
-0.049771432 0.18794286 0.78000003 8025894
-0.048285715 0.18794286 0.78000003 8289066
-0.046860002 0.18818381 0.78100002 8420172
-0.045372382 0.18818381 0.78100002 8222793
-0.043997146 0.18866573 0.78300005 8551234
-0.042722862 0.18962952 0.78700006 11709298
-0.041328572 0.19011143 0.78900003 11577994
-0.039876193 0.1903524 0.79000002 10854271
-0.038468573 0.19083428 0.79200006 11445058
-0.037053335 0.19131619 0.79400003 14997880
-0.035630479 0.19179811 0.79600006 15262133
-0.03411429 0.19179811 0.79600006 16776400
-0.032680001 0.19228001 0.79800004 16579526
-0.031160003 0.19228001 0.79800004 16645319
-0.10718191 0.19112858 0.78700006 16446412
-0.10568286 0.19112858 0.78700006 14867380
-0.10418382 0.19112858 0.78700006 13353107
-0.10268477 0.19112858 0.78700006 11642489
-0.10092857 0.19064286 0.78500003 10196087
-0.099180005 0.19015715 0.78300005 8946020
-0.097314283 0.18942858 0.78000003 8485723
-0.09582857 0.18942858 0.78000003 7893586
-0.09410096 0.18894286 0.77800006 8616513
-0.092380948 0.18845715 0.77600002 10919268
-0.090668574 0.18797144 0.77400005 11644518
-0.08919429 0.18797144 0.77400005 10591830
-0.087719999 0.18797144 0.77400005 9278302
-0.086245723 0.18797144 0.77400005 8817751
-0.084661908 0.18772858 0.77300006 8687446
-0.083189532 0.18772858 0.77300006 8621653
-0.081717148 0.18772858 0.77300006 8424020
-0.080244765 0.18772858 0.77300006 8424020
-0.078772388 0.18772858 0.77300006 8358229
-0.077300005 0.18772858 0.77300006 8424022
-0.075827621 0.18772858 0.77300006 8948306
-0.074355245 0.18772858 0.77300006 9869408
-0.072694287 0.18724287 0.77100003 11773278
-0.071225718 0.18724287 0.77100003 12497001
-0.069938101 0.18772858 0.77300006 11643986
-0.068465717 0.18772858 0.77300006 6314753
-0.066820003 0.18724287 0.77100003 5071676
-0.065351434 0.18724287 0.77100003 5071676
-0.064048581 0.18772858 0.77300006 5006655
-0.06257619 0.18772858 0.77300006 5467206
-0.06118286 0.18797144 0.77400005 5467206
-0.059708573 0.18797144 0.77400005 5335620
-0.058234289 0.18797144 0.77400005 5007672
-0.05690667 0.18845715 0.77600002 4547121
-0.055571433 0.18894286 0.77800006 6123307
-0.054089524 0.18894286 0.77800006 10202473
-0.052607622 0.18894286 0.77800006 11316095
-0.051257145 0.18942858 0.78000003 10658165
-0.049771432 0.18942858 0.78000003 8420942
-0.048347618 0.18967143 0.78100002 8026184
-0.046860002 0.18967143 0.78100002 8157268
-0.045372382 0.18967143 0.78100002 8157268
-0.043997146 0.19015715 0.78300005 9668172
-0.042614289 0.19064286 0.78500003 12892029
-0.041328572 0.19161429 0.78900003 11315321
-0.039876193 0.19185716 0.79000002 8091464
-0.038468573 0.19234286 0.79200006 10065497
-0.037053335 0.19282857 0.79400003 14605214
-0.035630479 0.1933143 0.79600006 15196336
-0.03411429 0.1933143 0.79600006 16776910
-0.032598101 0.1933143 0.79600006 16645578
-0.10595144 0.19311716 0.78900003 14867123
-0.10444857 0.19311716 0.78900003 13682574
-0.10268477 0.19262764 0.78700006 11708784
-0.10067143 0.19164859 0.78300005 11052149
-0.099180005 0.19164859 0.78300005 8815187
-0.097439051 0.19115905 0.78100002 8485445
-0.09582857 0.19091429 0.78000003 8288066
-0.094342858 0.19091429 0.78000003 8550450
-0.092619054 0.19042477 0.77800006 12037479
-0.090902865 0.18993524 0.77600002 11579267
-0.08919429 0.18944572 0.77400005 11118716
-0.087719999 0.18944572 0.77400005 8950616
-0.086245723 0.18944572 0.77400005 8555858
-0.084661908 0.18920097 0.77300006 8358479
-0.083189532 0.18920097 0.77300006 8555858
-0.081717148 0.18920097 0.77300006 8489552
-0.080244765 0.18920097 0.77300006 8555345
-0.078772388 0.18920097 0.77300006 8424022
-0.077300005 0.18920097 0.77300006 8292436
-0.075827621 0.18920097 0.77300006 8423509
-0.074355245 0.18920097 0.77300006 9015646
-0.072882861 0.18920097 0.77300006 10656087
-0.071410477 0.18920097 0.77300006 12169326
-0.069938101 0.18920097 0.77300006 9869658
-0.068465717 0.18920097 0.77300006 5987871
-0.066993333 0.18920097 0.77300006 4416046
-0.065520957 0.18920097 0.77300006 4876597
-0.064048581 0.18920097 0.77300006 4810034
-0.06257619 0.18920097 0.77300006 5270585
-0.06118286 0.18944572 0.77400005 5270595
-0.059708573 0.18944572 0.77400005 5139009
-0.058384761 0.18993524 0.77600002 4811063
-0.05690667 0.18993524 0.77600002 4416305
-0.055571433 0.19042477 0.77800006 7305514
-0.054089524 0.19042477 0.77800006 11121508
-0.052742857 0.19091429 0.78000003 11841408
-0.051257145 0.19091429 0.78000003 11446650
-0.049771432 0.19091429 0.78000003 10394482
-0.048347618 0.19115905 0.78100002 8223313
-0.046860002 0.19115905 0.78100002 7894046
-0.045372382 0.19115905 0.78100002 8486183
-0.043997146 0.19164859 0.78300005 10456412
-0.042614289 0.19213811 0.78500003 12495995
-0.041328572 0.19311716 0.78900003 11184239
-0.039977144 0.19385144 0.79200006 7631417
-0.038565718 0.19434096 0.79400003 8883017
-0.037146669 0.19483049 0.79600006 14080664
-0.035720002 0.19532001 0.79800004 15261356
-0.034199998 0.19532001 0.79800004 16775880
-0.032680001 0.19532001 0.79800004 16578763
-0.10444857 0.19462001 0.78900003 13355140
-0.10268477 0.19412668 0.78700006 11447143
-0.10067143 0.19314002 0.78300005 10987630
-0.099180005 0.19314002 0.78300005 9474391
-0.097439051 0.19264667 0.78100002 8748883
-0.09582857 0.19240001 0.78000003 8683090
-0.094342858 0.19240001 0.78000003 9339235
-0.092619054 0.19190668 0.77800006 12168334
-0.090902865 0.19141334 0.77600002 11972483
-0.089424767 0.19141334 0.77600002 11775104
-0.087719999 0.19092001 0.77400005 9936230
-0.086245723 0.19092001 0.77400005 8883542
-0.084771432 0.19092001 0.77400005 8358738
-0.083297148 0.19092001 0.77400005 8621910
-0.081822865 0.19092001 0.77400005 8424533
-0.080244765 0.19067335 0.77300006 8292947
-0.078772388 0.19067335 0.77300006 8292693
-0.077300005 0.19067335 0.77300006 8226900
-0.075827621 0.19067335 0.77300006 8423513
-0.074355245 0.19067335 0.77300006 9081443
-0.072882861 0.19067335 0.77300006 10788184
-0.071410477 0.19067335 0.77300006 12564595
-0.069938101 0.19067335 0.77300006 11382361
-0.068465717 0.19067335 0.77300006 6711058
-0.066993333 0.19067335 0.77300006 5205292
-0.065520957 0.19067335 0.77300006 5534257
-0.064131431 0.19092001 0.77400005 5072945
-0.06265714 0.19092001 0.77400005 5138738
-0.06118286 0.19092001 0.77400005 5401411
-0.059708573 0.19092001 0.77400005 5138239
-0.058384761 0.19141334 0.77600002 5204533
-0.05690667 0.19141334 0.77600002 7375702
-0.055571433 0.19190668 0.77800006 9737052
-0.054228574 0.19240001 0.78000003 12697737
-0.052742857 0.19240001 0.78000003 12761715
-0.051322855 0.19264667 0.78100002 12893301
-0.049835239 0.19264667 0.78100002 11774610
-0.048347618 0.19264667 0.78100002 11050887
-0.046980001 0.19314002 0.78300005 10000199
-0.045488574 0.19314002 0.78300005 9802820
-0.044109527 0.19363333 0.78500003 10261380
-0.042722862 0.19412668 0.78700006 11511447
-0.041328572 0.19462001 0.78900003 9870412
-0.039977144 0.19536002 0.79200006 7172899
-0.038565718 0.19585334 0.79400003 8160328
-0.037146669 0.19634669 0.79600006 13489561
-0.035809524 0.19733332 0.80000001 15261870
-0.034285713 0.19733332 0.80000001 16776137
-0.032761905 0.19733332 0.80000001 16645074
-0.10484572 0.19686858 0.79200006 13093008
-0.10294572 0.19612287 0.78900003 10987632
-0.10092857 0.19512857 0.78500003 11316593
-0.099180005 0.19463143 0.78300005 9605975
-0.097439051 0.19413428 0.78100002 9602888
-0.09582857 0.19388571 0.78000003 9668681
-0.094342858 0.19388571 0.78000003 11115096
-0.092857152 0.19388571 0.78000003 12628335
-0.091137148 0.19338858 0.77800006 12365962
-0.089424767 0.19289143 0.77600002 11905411
-0.087946668 0.19289143 0.77600002 10463094
-0.086245723 0.19239429 0.77400005 9739371
-0.084771432 0.19239429 0.77400005 7769189
-0.083297148 0.19239429 0.77400005 7769189
-0.081822865 0.19239429 0.77400005 8031574
-0.080244765 0.19214574 0.77300006 7899988
-0.078772388 0.19214574 0.77300006 7899988
-0.077300005 0.19214574 0.77300006 7768402
-0.075827621 0.19214574 0.77300006 8292427
-0.074355245 0.19214574 0.77300006 9542494
-0.072882861 0.19214574 0.77300006 11050852
-0.071410477 0.19214574 0.77300006 12235126
-0.069938101 0.19214574 0.77300006 11447157
-0.068465717 0.19214574 0.77300006 7828542
-0.066993333 0.19214574 0.77300006 6188358
-0.065605715 0.19239429 0.77400005 5925186
-0.064131431 0.19239429 0.77400005 4679459
-0.06265714 0.19239429 0.77400005 4942631
-0.06118286 0.19239429 0.77400005 5138738
-0.059708573 0.19239429 0.77400005 5007152
-0.058384761 0.19289143 0.77600002 5532471
-0.05690667 0.19289143 0.77600002 8887914
-0.055571433 0.19338858 0.77800006 11117694
-0.054228574 0.19388571 0.78000003 11907210
-0.052742857 0.19388571 0.78000003 12299631
-0.051322855 0.19413428 0.78100002 12365424
-0.049835239 0.19413428 0.78100002 12431483
-0.048471432 0.19463143 0.78300005 12168311
-0.046980001 0.19463143 0.78300005 11577964
-0.045604762 0.19512857 0.78500003 11775343
-0.044221908 0.19562572 0.78700006 11513479
-0.042722862 0.19562572 0.78700006 9079138
-0.041328572 0.19612287 0.78900003 8095273
-0.039977144 0.19686858 0.79200006 7239964
-0.038565718 0.19736572 0.79400003 7568965
-0.037240002 0.19836001 0.79800004 13819300
-0.035809524 0.19885714 0.80000001 15196847
-0.034285713 0.19885714 0.80000001 16776393
-0.03284381 0.19935429 0.80200005 16579281
-0.10511048 0.19887809 0.79400003 13750432
-0.10294572 0.19762571 0.78900003 10526575
-0.10118572 0.19712478 0.78700006 10790249
-0.099180005 0.19612287 0.78300005 10987628
-0.097439051 0.19562191 0.78100002 11708784
-0.09595143 0.19562191 0.78100002 12300921
-0.094342858 0.19537143 0.78000003 12431985
-0.092857152 0.19537143 0.78000003 12497778
-0.091371432 0.19537143 0.78000003 11445624
-0.089424767 0.19436954 0.77600002 10327143
-0.087946668 0.19436954 0.77600002 10263153
-0.08646857 0.19436954 0.77600002 11184255
-0.084771432 0.19386858 0.77400005 9147253
-0.083297148 0.19386858 0.77400005 8291944
-0.081822865 0.19386858 0.77400005 8096597
-0.080244765 0.1936181 0.77300006 7636046
-0.078772388 0.1936181 0.77300006 7963478
-0.077300005 0.1936181 0.77300006 8226650
-0.075827621 0.1936181 0.77300006 9210706
-0.074355245 0.1936181 0.77300006 11316082
-0.072882861 0.1936181 0.77300006 11773553
-0.071410477 0.1936181 0.77300006 12168311
-0.069938101 0.1936181 0.77300006 11578214
-0.068465717 0.1936181 0.77300006 10788698
-0.067080006 0.19386858 0.77400005 8686211
-0.065605715 0.19386858 0.77400005 7304558
-0.064131431 0.19386858 0.77400005 5205053
-0.06265714 0.19386858 0.77400005 5139260
-0.06118286 0.19386858 0.77400005 5270326
-0.05986286 0.19436954 0.77600002 6059842
-0.058384761 0.19436954 0.77600002 8290670
-0.057053339 0.19487049 0.77800006 11843492
-0.055714291 0.19537143 0.78000003 11840893
-0.054228574 0.19537143 0.78000003 10590826
-0.052810475 0.19562191 0.78100002 10656848
-0.051322855 0.19562191 0.78100002 10656848
-0.04996286 0.19612287 0.78300005 11313488
-0.048471432 0.19612287 0.78300005 13089899
-0.0471 0.1966238 0.78500003 12760441
-0.045604762 0.1966238 0.78500003 12957820
-0.044221908 0.19712478 0.78700006 11381625
-0.042831432 0.19762571 0.78900003 7499838
-0.041328572 0.19762571 0.78900003 6257469
-0.040078096 0.19887809 0.79400003 6323262
-0.038662862 0.19937907 0.79600006 8357214
-0.037240002 0.19988 0.79800004 14541756
-0.035899047 0.20088191 0.80200005 15591346
-0.034371432 0.20088191 0.80200005 16776905
-0.03284381 0.20088191 0.80200005 16579281
-0.031355239 0.20113239 0.80300003 16184523
-0.10484572 0.19988573 0.79200006 13488289
-0.10294572 0.19912858 0.78900003 10001260
-0.10118572 0.19862384 0.78700006 10198609
-0.09943334 0.19811906 0.78500003 11317090
-0.097688578 0.1976143 0.78300005 12036734
-0.09595143 0.19710954 0.78100002 12826250
-0.09446381 0.19710954 0.78100002 12892808
-0.092857152 0.19685715 0.78000003 11182190
-0.091371432 0.19685715 0.78000003 9999200
-0.089655243 0.19635239 0.77800006 9604442
-0.087946668 0.19584762 0.77600002 9999184
-0.08646857 0.19584762 0.77600002 10920286
-0.084771432 0.19534287 0.77400005 10657645
-0.083297148 0.19534287 0.77400005 9341785
-0.081822865 0.19534287 0.77400005 8293199
-0.080348574 0.19534287 0.77400005 7832648
-0.07887429 0.19534287 0.77400005 8159817
-0.077400006 0.19534287 0.77400005 8751954
-0.075925723 0.19534287 0.77400005 10656110
-0.074451432 0.19534287 0.77400005 11643005
-0.072977148 0.19534287 0.77400005 11707510
-0.071502857 0.19534287 0.77400005 11115373
-0.070028573 0.19534287 0.77400005 11050064
-0.06855429 0.19534287 0.77400005 11773787
-0.067080006 0.19534287 0.77400005 11052933
-0.065605715 0.19534287 0.77400005 9671280
-0.064131431 0.19534287 0.77400005 6323532
-0.06265714 0.19534287 0.77400005 4876086
-0.061340958 0.19584762 0.77600002 5402380
-0.05986286 0.19584762 0.77600002 7047205
-0.058535244 0.19635239 0.77800006 10853237
-0.057053339 0.19635239 0.77800006 12300683
-0.055714291 0.19685715 0.78000003 11840643
-0.054228574 0.19685715 0.78000003 9801060
-0.052810475 0.19710954 0.78100002 9343568
-0.051322855 0.19710954 0.78100002 9211982
-0.04996286 0.1976143 0.78300005 10524740
-0.048471432 0.1976143 0.78300005 12103772
-0.0471 0.19811906 0.78500003 12891516
-0.045720957 0.19862384 0.78700006 13023102
-0.044221908 0.19862384 0.78700006 11184248
-0.042831432 0.19912858 0.78900003 7170875
-0.041328572 0.19912858 0.78900003 5666340
-0.040078096 0.20039047 0.79400003 6324270
-0.038662862 0.20089525 0.79600006 8883292
-0.037426669 0.20240954 0.80200005 14870455
-0.035899047 0.20240954 0.80200005 15985329
-0.034414288 0.20266192 0.80300003 16775873
-0.032884765 0.20266192 0.80300003 16579029
-0.031355239 0.20266192 0.80300003 16513236
-0.029825715 0.20266192 0.80300003 16579281
-0.10786286 0.2013943 0.79200006 16446403
-0.10635429 0.2013943 0.79200006 16051645
-0.10484572 0.2013943 0.79200006 14539419
-0.10307619 0.20088571 0.79000002 10262874
-0.10144287 0.20063144 0.78900003 9935969
-0.099686667 0.20012286 0.78700006 10988657
-0.097688578 0.19910572 0.78300005 11970943
-0.09595143 0.19859715 0.78100002 12892045
-0.09446381 0.19859715 0.78100002 12105073
-0.092857152 0.19834286 0.78000003 7894321
-0.091371432 0.19834286 0.78000003 6253625
-0.089655243 0.1978343 0.77800006 6056246
-0.087946668 0.19732571 0.77600002 7761979
-0.08646857 0.19732571 0.77600002 10656871
-0.084990479 0.19732571 0.77600002 10920272
-0.083512381 0.19732571 0.77600002 10788686
-0.081822865 0.19681716 0.77400005 9146975
-0.080348574 0.19681716 0.77400005 8883803
-0.07887429 0.19681716 0.77400005 9802593
-0.077400006 0.19681716 0.77400005 11315832
-0.075925723 0.19681716 0.77400005 11839355
-0.074451432 0.19681716 0.77400005 11313011
-0.072977148 0.19681716 0.77400005 9799522
-0.071502857 0.19681716 0.77400005 8220490
-0.070028573 0.19681716 0.77400005 8879163
-0.06855429 0.19681716 0.77400005 11510883
-0.067080006 0.19681716 0.77400005 11380585
-0.065605715 0.19681716 0.77400005 11775343
-0.064131431 0.19681716 0.77400005 9870444
-0.06265714 0.19681716 0.77400005 8094033
-0.061340958 0.19732571 0.77600002 8621156
-0.05986286 0.19732571 0.77600002 11252876
-0.058535244 0.1978343 0.77800006 11447148
-0.0572 0.19834286 0.78000003 11118183
-0.055714291 0.19834286 0.78000003 10527072
-0.054298095 0.19859715 0.78100002 9540177
-0.052810475 0.19859715 0.78100002 8949603
-0.051322855 0.19859715 0.78100002 8818017
-0.04996286 0.19910572 0.78300005 9539925
-0.048471432 0.19910572 0.78300005 10132062
-0.0471 0.19961429 0.78500003 11774296
-0.045720957 0.20012286 0.78700006 12300640
-0.044334289 0.20063144 0.78900003 10725735
-0.042831432 0.20063144 0.78900003 6383397
-0.041380953 0.20088571 0.79000002 5601100
-0.040078096 0.20190285 0.79400003 6456409
-0.038662862 0.20241144 0.79600006 9409888
-0.037426669 0.20393716 0.80200005 15002293
-0.03594381 0.20419145 0.80300003 16446123
-0.034414288 0.20419145 0.80300003 16643502
-0.032884765 0.20419145 0.80300003 16513241
-0.031433333 0.20470001 0.80500007 16513241
-0.10786286 0.20290287 0.79200006 16512711
-0.10635429 0.20290287 0.79200006 16446918
-0.10484572 0.20290287 0.79200006 14474409
-0.10307619 0.20239048 0.79000002 10461036
-0.10157143 0.20239048 0.79000002 9476699
-0.099686667 0.20162192 0.78700006 10397801
-0.097938098 0.20110953 0.78500003 11970941
-0.096197143 0.20059715 0.78300005 12234113
-0.09446381 0.20008476 0.78100002 10592368
-0.09297619 0.20008476 0.78100002 6644788
-0.091371432 0.19982858 0.78000003 4876838
-0.089885719 0.19982858 0.78000003 5008424
-0.088173337 0.1993162 0.77800006 7105807
-0.08646857 0.19880381 0.77600002 9145390
-0.084990479 0.19880381 0.77600002 11576419
-0.083512381 0.19880381 0.77600002 11576419
-0.08203429 0.19880381 0.77600002 10132069
-0.080348574 0.19829144 0.77400005 9868897
-0.07887429 0.19829144 0.77400005 10590835
-0.077400006 0.19829144 0.77400005 11775109
-0.075925723 0.19829144 0.77400005 12036486
-0.074451432 0.19829144 0.77400005 10457454
-0.072977148 0.19829144 0.77400005 9012055
-0.071502857 0.19829144 0.77400005 7104058
-0.070028573 0.19829144 0.77400005 7825925
-0.06855429 0.19829144 0.77400005 10391852
-0.067080006 0.19829144 0.77400005 11246680
-0.065605715 0.19829144 0.77400005 11904610
-0.06429714 0.19880381 0.77600002 11512702
-0.062819049 0.19880381 0.77600002 10328428
-0.061340958 0.19880381 0.77600002 9670750
-0.05986286 0.19880381 0.77600002 11907712
-0.058535244 0.1993162 0.77800006 11512950
-0.057053339 0.1993162 0.77800006 10197090
-0.055714291 0.19982858 0.78000003 9279590
-0.054228574 0.19982858 0.78000003 8950625
-0.052810475 0.20008476 0.78100002 8687966
-0.051322855 0.20008476 0.78100002 8753759
-0.049835239 0.20008476 0.78100002 8950096
-0.048471432 0.20059715 0.78300005 9213268
-0.0471 0.20110953 0.78500003 11053673
-0.045720957 0.20162192 0.78700006 11448431
-0.044334289 0.2021343 0.78900003 9345122
-0.042831432 0.2021343 0.78900003 6384437
-0.041380953 0.20239048 0.79000002 5863967
-0.039977144 0.20290287 0.79200006 7114034
-0.038662862 0.20392764 0.79600006 10328946
-0.037426669 0.20546477 0.80200005 15066042
-0.03594381 0.20572096 0.80300003 16511671
-0.034500003 0.20623334 0.80500007 16775357
-0.03296667 0.20623334 0.80500007 16447446
-0.031433333 0.20623334 0.80500007 16513239
-0.10786286 0.20441145 0.79200006 16446918
-0.10635429 0.20441145 0.79200006 16446918
-0.10484572 0.20441145 0.79200006 14999729
-0.10307619 0.20389524 0.79000002 11117942
-0.10157143 0.20389524 0.79000002 9476967
-0.099940002 0.20363715 0.78900003 9411174
-0.098187625 0.20312098 0.78700006 10855029
-0.096197143 0.20208858 0.78300005 11118201
-0.09446381 0.20157237 0.78100002 9738842
