# .PCD v0.7 - Point Cloud Data file format
VERSION 0.7
FIELDS x y z rgb
SIZE 4 4 4 4
TYPE F F F F
COUNT 1 1 1 1
WIDTH 1014
HEIGHT 1
VIEWPOINT 0 0 0 1 0 0 0
POINTS 1014
DATA ascii
-0.12550001 -0.18287145 1.2550001 1.9444534e-38
-0.12310953 -0.18287145 1.2550001 1.7880145e-38
-0.12071906 -0.18287145 1.2550001 1.7695754e-38
-0.11870572 -0.18345429 1.2590001 1.7418801e-38
-0.11676953 -0.18418287 1.2640001 1.7787584e-38
-0.1143619 -0.18418287 1.2640001 1.7880473e-38
-0.11230858 -0.18476571 1.268 1.7880473e-38
-0.11032667 -0.18549427 1.273 1.6957813e-38
-0.1079019 -0.18549427 1.273 1.6957813e-38
-0.10589144 -0.18622287 1.2780001 1.7049656e-38
-0.10345715 -0.18622287 1.2780001 1.695746e-38
-0.1014181 -0.18695144 1.2830001 1.6865981e-38
-0.098974295 -0.18695144 1.2830001 1.6958176e-38
-0.096530482 -0.18695144 1.2830001 1.6589041e-38
-0.094453342 -0.18768001 1.2880001 1.7050019e-38
-0.092000008 -0.18768001 1.2880001 1.6589041e-38
-0.089546673 -0.18768001 1.2880001 1.6404649e-38
-0.087093338 -0.18768001 1.2880001 1.6311386e-38
-0.084640011 -0.18768001 1.2880001 1.6772364e-38
-0.082186669 -0.18768001 1.2880001 1.6311738e-38
-0.079733342 -0.18768001 1.2880001 1.668052e-38
-0.077280007 -0.18768001 1.2880001 1.6497195e-38
-0.074536197 -0.18695144 1.2830001 1.6405e-38
-0.072092384 -0.18695144 1.2830001 1.6773419e-38
-0.069648571 -0.18695144 1.2830001 1.7510984e-38
-0.067204766 -0.18695144 1.2830001 1.8247846e-38
-0.064760961 -0.18695144 1.2830001 1.8247846e-38
-0.062317148 -0.18695144 1.2830001 1.8063818e-38
-0.059640005 -0.18622287 1.2780001 1.8616991e-38
-0.057205718 -0.18622287 1.2780001 1.8985761e-38
-0.054342858 -0.18476571 1.268 1.9631131e-38
-0.05176381 -0.18418287 1.2640001 1.9816228e-38
-0.049356192 -0.18418287 1.2640001 2.0277206e-38
-0.045760002 -0.17952001 1.2320001 1.9724408e-38
-0.04323715 -0.17879145 1.2270001 1.9724408e-38
-0.040900003 -0.17879145 1.2270001 1.8708851e-38
-0.03856286 -0.17879145 1.2270001 1.787909e-38
-0.036225718 -0.17879145 1.2270001 1.7971234e-38
-0.1282981 -0.1810562 1.2590001 2.1196273e-38
-0.12550001 -0.18048097 1.2550001 1.9813339e-38
-0.12310953 -0.18048097 1.2550001 1.9169792e-38
-0.12071906 -0.18048097 1.2550001 1.815564e-38
-0.11870572 -0.1810562 1.2590001 1.7326603e-38
-0.11630762 -0.1810562 1.2590001 1.7695385e-38
-0.1143619 -0.18177524 1.2640001 1.778864e-38
-0.11230858 -0.18235047 1.268 1.778864e-38
-0.11032667 -0.18306953 1.273 1.6865615e-38
-0.1079019 -0.18306953 1.273 1.7050006e-38
-0.10589144 -0.18378858 1.2780001 1.7142555e-38
-0.10345715 -0.18378858 1.2780001 1.7050359e-38
-0.1014181 -0.18450764 1.2830001 1.6866697e-38
-0.098974295 -0.18450764 1.2830001 1.6774501e-38
-0.096530482 -0.18450764 1.2830001 1.6219895e-38
-0.094453342 -0.18522668 1.2880001 1.6865265e-38
-0.092000008 -0.18522668 1.2880001 1.6957094e-38
-0.089546673 -0.18522668 1.2880001 1.6496116e-38
-0.087093338 -0.18522668 1.2880001 1.6127331e-38
-0.084640011 -0.18522668 1.2880001 1.6403918e-38
-0.082186669 -0.18522668 1.2880001 1.6220243e-38
-0.079733342 -0.18522668 1.2880001 1.649683e-38
-0.077280007 -0.18522668 1.2880001 1.5943656e-38
-0.074826673 -0.18522668 1.2880001 1.6589025e-38
-0.072373338 -0.18522668 1.2880001 1.6865968e-38
-0.069648571 -0.18450764 1.2830001 1.7511337e-38
-0.067204766 -0.18450764 1.2830001 1.8432215e-38
-0.064760961 -0.18450764 1.2830001 1.8340019e-38
-0.062074292 -0.18378858 1.2780001 1.7788297e-38
-0.059640005 -0.18378858 1.2780001 1.8618058e-38
-0.057205718 -0.18378858 1.2780001 1.9630405e-38
-0.054342858 -0.18235047 1.268 2.0091383e-38
-0.05176381 -0.18177524 1.2640001 2.0275787e-38
-0.047911432 -0.17645431 1.2270001 2.0275787e-38
-0.045574289 -0.17645431 1.2270001 1.9908446e-38
-0.04323715 -0.17645431 1.2270001 1.9539664e-38
-0.040900003 -0.17645431 1.2270001 1.8341474e-38
-0.03856286 -0.17645431 1.2270001 1.7696104e-38
-0.036225718 -0.17645431 1.2270001 1.7419129e-38
-0.1282981 -0.1786581 1.2590001 1.8892089e-38
-0.12550001 -0.17809048 1.2550001 1.9353067e-38
-0.12310953 -0.17809048 1.2550001 1.8985408e-38
-0.12071906 -0.17809048 1.2550001 1.9354191e-38
-0.11832858 -0.17809048 1.2550001 1.9263077e-38
-0.11630762 -0.1786581 1.2590001 1.9263077e-38
-0.11390953 -0.1786581 1.2590001 1.8987193e-38
-0.11230858 -0.17993525 1.268 1.9079389e-38
-0.11032667 -0.18064477 1.273 1.843402e-38
-0.10832573 -0.1813543 1.2780001 1.8526215e-38
-0.10589144 -0.1813543 1.2780001 1.8249256e-38
-0.10345715 -0.1813543 1.2780001 1.8341451e-38
-0.1014181 -0.18206383 1.2830001 1.7972679e-38
-0.098974295 -0.18206383 1.2830001 1.7788287e-38
-0.096906669 -0.18277335 1.2880001 1.7971626e-38
-0.094453342 -0.18277335 1.2880001 1.7971626e-38
-0.092000008 -0.18277335 1.2880001 1.7971597e-38
-0.089546673 -0.18277335 1.2880001 1.7787205e-38
-0.087093338 -0.18277335 1.2880001 1.7695366e-38
-0.084640011 -0.18277335 1.2880001 1.7971953e-38
-0.082186669 -0.18277335 1.2880001 1.7972663e-38
-0.079733342 -0.18277335 1.2880001 1.8986815e-38
-0.077280007 -0.18277335 1.2880001 1.8710234e-38
-0.074826673 -0.18277335 1.2880001 1.8710234e-38
-0.072373338 -0.18277335 1.2880001 1.8617332e-38
-0.069648571 -0.18206383 1.2830001 1.8986114e-38
-0.067204766 -0.18206383 1.2830001 1.9170496e-38
-0.064760961 -0.18206383 1.2830001 1.9262692e-38
-0.062074292 -0.1813543 1.2780001 1.9263417e-38
-0.059640005 -0.1813543 1.2780001 1.96322e-38
-0.054340959 -0.1722724 1.2140001 1.9355613e-38
-0.052028574 -0.1722724 1.2140001 1.96322e-38
-0.050084762 -0.17354953 1.223 1.8525875e-38
-0.047755238 -0.17354953 1.223 1.7327332e-38
-0.045425717 -0.17354953 1.223 1.6774867e-38
-0.043096192 -0.17354953 1.223 1.6037302e-38
-0.040766668 -0.17354953 1.223 1.6588312e-38
-0.038437143 -0.17354953 1.223 1.7786855e-38
-0.036107622 -0.17354953 1.223 1.7970848e-38
-0.12550001 -0.17570001 1.2550001 1.7602081e-38
-0.12310953 -0.17570001 1.2550001 1.8064174e-38
-0.12071906 -0.17570001 1.2550001 1.9354912e-38
-0.11832858 -0.17570001 1.2550001 1.9909176e-38
-0.11501428 -0.1743 1.245 1.9079416e-38
-0.11264285 -0.1743 1.245 1.889465e-38
-0.11230858 -0.17751999 1.268 1.8802455e-38
-0.11032667 -0.17821999 1.273 1.806562e-38
-0.10832573 -0.17892002 1.2780001 1.806562e-38
-0.10589144 -0.17892002 1.2780001 1.7788303e-38
-0.10345715 -0.17892002 1.2780001 1.7972694e-38
-0.1014181 -0.17962001 1.2830001 1.8340042e-38
-0.099360012 -0.18032001 1.2880001 1.8247846e-38
-0.096906669 -0.18032001 1.2880001 1.8431525e-38
-0.094453342 -0.18032001 1.2880001 1.833933e-38
-0.092000008 -0.18032001 1.2880001 1.852407e-38
-0.089546673 -0.18032001 1.2880001 1.8155287e-38
-0.087093338 -0.18032001 1.2880001 1.7971609e-38
-0.08490286 -0.18088001 1.2920001 1.7879414e-38
-0.082186669 -0.18032001 1.2880001 1.7694669e-38
-0.079733342 -0.18032001 1.2880001 1.7786865e-38
-0.077280007 -0.18032001 1.2880001 1.7970543e-38
-0.074826673 -0.18032001 1.2880001 1.8339325e-38
-0.072373338 -0.18032001 1.2880001 1.8616982e-38
-0.069648571 -0.17962001 1.2830001 1.907796e-38
-0.067204766 -0.17962001 1.2830001 1.9354912e-38
-0.061076194 -0.16940001 1.21 1.9539304e-38
-0.058771431 -0.16940001 1.21 1.9448201e-38
-0.056466665 -0.16940001 1.21 1.9079418e-38
-0.054161906 -0.16940001 1.21 1.7514231e-38
-0.052028574 -0.16996002 1.2140001 1.7606427e-38
-0.049920954 -0.17066 1.2190001 1.6133109e-38
-0.047599051 -0.17066 1.2190001 1.5303348e-38
-0.045277145 -0.17066 1.2190001 1.5395517e-38
-0.043096192 -0.17122 1.223 1.5211126e-38
-0.040766668 -0.17122 1.223 1.6404621e-38
-0.038311433 -0.17066 1.2190001 1.7049991e-38
-0.035989527 -0.17066 1.2190001 1.7877221e-38
-0.03366762 -0.17066 1.2190001 1.852259e-38
-0.12085334 -0.17013335 1.2320001 1.5391963e-38
-0.11850668 -0.17013335 1.2320001 1.5391963e-38
-0.11568858 -0.16944288 1.2270001 1.5116412e-38
-0.11261239 -0.16833812 1.2190001 1.4747629e-38
-0.10947619 -0.16709524 1.21 1.557704e-38
-0.10717143 -0.16709524 1.21 1.6314605e-38
-0.11032667 -0.17579524 1.273 1.6405379e-38
-0.10832573 -0.17648572 1.2780001 1.6405379e-38
-0.10589144 -0.17648572 1.2780001 1.6405382e-38
-0.10345715 -0.17648572 1.2780001 1.6313187e-38
-0.1014181 -0.17717621 1.2830001 1.5668533e-38
-0.099360012 -0.17786667 1.2880001 1.5576338e-38
-0.096906669 -0.17786667 1.2880001 1.6035518e-38
-0.094453342 -0.17786667 1.2880001 1.6680887e-38
-0.092285715 -0.17841905 1.2920001 1.6864914e-38
-0.090520002 -0.1798 1.302 1.695711e-38
-0.081548579 -0.16654286 1.2060001 1.6774151e-38
-0.079251431 -0.16654286 1.2060001 1.6866346e-38
-0.076954298 -0.16654286 1.2060001 1.5577073e-38
-0.07465715 -0.16654286 1.2060001 1.3917552e-38
-0.072360002 -0.16654286 1.2060001 1.3550565e-38
-0.070062861 -0.16654286 1.2060001 1.3366173e-38
-0.06776572 -0.16654286 1.2060001 1.4653312e-38
-0.065468572 -0.16654286 1.2060001 1.7050399e-38
-0.063171431 -0.16654286 1.2060001 1.6865279e-38
-0.061076194 -0.16709524 1.21 1.6219909e-38
-0.058771431 -0.16709524 1.21 1.5668553e-38
-0.056466665 -0.16709524 1.21 1.4562205e-38
-0.054161906 -0.16709524 1.21 1.5298652e-38
-0.052028574 -0.16764763 1.2140001 1.5944022e-38
-0.049920954 -0.16833812 1.2190001 1.3460524e-38
-0.047599051 -0.16833812 1.2190001 9.1273295e-39
-0.045277145 -0.16833812 1.2190001 9.8656358e-39
-0.042955242 -0.16833812 1.2190001 1.3461265e-38
-0.040633336 -0.16833812 1.2190001 1.5943306e-38
-0.038154289 -0.16764763 1.2140001 1.6865262e-38
-0.035841908 -0.16764763 1.2140001 1.7510236e-38
-0.03366762 -0.16833812 1.2190001 1.8247801e-38
-0.12036287 -0.16710572 1.2270001 1.4656532e-38
-0.11802572 -0.16710572 1.2270001 1.4564337e-38
-0.11531143 -0.16656096 1.223 1.419627e-38
-0.11261239 -0.16601621 1.2190001 1.4104075e-38
-0.10947619 -0.16479047 1.21 1.4103373e-38
-0.10717143 -0.16479047 1.21 1.4472155e-38
-0.10452001 -0.16424572 1.2060001 1.5114264e-38
-0.10222286 -0.16424572 1.2060001 1.5206459e-38
-0.099594288 -0.16370095 1.202 1.5116794e-38
-0.097304761 -0.16370095 1.202 1.4840208e-38
-0.095015235 -0.16370095 1.202 1.3274667e-38
-0.092725717 -0.16370095 1.202 1.3274667e-38
-0.090737149 -0.16424572 1.2060001 1.4562182e-38
-0.088440008 -0.16424572 1.2060001 1.6313899e-38
-0.08614286 -0.16424572 1.2060001 1.5945853e-38
-0.08384572 -0.16424572 1.2060001 1.5300484e-38
-0.081548579 -0.16424572 1.2060001 1.5392999e-38
-0.079251431 -0.16424572 1.2060001 1.5853977e-38
-0.076954298 -0.16424572 1.2060001 1.4566872e-38
-0.07465715 -0.16424572 1.2060001 1.2354177e-38
-0.072360002 -0.16424572 1.2060001 9.1363146e-39
-0.070062861 -0.16424572 1.2060001 9.8738797e-39
-0.06776572 -0.16424572 1.2060001 1.2904437e-38
-0.065468572 -0.16424572 1.2060001 1.5946893e-38
-0.063171431 -0.16424572 1.2060001 1.594584e-38
-0.061076194 -0.16479047 1.21 1.5023884e-38
-0.058771431 -0.16479047 1.21 1.4749458e-38
-0.056466665 -0.16479047 1.21 1.4380676e-38
-0.054161906 -0.16479047 1.21 1.5022808e-38
-0.052028574 -0.16533525 1.2140001 1.5207199e-38
-0.049920954 -0.16601621 1.2190001 1.3460877e-38
-0.047599051 -0.16601621 1.2190001 8.6667045e-39
-0.045277145 -0.16601621 1.2190001 8.9443676e-39
-0.042955242 -0.16601621 1.2190001 1.226341e-38
-0.040633336 -0.16601621 1.2190001 1.5943293e-38
-0.038154289 -0.16533525 1.2140001 1.6957445e-38
-0.035841908 -0.16533525 1.2140001 1.7049631e-38
-0.12036287 -0.16476859 1.2270001 1.4197705e-38
-0.11802572 -0.16476859 1.2270001 1.4197705e-38
-0.11531143 -0.16423143 1.223 1.4748742e-38
-0.11261239 -0.16369429 1.2190001 1.6500459e-38
-0.10983811 -0.16302286 1.2140001 1.5302282e-38
-0.10717143 -0.16248572 1.21 1.1614456e-38
-0.10452001 -0.16194858 1.2060001 1.1156663e-38
-0.10222286 -0.16194858 1.2060001 1.143325e-38
-0.099594288 -0.16141143 1.202 1.2904832e-38
-0.097304761 -0.16141143 1.202 1.5025332e-38
-0.095015235 -0.16141143 1.202 1.4103349e-38
-0.092725717 -0.16141143 1.202 1.3550175e-38
-0.090737149 -0.16194858 1.2060001 1.4838417e-38
-0.088440008 -0.16194858 1.2060001 1.5852569e-38
-0.08614286 -0.16194858 1.2060001 1.4009748e-38
-0.08384572 -0.16194858 1.2060001 1.0875096e-38
-0.081548579 -0.16194858 1.2060001 1.1703765e-38
-0.079251431 -0.16194858 1.2060001 1.5115004e-38
-0.076954298 -0.16194858 1.2060001 1.4563611e-38
-0.07465715 -0.16194858 1.2060001 1.4010437e-38
-0.072360002 -0.16194858 1.2060001 1.3643447e-38
-0.070062861 -0.16194858 1.2060001 1.3920034e-38
-0.06776572 -0.16194858 1.2060001 1.4195544e-38
-0.065468572 -0.16194858 1.2060001 1.4103349e-38
-0.063171431 -0.16194858 1.2060001 1.2720438e-38
-0.061076194 -0.16248572 1.21 1.1521895e-38
-0.058771431 -0.16248572 1.21 1.253605e-38
-0.056466665 -0.16248572 1.21 1.548631e-38
-0.054161906 -0.16248572 1.21 1.5393746e-38
-0.052028574 -0.16302286 1.2140001 1.3549833e-38
-0.049920954 -0.16369429 1.2190001 1.0789002e-38
-0.047599051 -0.16369429 1.2190001 8.6685024e-39
-0.045277145 -0.16369429 1.2190001 9.5890588e-39
-0.042955242 -0.16369429 1.2190001 1.1986145e-38
-0.040633336 -0.16369429 1.2190001 1.5575577e-38
-0.038311433 -0.16369429 1.2190001 1.6958511e-38
-0.035989527 -0.16369429 1.2190001 1.7049275e-38
-0.12036287 -0.16243143 1.2270001 1.3370126e-38
-0.11802572 -0.16243143 1.2270001 1.3093539e-38
-0.11531143 -0.16190191 1.223 1.4748731e-38
-0.11261239 -0.16137239 1.2190001 1.5947274e-38
-0.10983811 -0.16071048 1.2140001 1.5302629e-38
-0.10717143 -0.16018096 1.21 8.6645437e-39
-0.10452001 -0.15965144 1.2060001 7.4735395e-39
-0.10222286 -0.15965144 1.2060001 7.6579308e-39
-0.099925719 -0.15965144 1.2060001 1.2351616e-38
-0.097628579 -0.15965144 1.2060001 1.4011138e-38
-0.095331438 -0.15965144 1.2060001 1.53001e-38
-0.09303429 -0.15965144 1.2060001 1.5115708e-38
-0.090737149 -0.15965144 1.2060001 1.4655117e-38
-0.088440008 -0.15965144 1.2060001 1.3917552e-38
-0.08614286 -0.15965144 1.2060001 1.2995946e-38
-0.08384572 -0.15965144 1.2060001 9.5847077e-39
-0.081548579 -0.15965144 1.2060001 1.0873207e-38
-0.079251431 -0.15965144 1.2060001 1.3270294e-38
-0.076954298 -0.15965144 1.2060001 1.5389033e-38
-0.07465715 -0.15965144 1.2060001 1.5573424e-38
-0.072360002 -0.15965144 1.2060001 1.5388346e-38
-0.070062861 -0.15965144 1.2060001 1.6310303e-38
-0.06776572 -0.15965144 1.2060001 1.5025318e-38
-0.065468572 -0.15965144 1.2060001 1.2720427e-38
-0.063171431 -0.15965144 1.2060001 1.18939e-38
-0.061076194 -0.16018096 1.21 1.0971944e-38
-0.05896572 -0.16071048 1.2140001 1.1340724e-38
-0.056653336 -0.16071048 1.2140001 1.4659767e-38
-0.054340959 -0.16071048 1.2140001 1.4750922e-38
-0.05224286 -0.16137239 1.2190001 1.1892858e-38
-0.049920954 -0.16137239 1.2190001 8.3951497e-39
-0.047599051 -0.16137239 1.2190001 8.2107584e-39
-0.045277145 -0.16137239 1.2190001 9.7737905e-39
-0.042955242 -0.16137239 1.2190001 1.2631855e-38
-0.040766668 -0.16190191 1.223 1.5022409e-38
-0.038437143 -0.16190191 1.223 1.6958517e-38
-0.036107622 -0.16190191 1.223 1.7142192e-38
-0.12036287 -0.16009429 1.2270001 1.3829672e-38
-0.11802572 -0.16009429 1.2270001 1.2354542e-38
-0.11531143 -0.15957239 1.223 1.4104425e-38
-0.11261239 -0.15905049 1.2190001 1.5118577e-38
-0.10983811 -0.15839811 1.2140001 1.4199087e-38
-0.10752572 -0.15839811 1.2140001 7.5610029e-39
-0.10486667 -0.15787619 1.21 6.554872e-39
-0.10222286 -0.1573543 1.2060001 6.3704808e-39
-0.099925719 -0.1573543 1.2060001 9.4989371e-39
-0.097628579 -0.1573543 1.2060001 1.1527241e-38
-0.095647618 -0.15787619 1.21 1.474798e-38
-0.093342856 -0.15787619 1.21 1.5854327e-38
-0.0910381 -0.15787619 1.21 1.5022797e-38
-0.088733338 -0.15787619 1.21 1.1427167e-38
-0.086428568 -0.15787619 1.21 1.0230077e-38
-0.084123813 -0.15787619 1.21 1.0045686e-38
-0.08181905 -0.15787619 1.21 1.0413703e-38
-0.079514287 -0.15787619 1.21 1.0598095e-38
-0.077209525 -0.15787619 1.21 1.207143e-38
-0.074904762 -0.15787619 1.21 1.502169e-38
-0.0726 -0.15787619 1.21 1.5759297e-38
-0.070295244 -0.15787619 1.21 1.6035884e-38
-0.067990474 -0.15787619 1.21 1.4380659e-38
-0.065685712 -0.15787619 1.21 1.2260159e-38
-0.063380957 -0.15787619 1.21 1.1342539e-38
-0.061076194 -0.15787619 1.21 1.1158147e-38
-0.05896572 -0.15839811 1.2140001 1.1709889e-38
-0.056653336 -0.15839811 1.2140001 1.4106975e-38
-0.054340959 -0.15839811 1.2140001 1.4290998e-38
-0.05224286 -0.15905049 1.2190001 1.1248542e-38
-0.049920954 -0.15905049 1.2190001 8.1214621e-39
-0.047599051 -0.15905049 1.2190001 7.4760927e-39
-0.045425717 -0.15957239 1.223 9.8660142e-39
-0.043096192 -0.15957239 1.223 1.4475796e-38
-0.040766668 -0.15957239 1.223 1.640534e-38
-0.038437143 -0.15957239 1.223 1.705071e-38
-0.036107622 -0.15957239 1.223 1.7233669e-38
-0.12036287 -0.15775716 1.2270001 1.4380676e-38
-0.11802572 -0.15775716 1.2270001 1.2905545e-38
-0.11531143 -0.15724286 1.223 1.2999896e-38
-0.11298191 -0.15724286 1.223 1.4475026e-38
-0.11029048 -0.15672858 1.2190001 1.1252498e-38
-0.10752572 -0.15608573 1.2140001 7.0114992e-39
-0.10486667 -0.15557143 1.21 6.095689e-39
-0.10256191 -0.15557143 1.21 6.095689e-39
-0.099925719 -0.15505715 1.2060001 6.6466361e-39
-0.097628579 -0.15505715 1.2060001 7.3842011e-39
-0.095647618 -0.15557143 1.21 1.2719345e-38
-0.093342856 -0.15557143 1.21 1.5300823e-38
-0.0910381 -0.15557143 1.21 1.3272533e-38
-0.088733338 -0.15557143 1.21 9.8612946e-39
-0.086428568 -0.15557143 1.21 1.0137163e-38
-0.084123813 -0.15557143 1.21 1.0321554e-38
-0.08181905 -0.15557143 1.21 1.0505924e-38
-0.079514287 -0.15557143 1.21 9.8605547e-39
-0.077209525 -0.15557143 1.21 9.9530559e-39
-0.074904762 -0.15557143 1.21 1.4470642e-38
-0.0726 -0.15557143 1.21 1.5024976e-38
-0.070295244 -0.15557143 1.21 1.4748389e-38
-0.067990474 -0.15557143 1.21 1.226341e-38
-0.065685712 -0.15557143 1.21 1.1064867e-38
-0.063380957 -0.15557143 1.21 9.8699126e-39
-0.061278097 -0.15608573 1.2140001 1.0699673e-38
-0.05896572 -0.15608573 1.2140001 1.1893912e-38
-0.056653336 -0.15608573 1.2140001 1.4475389e-38
-0.054340959 -0.15608573 1.2140001 1.4476118e-38
-0.05224286 -0.15672858 1.2190001 1.189464e-38
-0.049920954 -0.15672858 1.2190001 8.4898662e-39
-0.047755238 -0.15724286 1.223 8.3976706e-39
-0.045425717 -0.15724286 1.223 1.217085e-38
-0.043096192 -0.15724286 1.223 1.4936719e-38
-0.040766668 -0.15724286 1.223 1.6681214e-38
-0.038437143 -0.15724286 1.223 1.7142192e-38
-0.12036287 -0.15542001 1.2270001 1.447395e-38
-0.11802572 -0.15542001 1.2270001 1.2814429e-38
-0.11531143 -0.15491334 1.223 1.4287411e-38
-0.11298191 -0.15491334 1.223 1.7329867e-38
-0.11029048 -0.15440668 1.2190001 1.4566872e-38
-0.10796858 -0.15440668 1.2190001 7.9287863e-39
-0.10521334 -0.15377335 1.2140001 5.2688052e-39
-0.10256191 -0.15326667 1.21 5.545392e-39
-0.099925719 -0.15276001 1.2060001 6.3707947e-39
-0.097628579 -0.15276001 1.2060001 6.4629903e-39
-0.095647618 -0.15326667 1.21 1.2074353e-38
-0.093342856 -0.15326667 1.21 1.5209004e-38
-0.0910381 -0.15326667 1.21 1.3548004e-38
-0.088733338 -0.15326667 1.21 9.9523748e-39
-0.086428568 -0.15326667 1.21 9.8616702e-39
-0.084123813 -0.15326667 1.21 1.0046061e-38
-0.08181905 -0.15326667 1.21 1.0321554e-38
-0.079514287 -0.15326667 1.21 9.9527714e-39
-0.077209525 -0.15326667 1.21 1.0319755e-38
-0.074904762 -0.15326667 1.21 1.3638797e-38
-0.0726 -0.15326667 1.21 1.493167e-38
-0.070295244 -0.15326667 1.21 1.4839475e-38
-0.067990474 -0.15326667 1.21 1.2539273e-38
-0.065685712 -0.15326667 1.21 1.1156338e-38
-0.063380957 -0.15326667 1.21 1.0330539e-38
-0.061278097 -0.15377335 1.2140001 1.0883713e-38
-0.05896572 -0.15377335 1.2140001 1.2078309e-38
-0.056653336 -0.15377335 1.2140001 1.4844177e-38
-0.054340959 -0.15377335 1.2140001 1.5210799e-38
-0.05224286 -0.15440668 1.2190001 1.539519e-38
-0.049920954 -0.15440668 1.2190001 1.3924343e-38
-0.047755238 -0.15491334 1.223 1.2817995e-38
-0.045425717 -0.15491334 1.223 1.3460877e-38
-0.043096192 -0.15491334 1.223 1.4843812e-38
-0.040766668 -0.15491334 1.223 1.6405693e-38
-0.038437143 -0.15491334 1.223 1.668228e-38
-0.12085334 -0.15370668 1.2320001 1.4844161e-38
-0.11802572 -0.15308286 1.2270001 1.4106596e-38
-0.11531143 -0.15258382 1.223 1.5023544e-38
-0.11298191 -0.15258382 1.223 1.6222087e-38
-0.11029048 -0.15208477 1.2190001 1.548667e-38
-0.10796858 -0.15208477 1.2190001 1.041591e-38
-0.10521334 -0.15146096 1.2140001 6.1875371e-39
-0.10256191 -0.15096191 1.21 5.3577764e-39
-0.10025714 -0.15096191 1.21 5.450611e-39
-0.097952388 -0.15096191 1.21 6.7413498e-39
-0.095647618 -0.15096191 1.21 1.2717543e-38
-0.093342856 -0.15096191 1.21 1.5759999e-38
-0.0910381 -0.15096191 1.21 1.3364729e-38
-0.088733338 -0.15096191 1.21 9.9534903e-39
-0.086428568 -0.15096191 1.21 1.0137144e-38
-0.084123813 -0.15096191 1.21 1.0321536e-38
-0.08181905 -0.15096191 1.21 1.032082e-38
-0.079514287 -0.15096191 1.21 1.0136428e-38
-0.077209525 -0.15096191 1.21 1.0319385e-38
-0.074904762 -0.15096191 1.21 1.4836971e-38
-0.0726 -0.15096191 1.21 1.5207536e-38
-0.070295244 -0.15096191 1.21 1.5207536e-38
-0.067990474 -0.15096191 1.21 1.3366889e-38
-0.065685712 -0.15096191 1.21 1.1615172e-38
-0.063380957 -0.15096191 1.21 1.0790067e-38
-0.061278097 -0.15146096 1.2140001 1.1435436e-38
-0.05896572 -0.15146096 1.2140001 1.3827125e-38
-0.056653336 -0.15146096 1.2140001 1.4841277e-38
-0.054564763 -0.15208477 1.2190001 1.5116406e-38
-0.05224286 -0.15208477 1.2190001 1.5485189e-38
-0.050084762 -0.15258382 1.223 1.5394465e-38
-0.047755238 -0.15258382 1.223 1.5025682e-38
-0.045425717 -0.15258382 1.223 1.3830011e-38
-0.043096192 -0.15258382 1.223 1.4383185e-38
-0.040766668 -0.15258382 1.223 1.5577387e-38
-0.038437143 -0.15258382 1.223 1.6314952e-38
-0.03637334 -0.15370668 1.2320001 1.6864504e-38
-0.12085334 -0.15136001 1.2320001 1.5485927e-38
-0.11802572 -0.15074573 1.2270001 1.6500079e-38
-0.11568858 -0.15074573 1.2270001 1.5946559e-38
-0.11298191 -0.15025429 1.223 1.4748016e-38
-0.11065239 -0.15025429 1.223 1.4564321e-38
-0.10832286 -0.15025429 1.223 1.4748713e-38
-0.10521334 -0.14914858 1.2140001 1.023876e-38
-0.10290097 -0.14914858 1.2140001 6.8275213e-39
-0.10025714 -0.14865716 1.21 7.9345821e-39
-0.097952388 -0.14865716 1.21 1.2544364e-38
-0.095963813 -0.14914858 1.2140001 1.4840924e-38
-0.093651436 -0.14914858 1.2140001 1.5670684e-38
-0.0910381 -0.14865716 1.21 1.4746597e-38
-0.088733338 -0.14865716 1.21 1.3179271e-38
-0.086714298 -0.14914858 1.2140001 1.1153101e-38
-0.084123813 -0.14865716 1.21 1.0323341e-38
-0.08181905 -0.14865716 1.21 1.0230077e-38
-0.079514287 -0.14865716 1.21 1.1336425e-38
-0.077464767 -0.14914858 1.2140001 1.2993801e-38
-0.075152382 -0.14914858 1.2140001 1.5944061e-38
-0.072840005 -0.14914858 1.2140001 1.5852898e-38
-0.070527628 -0.14914858 1.2140001 1.6037289e-38
-0.068215244 -0.14914858 1.2140001 1.4748036e-38
-0.065902859 -0.14914858 1.2140001 1.4379253e-38
-0.063590482 -0.14914858 1.2140001 1.3553419e-38
-0.061278097 -0.14914858 1.2140001 1.3461223e-38
-0.05896572 -0.14914858 1.2140001 1.3736371e-38
-0.056886673 -0.14976287 1.2190001 1.1708067e-38
-0.054564763 -0.14976287 1.2190001 1.2810802e-38
-0.05224286 -0.14976287 1.2190001 1.4931302e-38
-0.050084762 -0.15025429 1.223 1.5577773e-38
-0.047911432 -0.15074573 1.2270001 1.6223142e-38
-0.045574289 -0.15074573 1.2270001 1.4472152e-38
-0.04323715 -0.15074573 1.2270001 1.4287761e-38
-0.040900003 -0.15074573 1.2270001 1.5300453e-38
-0.03856286 -0.15074573 1.2270001 1.6498996e-38
-0.03637334 -0.15136001 1.2320001 1.658863e-38
-0.12085334 -0.14901336 1.2320001 1.5483043e-38
-0.11802572 -0.14840858 1.2270001 1.6681587e-38
-0.11568858 -0.14840858 1.2270001 1.5670711e-38
-0.11298191 -0.14792477 1.223 1.2720451e-38
-0.11065239 -0.14792477 1.223 1.3640888e-38
-0.10832286 -0.14792477 1.223 1.5300409e-38
-0.10599334 -0.14792477 1.223 1.438178e-38
-0.10332477 -0.14744097 1.2190001 1.1154933e-38
-0.10058858 -0.14683619 1.2140001 1.0144744e-38
-0.098276198 -0.14683619 1.2140001 1.3740373e-38
-0.095963813 -0.14683619 1.2140001 1.5393393e-38
-0.093651436 -0.14683619 1.2140001 1.4932414e-38
-0.091339052 -0.14683619 1.2140001 1.4470726e-38
-0.089026667 -0.14683619 1.2140001 1.3640965e-38
-0.086714298 -0.14683619 1.2140001 1.3271427e-38
-0.084123813 -0.14635238 1.21 1.0597754e-38
-0.08181905 -0.14635238 1.21 1.0322211e-38
-0.079777151 -0.14683619 1.2140001 1.2442711e-38
-0.077464767 -0.14683619 1.2140001 1.492882e-38
-0.075152382 -0.14683619 1.2140001 1.4652233e-38
-0.072840005 -0.14683619 1.2140001 1.4008642e-38
-0.070527628 -0.14683619 1.2140001 1.4377425e-38
-0.068215244 -0.14683619 1.2140001 1.4746944e-38
-0.065902859 -0.14683619 1.2140001 1.5115727e-38
-0.063852385 -0.14744097 1.2190001 1.4655828e-38
-0.061530478 -0.14744097 1.2190001 1.4379241e-38
-0.059208576 -0.14744097 1.2190001 1.4104801e-38
-0.056886673 -0.14744097 1.2190001 1.0232584e-38
-0.054743811 -0.14792477 1.223 1.124237e-38
-0.052414287 -0.14792477 1.223 1.3362869e-38
-0.050248574 -0.14840858 1.2270001 1.6220255e-38
-0.047911432 -0.14840858 1.2270001 1.612806e-38
-0.045574289 -0.14840858 1.2270001 1.4011882e-38
-0.04323715 -0.14840858 1.2270001 1.4196273e-38
-0.040900003 -0.14840858 1.2270001 1.4931668e-38
-0.03856286 -0.14840858 1.2270001 1.5577037e-38
-0.03637334 -0.14901336 1.2320001 1.5667765e-38
-0.12410001 -0.1477381 1.2410001 1.6681564e-38
-0.12124572 -0.14714286 1.2360001 1.4378518e-38
-0.11802572 -0.14607145 1.2270001 1.4009735e-38
-0.11568858 -0.14607145 1.2270001 1.3459085e-38
-0.11335144 -0.14607145 1.2270001 1.0232238e-38
-0.11101429 -0.14607145 1.2270001 1.1427167e-38
-0.10832286 -0.14559524 1.223 1.4561819e-38
-0.10599334 -0.14559524 1.223 1.5023181e-38
-0.10332477 -0.14511906 1.2190001 1.5945137e-38
-0.10058858 -0.14452383 1.2140001 1.5026058e-38
-0.098276198 -0.14452383 1.2140001 1.4472884e-38
-0.096359059 -0.14511906 1.2190001 1.355093e-38
-0.093651436 -0.14452383 1.2140001 1.2167996e-38
-0.091339052 -0.14452383 1.2140001 1.2628618e-38
-0.089026667 -0.14452383 1.2140001 1.4749118e-38
-0.086714298 -0.14452383 1.2140001 1.4932744e-38
-0.084401913 -0.14452383 1.2140001 1.3734201e-38
-0.082089528 -0.14452383 1.2140001 1.4655428e-38
-0.079777151 -0.14452383 1.2140001 1.5577384e-38
-0.077464767 -0.14452383 1.2140001 1.3364741e-38
-0.075461909 -0.14511906 1.2190001 1.0598872e-38
-0.073140003 -0.14511906 1.2190001 9.4961092e-39
-0.070527628 -0.14452383 1.2140001 8.6663486e-39
-0.068215244 -0.14452383 1.2140001 1.0875462e-38
-0.065902859 -0.14452383 1.2140001 1.5393048e-38
-0.063852385 -0.14511906 1.2190001 1.5116434e-38
-0.061530478 -0.14511906 1.2190001 1.3364717e-38
-0.059208576 -0.14511906 1.2190001 1.1798465e-38
-0.056886673 -0.14511906 1.2190001 1.0784313e-38
-0.054743811 -0.14559524 1.223 1.0967631e-38
-0.052414287 -0.14559524 1.223 1.1889587e-38
-0.050248574 -0.14607145 1.2270001 1.5300798e-38
-0.047911432 -0.14607145 1.2270001 1.566958e-38
-0.045574289 -0.14607145 1.2270001 1.4195565e-38
-0.04323715 -0.14607145 1.2270001 1.4564348e-38
-0.040900003 -0.14607145 1.2270001 1.5208254e-38
-0.038720001 -0.14666668 1.2320001 1.5577037e-38
-0.03637334 -0.14666668 1.2320001 1.585146e-38
-0.12410001 -0.14537428 1.2410001 1.6589003e-38
-0.12124572 -0.14478858 1.2360001 1.3643447e-38
-0.11850668 -0.14432001 1.2320001 1.2905882e-38
-0.11616001 -0.14432001 1.2320001 1.2724038e-38
-0.11335144 -0.14373431 1.2270001 1.0050365e-38
-0.11101429 -0.14373431 1.2270001 1.1427117e-38
-0.10867715 -0.14373431 1.2270001 1.2717856e-38
-0.10599334 -0.14326571 1.223 1.5664213e-38
-0.10366382 -0.14326571 1.223 1.7692517e-38
-0.10100286 -0.14279716 1.2190001 1.622209e-38
-0.098680958 -0.14279716 1.2190001 1.4009395e-38
-0.096359059 -0.14279716 1.2190001 1.2448167e-38
-0.094037145 -0.14279716 1.2190001 1.134182e-38
-0.091715246 -0.14279716 1.2190001 1.1341454e-38
-0.08939334 -0.14279716 1.2190001 1.2816584e-38
-0.086714298 -0.14221144 1.2140001 1.5024233e-38
-0.084401913 -0.14221144 1.2140001 1.5393016e-38
-0.082089528 -0.14221144 1.2140001 1.5760729e-38
-0.079777151 -0.14221144 1.2140001 1.5484142e-38
-0.077783816 -0.14279716 1.2190001 1.2170514e-38
-0.075461909 -0.14279716 1.2190001 7.7451237e-39
-0.073140003 -0.14279716 1.2190001 6.4619379e-39
-0.070818104 -0.14279716 1.2190001 6.2775467e-39
-0.068496197 -0.14279716 1.2190001 9.2194887e-39
-0.066174291 -0.14279716 1.2190001 1.3644879e-38
-0.063852385 -0.14279716 1.2190001 1.5209001e-38
-0.061530478 -0.14279716 1.2190001 1.3457284e-38
-0.059208576 -0.14279716 1.2190001 1.1244215e-38
-0.056886673 -0.14279716 1.2190001 1.0967628e-38
-0.054743811 -0.14326571 1.223 1.0508079e-38
-0.052414287 -0.14326571 1.223 1.1891014e-38
-0.050248574 -0.14373431 1.2270001 1.4101557e-38
-0.047911432 -0.14373431 1.2270001 1.5576687e-38
-0.045574289 -0.14373431 1.2270001 1.4011879e-38
-0.043413337 -0.14432001 1.2320001 1.4657248e-38
-0.041066669 -0.14432001 1.2320001 1.5209331e-38
-0.038720001 -0.14432001 1.2320001 1.5301526e-38
-0.03637334 -0.14432001 1.2320001 1.585146e-38
-0.12410001 -0.14301048 1.2410001 1.6957788e-38
-0.12173619 -0.14301048 1.2410001 1.437957e-38
-0.11889143 -0.14243428 1.2360001 1.3734201e-38
-0.11616001 -0.14197333 1.2320001 1.3551278e-38
-0.11335144 -0.14139715 1.2270001 1.0693213e-38
-0.11101429 -0.14139715 1.2270001 1.1059786e-38
-0.10867715 -0.14139715 1.2270001 1.1059786e-38
-0.10599334 -0.1409362 1.223 1.3635906e-38
-0.10366382 -0.1409362 1.223 1.7600319e-38
-0.10100286 -0.14047524 1.2190001 1.5669968e-38
-0.098680958 -0.14047524 1.2190001 1.2535317e-38
-0.09667524 -0.1409362 1.223 1.1159579e-38
-0.094037145 -0.14047524 1.2190001 1.1159579e-38
-0.091715246 -0.14047524 1.2190001 1.1157797e-38
-0.08939334 -0.14047524 1.2190001 1.0973406e-38
-0.087071441 -0.14047524 1.2190001 1.3366134e-38
-0.084401913 -0.13989906 1.2140001 1.5486634e-38
-0.082089528 -0.13989906 1.2140001 1.5025312e-38
-0.079777151 -0.13989906 1.2140001 1.1245291e-38
-0.077783816 -0.14047524 1.2190001 8.0246043e-39
-0.075461909 -0.14047524 1.2190001 7.4714305e-39
-0.073140003 -0.14047524 1.2190001 6.7392633e-39
-0.070818104 -0.14047524 1.2190001 6.6470677e-39
-0.068496197 -0.14047524 1.2190001 7.6565126e-39
-0.066174291 -0.14047524 1.2190001 9.2238383e-39
-0.063852385 -0.14047524 1.2190001 1.3089544e-38
-0.061530478 -0.14047524 1.2190001 1.3550523e-38
-0.059208576 -0.14047524 1.2190001 1.1428618e-38
-0.057073336 -0.1409362 1.223 1.0783248e-38
-0.054743811 -0.1409362 1.223 1.1059801e-38
-0.052585717 -0.14139715 1.2270001 1.4010062e-38
-0.050248574 -0.14139715 1.2270001 1.520898e-38
-0.04810667 -0.14197333 1.2320001 1.6315328e-38
-0.045760002 -0.14197333 1.2320001 1.6314224e-38
-0.043413337 -0.14197333 1.2320001 1.5484463e-38
-0.041066669 -0.14197333 1.2320001 1.5391564e-38
-0.038720001 -0.14197333 1.2320001 1.5391564e-38
-0.03637334 -0.14197333 1.2320001 1.5851097e-38
-0.12410001 -0.14064667 1.2410001 1.6773041e-38
-0.12173619 -0.14064667 1.2410001 1.5114611e-38
-0.11889143 -0.14008002 1.2360001 1.5391198e-38
-0.11653715 -0.14008002 1.2360001 1.4748757e-38
-0.11381335 -0.13962668 1.2320001 1.1060932e-38
-0.11146668 -0.13962668 1.2320001 1.1059801e-38
-0.10867715 -0.13906002 1.2270001 1.0783214e-38
-0.10599334 -0.13860667 1.223 1.2623164e-38
-0.10366382 -0.13860667 1.223 1.7232946e-38
-0.10100286 -0.13815333 1.2190001 1.5118256e-38
-0.098680958 -0.13815333 1.2190001 1.2260191e-38
-0.09667524 -0.13860667 1.223 1.0791872e-38
-0.094345719 -0.13860667 1.223 1.0884067e-38
-0.09201619 -0.13860667 1.223 1.0422737e-38
-0.08939334 -0.13815333 1.2190001 1.0514933e-38
-0.087071441 -0.13815333 1.2190001 1.1525824e-38
-0.084749527 -0.13815333 1.2190001 1.4660476e-38
-0.082427621 -0.13815333 1.2190001 1.4291739e-38
-0.080105722 -0.13815333 1.2190001 9.7741535e-39
-0.077783816 -0.13815333 1.2190001 6.1878622e-39
-0.075461909 -0.13815333 1.2190001 6.7410359e-39
-0.073140003 -0.13815333 1.2190001 7.2916958e-39
-0.07105048 -0.13860667 1.223 6.9229133e-39
-0.068720959 -0.13860667 1.223 6.4633701e-39
-0.066391431 -0.13860667 1.223 8.3072827e-39
-0.064061902 -0.13860667 1.223 1.1801e-38
-0.061732382 -0.13860667 1.223 1.2538565e-38
-0.059402857 -0.13860667 1.223 1.1612658e-38
-0.057073336 -0.13860667 1.223 1.0690702e-38
-0.054743811 -0.13860667 1.223 1.1243129e-38
-0.052585717 -0.13906002 1.2270001 1.5391932e-38
-0.050248574 -0.13906002 1.2270001 1.5576331e-38
-0.04810667 -0.13962668 1.2320001 1.6498287e-38
-0.045760002 -0.13962668 1.2320001 1.6406821e-38
-0.043413337 -0.13962668 1.2320001 1.5484865e-38
-0.041200001 -0.14008002 1.2360001 1.5206091e-38
-0.038845714 -0.14008002 1.2360001 1.5574873e-38
-0.12124572 -0.13772571 1.2360001 1.6128416e-38
-0.11889143 -0.13772571 1.2360001 1.6681589e-38
-0.11653715 -0.13772571 1.2360001 1.613061e-38
-0.11418286 -0.13772571 1.2360001 1.3456937e-38
-0.11101429 -0.13672288 1.2270001 1.225911e-38
-0.10867715 -0.13672288 1.2270001 1.1982523e-38
-0.10599334 -0.13627714 1.223 1.3177816e-38
-0.10366382 -0.13627714 1.223 1.7603207e-38
-0.10133429 -0.13627714 1.223 1.585402e-38
-0.09900476 -0.13627714 1.223 1.3180347e-38
-0.09667524 -0.13627714 1.223 1.1251422e-38
-0.094345719 -0.13627714 1.223 1.0882639e-38
-0.09201619 -0.13627714 1.223 1.051458e-38
-0.089686669 -0.13627714 1.223 1.0883362e-38
-0.087071441 -0.13583145 1.2190001 1.1985747e-38
-0.084749527 -0.13583145 1.2190001 1.4567225e-38
-0.082427621 -0.13583145 1.2190001 1.4842385e-38
-0.080105722 -0.13583145 1.2190001 1.1431147e-38
-0.077783816 -0.13583145 1.2190001 7.2902917e-39
-0.075461909 -0.13583145 1.2190001 6.8293135e-39
-0.073140003 -0.13583145 1.2190001 6.004903e-39
-0.07105048 -0.13627714 1.223 5.9127074e-39
-0.068720959 -0.13627714 1.223 8.0260168e-39
-0.066391431 -0.13627714 1.223 1.1898233e-38
-0.064061902 -0.13627714 1.223 1.4010471e-38
-0.061732382 -0.13627714 1.223 1.4102666e-38
-0.059402857 -0.13627714 1.223 1.262612e-38
-0.057073336 -0.13627714 1.223 1.1243185e-38
-0.054743811 -0.13627714 1.223 1.2349507e-38
-0.052585717 -0.13672288 1.2270001 1.5852941e-38
-0.050248574 -0.13672288 1.2270001 1.5300453e-38
-0.04810667 -0.13728002 1.2320001 1.4747279e-38
-0.045760002 -0.13728002 1.2320001 1.4931714e-38
-0.043554287 -0.13772571 1.2360001 1.4839518e-38
-0.041200001 -0.13772571 1.2360001 1.5298292e-38
-0.12124572 -0.13537145 1.2360001 1.6036217e-38
-0.11889143 -0.13537145 1.2360001 1.6589391e-38
-0.11653715 -0.13537145 1.2360001 1.6959652e-38
-0.11418286 -0.13537145 1.2360001 1.4101587e-38
-0.11101429 -0.13438572 1.2270001 1.3364717e-38
-0.10867715 -0.13438572 1.2270001 1.3364717e-38
-0.10599334 -0.13394763 1.223 1.548198e-38
-0.10366382 -0.13394763 1.223 1.6680523e-38
-0.10133429 -0.13394763 1.223 1.5669953e-38
-0.09900476 -0.13394763 1.223 1.4102627e-38
-0.096991435 -0.13438572 1.2270001 1.226487e-38
-0.094345719 -0.13394763 1.223 1.0974132e-38
-0.09201619 -0.13394763 1.223 1.0514909e-38
-0.089686669 -0.13394763 1.223 1.1160279e-38
-0.087357149 -0.13394763 1.223 1.2720088e-38
-0.084749527 -0.13350953 1.2190001 1.5117174e-38
-0.082427621 -0.13350953 1.2190001 1.5762517e-38
-0.080105722 -0.13350953 1.2190001 1.3918604e-38
-0.077783816 -0.13350953 1.2190001 9.961807e-39
-0.075461909 -0.13350953 1.2190001 6.9193512e-39
-0.073140003 -0.13350953 1.2190001 4.2560433e-39
-0.07105048 -0.13394763 1.223 5.1779996e-39
-0.068720959 -0.13394763 1.223 8.7610707e-39
-0.066391431 -0.13394763 1.223 1.3924026e-38
-0.064061902 -0.13394763 1.223 1.5207928e-38
-0.061732382 -0.13394763 1.223 1.4839145e-38
-0.059402857 -0.13394763 1.223 1.4654048e-38
-0.057073336 -0.13394763 1.223 1.3916483e-38
-0.054922864 -0.13438572 1.2270001 1.3085666e-38
-0.052585717 -0.13438572 1.2270001 1.4376404e-38
-0.050248574 -0.13438572 1.2270001 1.3550885e-38
-0.04810667 -0.13493334 1.2320001 1.3274299e-38
-0.045760002 -0.13493334 1.2320001 1.3919707e-38
-0.043554287 -0.13537145 1.2360001 1.4011903e-38
-0.041366667 -0.13591906 1.2410001 1.4376333e-38
-0.12173619 -0.13355523 1.2410001 1.6220964e-38
-0.11889143 -0.13301714 1.2360001 1.6036573e-38
-0.11653715 -0.13301714 1.2360001 1.548666e-38
-0.11418286 -0.13301714 1.2360001 1.548666e-38
-0.11146668 -0.13258669 1.2320001 1.5761815e-38
-0.10867715 -0.13204859 1.2270001 1.6868162e-38
-0.10634001 -0.13204859 1.2270001 1.5945137e-38
-0.10366382 -0.1316181 1.223 1.2810486e-38
-0.10133429 -0.1316181 1.223 1.345868e-38
-0.09900476 -0.1316181 1.223 1.5486984e-38
-0.096991435 -0.13204859 1.2270001 1.3921881e-38
-0.094654292 -0.13204859 1.2270001 1.2262359e-38
-0.092317149 -0.13204859 1.2270001 1.235596e-38
-0.089686669 -0.1316181 1.223 1.4292069e-38
-0.087357149 -0.1316181 1.223 1.5117511e-38
-0.084749527 -0.13118763 1.2190001 1.4195554e-38
-0.082427621 -0.13118763 1.2190001 1.5301494e-38
-0.080105722 -0.13118763 1.2190001 1.5854668e-38
-0.077783816 -0.13118763 1.2190001 1.3367625e-38
-0.075461909 -0.13118763 1.2190001 1.1247126e-38
-0.073140003 -0.13118763 1.2190001 1.0605683e-38
-0.07105048 -0.1316181 1.223 1.0790074e-38
-0.068720959 -0.1316181 1.223 1.2814101e-38
-0.066391431 -0.1316181 1.223 1.5303383e-38
-0.064061902 -0.1316181 1.223 1.4655806e-38
-0.061732382 -0.1316181 1.223 1.4102633e-38
-0.059402857 -0.1316181 1.223 1.437854e-38
-0.057260003 -0.13204859 1.2270001 1.6683431e-38
-0.054922864 -0.13204859 1.2270001 1.5394121e-38
-0.052585717 -0.13204859 1.2270001 1.1890687e-38
-0.050453339 -0.13258669 1.2320001 9.5926265e-39
-0.04810667 -0.13258669 1.2320001 9.3160396e-39
-0.045908574 -0.13301714 1.2360001 1.2998443e-38
-0.043730479 -0.13355523 1.2410001 1.3551617e-38
-0.041366667 -0.13355523 1.2410001 1.4652214e-38
-0.12173619 -0.13119143 1.2410001 1.5945819e-38
-0.11937238 -0.13119143 1.2410001 1.5761428e-38
-0.11700858 -0.13119143 1.2410001 1.4198086e-38
-0.11418286 -0.13066287 1.2360001 1.4474673e-38
-0.11146668 -0.13024001 1.2320001 1.6129511e-38
-0.10912001 -0.13024001 1.2320001 1.6867076e-38
-0.10634001 -0.12971143 1.2270001 1.557815e-38
-0.10400286 -0.12971143 1.2270001 9.9542161e-39
-0.10133429 -0.12928857 1.223 1.0694208e-38
-0.09900476 -0.12928857 1.223 1.3736664e-38
-0.096991435 -0.12971143 1.2270001 1.5302279e-38
-0.094654292 -0.12971143 1.2270001 1.4472518e-38
-0.092317149 -0.12971143 1.2270001 1.3276136e-38
-0.089686669 -0.12928857 1.223 1.4843461e-38
-0.087357149 -0.12928857 1.223 1.5485211e-38
-0.085027628 -0.12928857 1.223 1.2534951e-38
-0.082427621 -0.12886572 1.2190001 1.3085231e-38
-0.080105722 -0.12886572 1.2190001 1.4836948e-38
-0.077783816 -0.12886572 1.2190001 1.6037309e-38
-0.075461909 -0.12886572 1.2190001 1.3824614e-38
-0.073140003 -0.12886572 1.2190001 1.2994828e-38
-0.070818104 -0.12886572 1.2190001 1.3640197e-38
-0.068720959 -0.12928857 1.223 1.5023534e-38
-0.066391431 -0.12928857 1.223 1.4193773e-38
-0.064061902 -0.12928857 1.223 1.3365805e-38
-0.061732382 -0.12928857 1.223 1.2904827e-38
-0.059597149 -0.12971143 1.2270001 1.3643123e-38
-0.057260003 -0.12971143 1.2270001 1.604021e-38
-0.054922864 -0.12971143 1.2270001 1.484385e-38
-0.052800007 -0.13024001 1.2320001 9.7730899e-39
-0.050453339 -0.13024001 1.2320001 7.6622341e-39
-0.048262861 -0.13066287 1.2360001 8.6763861e-39
-0.045908574 -0.13066287 1.2360001 1.308992e-38
-0.043730479 -0.13119143 1.2410001 1.3735289e-38
-0.041366667 -0.13119143 1.2410001 1.4835876e-38
-0.039128572 -0.1316143 1.245 1.5112463e-38
-0.12212857 -0.12924285 1.245 1.6037289e-38
-0.11937238 -0.12882763 1.2410001 1.6129485e-38
-0.11700858 -0.12882763 1.2410001 1.4567588e-38
-0.11418286 -0.12830856 1.2360001 1.410661e-38
-0.11182857 -0.12830856 1.2360001 1.4934931e-38
-0.10912001 -0.12789334 1.2320001 1.5488105e-38
-0.10634001 -0.12737429 1.2270001 1.4107296e-38
-0.10400286 -0.12737429 1.2270001 8.2067759e-39
-0.10133429 -0.12695906 1.223 8.0267189e-39
-0.09900476 -0.12695906 1.223 9.3174577e-39
-0.096991435 -0.12737429 1.2270001 1.2629661e-38
-0.094654292 -0.12737429 1.2270001 1.539553e-38
-0.092317149 -0.12737429 1.2270001 1.5854364e-38
-0.089686669 -0.12695906 1.223 1.5116799e-38
-0.087357149 -0.12695906 1.223 1.3456515e-38
-0.085027628 -0.12695906 1.223 1.0967233e-38
-0.082427621 -0.12654382 1.2190001 1.1058399e-38
-0.080105722 -0.12654382 1.2190001 1.0597421e-38
-0.077783816 -0.12654382 1.2190001 1.253385e-38
-0.075461909 -0.12654382 1.2190001 1.5760697e-38
-0.073140003 -0.12654382 1.2190001 1.5393369e-38
-0.070818104 -0.12654382 1.2190001 1.5946543e-38
-0.068720959 -0.12695906 1.223 1.5117864e-38
-0.066391431 -0.12695906 1.223 1.2536386e-38
-0.064271435 -0.12737429 1.2270001 1.1985757e-38
-0.061934292 -0.12737429 1.2270001 1.1801366e-38
-0.059597149 -0.12737429 1.2270001 1.3456921e-38
-0.057260003 -0.12737429 1.2270001 1.6314986e-38
-0.054922864 -0.12737429 1.2270001 1.429135e-38
-0.052800007 -0.12789334 1.2320001 8.9440032e-39
-0.050453339 -0.12789334 1.2320001 7.9377687e-39
-0.048262861 -0.12830856 1.2360001 1.0980224e-38
-0.045908574 -0.12830856 1.2360001 1.4381012e-38
-0.043730479 -0.12882763 1.2410001 1.4565403e-38
-0.041499998 -0.12924285 1.245 1.5206084e-38
-0.039128572 -0.12924285 1.245 1.465291e-38
-0.12212857 -0.12687142 1.245 1.5668126e-38
-0.11937238 -0.12646382 1.2410001 1.6221299e-38
-0.11700858 -0.12646382 1.2410001 1.4476111e-38
-0.11464477 -0.12646382 1.2410001 1.3277568e-38
-0.11182857 -0.1259543 1.2360001 1.309606e-38
-0.10947429 -0.1259543 1.2360001 1.3649234e-38
-0.10677334 -0.12554666 1.2320001 1.1068833e-38
-0.10400286 -0.12503716 1.2270001 7.7497901e-39
-0.10166572 -0.12503716 1.2270001 6.2804207e-39
-0.099328585 -0.12503716 1.2270001 6.5570076e-39
-0.096991435 -0.12503716 1.2270001 1.014324e-38
-0.094654292 -0.12503716 1.2270001 1.5214e-38
-0.092317149 -0.12503716 1.2270001 1.6499052e-38
-0.089980014 -0.12503716 1.2270001 1.4101966e-38
-0.087357149 -0.12462953 1.223 1.1614417e-38
-0.085027628 -0.12462953 1.223 1.050807e-38
-0.082427621 -0.12422191 1.2190001 1.0137882e-38
-0.080105722 -0.12422191 1.2190001 9.9534903e-39
-0.077783816 -0.12422191 1.2190001 1.0689199e-38
-0.075461909 -0.12422191 1.2190001 1.5206784e-38
-0.073140003 -0.12422191 1.2190001 1.5761078e-38
-0.07105048 -0.12462953 1.223 1.5945469e-38
-0.068945721 -0.12503716 1.2270001 1.5026048e-38
-0.066608571 -0.12503716 1.2270001 1.1983592e-38
-0.064271435 -0.12503716 1.2270001 1.134146e-38
-0.061934292 -0.12503716 1.2270001 1.134146e-38
-0.059597149 -0.12503716 1.2270001 1.3180674e-38
-0.057493336 -0.12554666 1.2320001 1.6315325e-38
-0.055146672 -0.12554666 1.2320001 1.3463048e-38
-0.052800007 -0.12554666 1.2320001 8.6688751e-39
-0.050453339 -0.12554666 1.2320001 8.2110723e-39
-0.048262861 -0.1259543 1.2360001 1.2820854e-38
-0.045908574 -0.1259543 1.2360001 1.5209733e-38
-0.043730479 -0.12646382 1.2410001 1.5025342e-38
-0.041499998 -0.12687142 1.245 1.4839109e-38
-0.039128572 -0.12687142 1.245 1.4562522e-38
-0.12212857 -0.12450001 1.245 1.6036908e-38
-0.11937238 -0.12410001 1.2410001 1.7235451e-38
-0.11700858 -0.12410001 1.2410001 1.4476457e-38
-0.11464477 -0.12410001 1.2410001 1.3001327e-38
-0.11182857 -0.1236 1.2360001 1.3739638e-38
-0.10947429 -0.1236 1.2360001 1.4569398e-38
-0.10677334 -0.12320001 1.2320001 1.2450685e-38
-0.10400286 -0.12270001 1.2270001 7.4721214e-39
-0.10166572 -0.12270001 1.2270001 5.9131152e-39
-0.099328585 -0.12270001 1.2270001 6.3740933e-39
-0.096991435 -0.12270001 1.2270001 8.9465172e-39
-0.094654292 -0.12270001 1.2270001 1.2634342e-38
-0.092317149 -0.12270001 1.2270001 1.4933122e-38
-0.089980014 -0.12270001 1.2270001 1.1429688e-38
-0.087357149 -0.12230001 1.223 1.0875093e-38
-0.085027628 -0.12230001 1.223 1.0782898e-38
-0.082427621 -0.12190001 1.2190001 1.032192e-38
-0.080105722 -0.12190001 1.2190001 1.0414115e-38
-0.077783816 -0.12190001 1.2190001 1.0598146e-38
-0.075461909 -0.12190001 1.2190001 1.3087428e-38
-0.073140003 -0.12190001 1.2190001 1.5116059e-38
-0.07105048 -0.12230001 1.223 1.5392646e-38
-0.068945721 -0.12270001 1.2270001 1.4288832e-38
-0.066608571 -0.12270001 1.2270001 1.1891745e-38
-0.064271435 -0.12270001 1.2270001 1.0972684e-38
-0.061934292 -0.12270001 1.2270001 1.0880488e-38
-0.059840005 -0.12320001 1.2320001 1.354803e-38
-0.057493336 -0.12320001 1.2320001 1.6959268e-38
-0.055146672 -0.12320001 1.2320001 1.5763946e-38
-0.052800007 -0.12320001 1.2320001 1.1154165e-38
-0.050617144 -0.1236 1.2360001 1.0697892e-38
-0.048262861 -0.1236 1.2360001 1.3555957e-38
-0.045908574 -0.1236 1.2360001 1.5577802e-38
-0.043730479 -0.12410001 1.2410001 1.5393411e-38
-0.041499998 -0.12450001 1.245 1.5022053e-38
-0.039128572 -0.12450001 1.245 1.4837661e-38
-0.11937238 -0.12173619 1.2410001 1.6313145e-38
-0.11700858 -0.12173619 1.2410001 1.4751965e-38
-0.11464477 -0.12173619 1.2410001 1.4475378e-38
-0.11182857 -0.12124572 1.2360001 1.4936386e-38
-0.10947429 -0.12124572 1.2360001 1.5581755e-38
-0.10677334 -0.12085334 1.2320001 1.27273e-38
-0.10400286 -0.12036287 1.2270001 7.3799538e-39
-0.10166572 -0.12036287 1.2270001 5.912004e-39
-0.099328585 -0.12036287 1.2270001 5.912004e-39
-0.096991435 -0.12036287 1.2270001 7.2891482e-39
-0.094654292 -0.12036287 1.2270001 1.3097473e-38
-0.092317149 -0.12036287 1.2270001 1.392295e-38
-0.089980014 -0.12036287 1.2270001 1.180245e-38
-0.087357149 -0.11997048 1.223 1.0783251e-38
-0.085027628 -0.11997048 1.223 1.0691055e-38
-0.082698092 -0.11997048 1.223 1.0137882e-38
-0.080368571 -0.11997048 1.223 1.0322273e-38
-0.07803905 -0.11997048 1.223 1.0138607e-38
-0.075709529 -0.11997048 1.223 1.3273259e-38
-0.073380001 -0.11997048 1.223 1.3918248e-38
-0.07105048 -0.11997048 1.223 1.5116792e-38
-0.068945721 -0.12036287 1.2270001 1.3920063e-38
-0.066608571 -0.12036287 1.2270001 1.1799564e-38
-0.064271435 -0.12036287 1.2270001 1.1064867e-38
-0.06218667 -0.12085334 1.2320001 1.1249258e-38
-0.059840005 -0.12085334 1.2320001 1.5021002e-38
-0.057493336 -0.12085334 1.2320001 1.7049306e-38
-0.055146672 -0.12085334 1.2320001 1.6224927e-38
-0.052800007 -0.12085334 1.2320001 1.3920037e-38
-0.050617144 -0.12124572 1.2360001 1.189429e-38
-0.048262861 -0.12124572 1.2360001 1.3922594e-38
-0.046094287 -0.12173619 1.2410001 1.5853304e-38
-0.043730479 -0.12173619 1.2410001 1.5484522e-38
-0.041499998 -0.12212857 1.245 1.5022053e-38
-0.039128572 -0.12212857 1.245 1.4837661e-38
-0.03690476 -0.12261905 1.25 1.4284109e-38
-0.11937238 -0.11937238 1.2410001 1.5114261e-38
-0.11700858 -0.11937238 1.2410001 1.5669602e-38
-0.11418286 -0.11889143 1.2360001 1.7052537e-38
-0.11182857 -0.11889143 1.2360001 1.6777751e-38
-0.10912001 -0.11850668 1.2320001 1.6501164e-38
-0.10677334 -0.11850668 1.2320001 1.4290323e-38
-0.10400286 -0.11802572 1.2270001 1.1247867e-38
-0.10166572 -0.11802572 1.2270001 8.0296392e-39
-0.099328585 -0.11802572 1.2270001 7.7530523e-39
-0.097386681 -0.11850668 1.2320001 9.5915699e-39
-0.094654292 -0.11802572 1.2270001 1.4385743e-38
-0.092317149 -0.11802572 1.2270001 1.5486999e-38
-0.089980014 -0.11802572 1.2270001 1.4933826e-38
-0.087642863 -0.11802572 1.2270001 1.2350955e-38
-0.085027628 -0.11764096 1.223 1.013826e-38
-0.082698092 -0.11764096 1.223 1.0138607e-38
-0.080368571 -0.11764096 1.223 1.0046412e-38
-0.07803905 -0.11764096 1.223 1.1611207e-38
-0.075709529 -0.11764096 1.223 1.5206836e-38
-0.073380001 -0.11764096 1.223 1.5484491e-38
-0.071282864 -0.11802572 1.2270001 1.6314252e-38
-0.068945721 -0.11802572 1.2270001 1.5486646e-38
-0.066608571 -0.11802572 1.2270001 1.3366147e-38
-0.064271435 -0.11802572 1.2270001 1.3274338e-38
-0.06218667 -0.11850668 1.2320001 1.4196294e-38
-0.059840005 -0.11850668 1.2320001 1.4379241e-38
-0.057493336 -0.11850668 1.2320001 1.2996306e-38
-0.055146672 -0.11850668 1.2320001 1.4563961e-38
-0.052800007 -0.11850668 1.2320001 1.6961048e-38
-0.050617144 -0.11889143 1.2360001 1.557995e-38
-0.048262861 -0.11889143 1.2360001 1.475019e-38
-0.046094287 -0.11937238 1.2410001 1.4933136e-38
-0.043730479 -0.11937238 1.2410001 1.4748745e-38
-0.041499998 -0.11975715 1.245 1.5022053e-38
-0.039128572 -0.11975715 1.245 1.5022053e-38
-0.03690476 -0.1202381 1.25 1.4838015e-38
-0.11937238 -0.11700858 1.2410001 1.5668141e-38
-0.11700858 -0.11700858 1.2410001 1.6495751e-38
-0.11418286 -0.11653715 1.2360001 1.8247468e-38
-0.11182857 -0.11653715 1.2360001 1.751209e-38
-0.10912001 -0.11616001 1.2320001 1.603696e-38
-0.10677334 -0.11616001 1.2320001 1.4935277e-38
-0.10400286 -0.11568858 1.2270001 1.2445995e-38
-0.10166572 -0.11568858 1.2270001 1.1066278e-38
-0.099328585 -0.11568858 1.2270001 1.06053e-38
-0.097386681 -0.11616001 1.2320001 1.2170148e-38
-0.095040008 -0.11616001 1.2320001 1.4936017e-38
-0.092317149 -0.11568858 1.2270001 1.6589041e-38
-0.089980014 -0.11568858 1.2270001 1.5851476e-38
-0.087642863 -0.11568858 1.2270001 1.4286697e-38
-0.085305721 -0.11568858 1.2270001 1.0967655e-38
-0.082698092 -0.11531143 1.223 1.0599529e-38
-0.080368571 -0.11531143 1.223 1.1060508e-38
-0.078294292 -0.11568858 1.2270001 1.2532783e-38
