# .PCD v0.7 - Point Cloud Data file format
VERSION 0.7
FIELDS x y z rgb
SIZE 4 4 4 4
TYPE F F F F
COUNT 1 1 1 1
WIDTH 1049
HEIGHT 1
VIEWPOINT 0 0 0 1 0 0 0
POINTS 1049
DATA ascii
-0.14301048 -0.17374 1.2410001 1.4008306e-38
-0.14064667 -0.17374 1.2410001 1.437854e-38
-0.13872856 -0.1743 1.245 1.5208301e-38
-0.13635714 -0.1743 1.245 1.511755e-38
-0.13398571 -0.1743 1.245 1.594731e-38
-0.13214286 -0.175 1.25 1.6131339e-38
-0.1297619 -0.175 1.25 1.6223534e-38
-0.1278905 -0.17570001 1.2550001 1.6039516e-38
-0.12550001 -0.17570001 1.2550001 1.659269e-38
-0.12310953 -0.17570001 1.2550001 1.6409375e-38
-0.12110382 -0.17626001 1.2590001 1.6870353e-38
-0.11870572 -0.17626001 1.2590001 1.6870358e-38
-0.11630762 -0.17626001 1.2590001 1.6962554e-38
-0.11390953 -0.17626001 1.2590001 1.7145866e-38
-0.11151143 -0.17626001 1.2590001 1.7238062e-38
-0.10911334 -0.17626001 1.2590001 1.7329907e-38
-0.10713905 -0.17696001 1.2640001 1.7422103e-38
-0.10473143 -0.17696001 1.2640001 1.7239141e-38
-0.10232381 -0.17696001 1.2640001 1.7146945e-38
-0.09991619 -0.17696001 1.2640001 1.6870718e-38
-0.097508572 -0.17696001 1.2640001 1.6870718e-38
-0.095100954 -0.17696001 1.2640001 1.6962198e-38
-0.092693336 -0.17696001 1.2640001 1.6870002e-38
-0.090285718 -0.17696001 1.2640001 1.6593416e-38
-0.087878101 -0.17696001 1.2640001 1.650122e-38
-0.08513239 -0.17626001 1.2590001 1.6224633e-38
-0.082734287 -0.17626001 1.2590001 1.6040242e-38
-0.080080956 -0.17570001 1.2550001 1.5579266e-38
-0.077690482 -0.17570001 1.2550001 1.5487071e-38
-0.074699998 -0.1743 1.245 1.5577822e-38
-0.072096191 -0.17374 1.2410001 1.5301235e-38
-0.069226667 -0.17248002 1.2320001 1.4656206e-38
-0.066391431 -0.17122 1.223 1.3918641e-38
-0.063852385 -0.17066 1.2190001 1.3550199e-38
-0.061278097 -0.16996002 1.2140001 1.373459e-38
-0.05896572 -0.16996002 1.2140001 1.2725797e-38
-0.056653336 -0.16996002 1.2140001 2.047023e-38
-0.054161906 -0.16940001 1.21 2.1664916e-38
-0.14347143 -0.17192857 1.245 1.520795e-38
-0.1411 -0.17192857 1.245 1.5208301e-38
-0.13872856 -0.17192857 1.245 1.5669279e-38
-0.13635714 -0.17192857 1.245 1.5485263e-38
-0.13398571 -0.17192857 1.245 1.6038437e-38
-0.13214286 -0.17261904 1.25 1.6130988e-38
-0.1297619 -0.17261904 1.25 1.6130988e-38
-0.1278905 -0.17330955 1.2550001 1.6039521e-38
-0.12550001 -0.17330955 1.2550001 1.6684891e-38
-0.12310953 -0.17330955 1.2550001 1.6409377e-38
-0.12110382 -0.17386191 1.2590001 1.6870356e-38
-0.11870572 -0.17386191 1.2590001 1.6686327e-38
-0.11630762 -0.17386191 1.2590001 1.6501936e-38
-0.11390953 -0.17386191 1.2590001 1.6685258e-38
-0.11151143 -0.17386191 1.2590001 1.6777454e-38
-0.10911334 -0.17386191 1.2590001 1.7052964e-38
-0.10713905 -0.1745524 1.2640001 1.7421747e-38
-0.10473143 -0.1745524 1.2640001 1.6962198e-38
-0.10232381 -0.1745524 1.2640001 1.6777807e-38
-0.09991619 -0.1745524 1.2640001 1.6410093e-38
-0.097508572 -0.1745524 1.2640001 1.6502289e-38
-0.095100954 -0.1745524 1.2640001 1.6316831e-38
-0.092693336 -0.1745524 1.2640001 1.6316831e-38
-0.090285718 -0.1745524 1.2640001 1.6131364e-38
-0.087878101 -0.1745524 1.2640001 1.6131364e-38
-0.085470475 -0.1745524 1.2640001 1.6131001e-38
-0.082734287 -0.17386191 1.2590001 1.5854414e-38
-0.080080956 -0.17330955 1.2550001 1.5853695e-38
-0.077690482 -0.17330955 1.2550001 1.5945891e-38
-0.074699998 -0.17192857 1.245 1.5946592e-38
-0.071805716 -0.17068571 1.2360001 1.5946592e-38
-0.068720959 -0.16889048 1.223 1.5947648e-38
-0.066174291 -0.16833812 1.2190001 1.5302279e-38
-0.063590482 -0.16764763 1.2140001 1.4286009e-38
-0.061278097 -0.16764763 1.2140001 1.576114e-38
-0.058771431 -0.16709524 1.21 1.6404413e-38
-0.056466665 -0.16709524 1.21 2.1290767e-38
-0.054161906 -0.16709524 1.21 2.0466698e-38
-0.14347143 -0.16955714 1.245 1.5852571e-38
-0.1411 -0.16955714 1.245 1.5668931e-38
-0.13872856 -0.16955714 1.245 1.5853323e-38
-0.13635714 -0.16955714 1.245 1.5485263e-38
-0.13398571 -0.16955714 1.245 1.6222828e-38
-0.1316143 -0.16955714 1.245 1.5948029e-38
-0.12924285 -0.16955714 1.245 1.6040225e-38
-0.1278905 -0.17091906 1.2550001 1.6039516e-38
-0.1259 -0.17146382 1.2590001 1.6408298e-38
-0.1235019 -0.17146382 1.2590001 1.613279e-38
-0.12110382 -0.17146382 1.2590001 1.677816e-38
-0.11870572 -0.17146382 1.2590001 1.6502655e-38
-0.11630762 -0.17146382 1.2590001 1.6410459e-38
-0.11390953 -0.17146382 1.2590001 1.6501583e-38
-0.11151143 -0.17146382 1.2590001 1.677817e-38
-0.10911334 -0.17146382 1.2590001 1.6961478e-38
-0.10713905 -0.17214477 1.2640001 1.7145869e-38
-0.10473143 -0.17214477 1.2640001 1.677816e-38
-0.10232381 -0.17214477 1.2640001 1.677816e-38
-0.09991619 -0.17214477 1.2640001 1.6225699e-38
-0.097508572 -0.17214477 1.2640001 1.6225699e-38
-0.095100954 -0.17214477 1.2640001 1.5947673e-38
-0.092693336 -0.17214477 1.2640001 1.6316456e-38
-0.090285718 -0.17214477 1.2640001 1.6498702e-38
-0.087878101 -0.17214477 1.2640001 1.6590897e-38
-0.085470475 -0.17214477 1.2640001 1.6406506e-38
-0.083062857 -0.17214477 1.2640001 1.6406506e-38
-0.080336191 -0.17146382 1.2590001 1.6406153e-38
-0.077690482 -0.17091906 1.2550001 1.6313957e-38
-0.074699998 -0.16955714 1.245 1.6406491e-38
-0.070527628 -0.16533525 1.2140001 1.6683078e-38
-0.068215244 -0.16533525 1.2140001 1.6499402e-38
-0.065685712 -0.16479047 1.21 1.465549e-38
-0.063380957 -0.16479047 1.21 1.4101544e-38
-0.061076194 -0.16479047 1.21 1.5761065e-38
-0.058771431 -0.16479047 1.21 1.9077308e-38
-0.056466665 -0.16479047 1.21 2.0460243e-38
-0.054161906 -0.16479047 1.21 1.9082344e-38
-0.13794 -0.16074 1.197 1.539159e-38
-0.13566001 -0.16074 1.197 1.5669642e-38
-0.13928571 -0.16785714 1.25 1.6038424e-38
-0.13690476 -0.16785714 1.25 1.5670733e-38
-0.13452381 -0.16785714 1.25 1.6500494e-38
-0.1316143 -0.16718571 1.245 1.6500835e-38
-0.12924285 -0.16718571 1.245 1.6500835e-38
-0.1282981 -0.16906573 1.2590001 1.6499771e-38
-0.1259 -0.16906573 1.2590001 1.6960749e-38
-0.11663524 -0.15966572 1.189 1.686856e-38
-0.11437048 -0.15966572 1.189 1.7329539e-38
-0.11917715 -0.16973716 1.2640001 1.7054747e-38
-0.11676953 -0.16973716 1.2640001 1.7423529e-38
-0.11390953 -0.16906573 1.2590001 1.7423527e-38
-0.11151143 -0.16906573 1.2590001 1.7884505e-38
-0.10954667 -0.16973716 1.2640001 1.7792665e-38
-0.10713905 -0.16973716 1.2640001 1.8069252e-38
-0.10473143 -0.16973716 1.2640001 1.8161447e-38
-0.10232381 -0.16973716 1.2640001 1.8253643e-38
-0.09991619 -0.16973716 1.2640001 1.8345113e-38
-0.097508572 -0.16973716 1.2640001 1.7791939e-38
-0.095100954 -0.16973716 1.2640001 1.7516431e-38
-0.092693336 -0.16973716 1.2640001 1.7516431e-38
-0.090285718 -0.16973716 1.2640001 1.705546e-38
-0.088156193 -0.17027427 1.268 1.705546e-38
-0.085740954 -0.17027427 1.268 1.6870353e-38
-0.083062857 -0.16973716 1.2640001 1.7239135e-38
-0.08065524 -0.16973716 1.2640001 1.6594134e-38
-0.077938102 -0.16906573 1.2590001 1.52112e-38
-0.072119996 -0.16141143 1.202 1.5118989e-38
-0.069830477 -0.16141143 1.202 1.5672163e-38
-0.067540951 -0.16141143 1.202 1.5672146e-38
-0.065468572 -0.16194858 1.2060001 1.1707734e-38
-0.063171431 -0.16194858 1.2060001 1.1153812e-38
-0.060874287 -0.16194858 1.2060001 1.4380659e-38
-0.058577146 -0.16194858 1.2060001 1.8158899e-38
-0.056466665 -0.16248572 1.21 1.834329e-38
-0.054161906 -0.16248572 1.21 1.7881974e-38
-0.14309524 -0.1591219 1.202 9.6813048e-39
-0.14080572 -0.1591219 1.202 9.3084838e-39
-0.13794 -0.15846001 1.197 1.3457287e-38
-0.13566001 -0.15846001 1.197 1.3826798e-38
-0.13338 -0.15846001 1.197 1.4564363e-38
-0.1311 -0.15846001 1.197 1.4474348e-38
-0.12838952 -0.15793048 1.1930001 1.4658739e-38
-0.12611714 -0.15793048 1.1930001 1.539484e-38
-0.12384477 -0.15793048 1.1930001 1.6593383e-38
-0.12116476 -0.15740095 1.189 1.6776365e-38
-0.1189 -0.15740095 1.189 1.6776365e-38
-0.11663524 -0.15740095 1.189 1.7053292e-38
-0.11437048 -0.15740095 1.189 1.7145488e-38
-0.11210571 -0.15740095 1.189 1.7146219e-38
-0.11676953 -0.16732953 1.2640001 1.7699393e-38
-0.1143619 -0.16732953 1.2640001 1.7423532e-38
-0.10460287 -0.15634191 1.1810001 1.7331336e-38
-0.10235334 -0.15634191 1.1810001 1.7516438e-38
-0.10713905 -0.16732953 1.2640001 1.8161808e-38
-0.10473143 -0.16732953 1.2640001 1.8438044e-38
-0.10232381 -0.16732953 1.2640001 1.8622435e-38
-0.09991619 -0.16732953 1.2640001 1.8437678e-38
-0.097508572 -0.16732953 1.2640001 1.7884505e-38
-0.095401898 -0.16785905 1.268 1.7793394e-38
-0.086606674 -0.15634191 1.1810001 1.7424611e-38
-0.08435715 -0.15634191 1.1810001 1.5492087e-38
-0.082107626 -0.15634191 1.1810001 1.4477935e-38
-0.079858102 -0.15634191 1.1810001 1.5212264e-38
-0.077871434 -0.15687144 1.1850001 1.6779589e-38
-0.075869523 -0.15740095 1.189 1.5860172e-38
-0.073852383 -0.15793048 1.1930001 1.2080151e-38
-0.07158 -0.15793048 1.1930001 1.2448504e-38
-0.069539994 -0.15846001 1.197 1.4476807e-38
-0.067540951 -0.1591219 1.202 1.4566203e-38
-0.065251425 -0.1591219 1.202 1.1154965e-38
-0.062961906 -0.1591219 1.202 8.3954145e-39
-0.060420003 -0.15846001 1.197 1.2175434e-38
-0.057751428 -0.15740095 1.189 1.6313582e-38
-0.055486668 -0.15740095 1.189 1.7235538e-38
-0.053221904 -0.15740095 1.189 1.668309e-38
-0.1425 -0.15617999 1.197 1.1154627e-38
-0.13975143 -0.1556581 1.1930001 8.9440551e-39
-0.13747905 -0.1556581 1.1930001 1.0419185e-38
-0.13520667 -0.1556581 1.1930001 9.6848165e-39
-0.13338 -0.15617999 1.197 9.6848165e-39
-0.1306619 -0.1556581 1.1930001 1.1340451e-38
-0.12838952 -0.1556581 1.1930001 1.3276559e-38
-0.12611714 -0.1556581 1.1930001 1.3735319e-38
-0.12384477 -0.1556581 1.1930001 1.5302644e-38
-0.12116476 -0.1551362 1.189 1.6500474e-38
-0.1189 -0.1551362 1.189 1.5486322e-38
-0.11663524 -0.1551362 1.189 1.4933143e-38
-0.11437048 -0.1551362 1.189 1.5117534e-38
-0.11172857 -0.15461428 1.1850001 1.6315389e-38
-0.10947143 -0.15461428 1.1850001 1.7421737e-38
-0.10721429 -0.15461428 1.1850001 1.5580696e-38
-0.10460287 -0.15409239 1.1810001 1.3828979e-38
-0.10235334 -0.15409239 1.1810001 1.3830809e-38
-0.10010382 -0.15409239 1.1810001 1.5951308e-38
-0.097854294 -0.15409239 1.1810001 1.7149091e-38
-0.09560477 -0.15409239 1.1810001 1.6595917e-38
-0.093355246 -0.15409239 1.1810001 1.5213023e-38
-0.091105722 -0.15409239 1.1810001 1.4936436e-38
-0.088856198 -0.15409239 1.1810001 1.6041689e-38
-0.086606674 -0.15409239 1.1810001 1.6226081e-38
-0.08435715 -0.15409239 1.1810001 1.4937802e-38
-0.082107626 -0.15409239 1.1810001 1.097339e-38
-0.079858102 -0.15409239 1.1810001 1.4384641e-38
-0.077871434 -0.15461428 1.1850001 1.6781728e-38
-0.075869523 -0.1551362 1.189 1.5033613e-38
-0.073852383 -0.1556581 1.1930001 6.4594198e-39
-0.07158 -0.1556581 1.1930001 6.2804586e-39
-0.069539994 -0.15617999 1.197 1.1443414e-38
-0.067259997 -0.15617999 1.197 1.4105959e-38
-0.065251425 -0.15683238 1.202 1.2262047e-38
-0.062961906 -0.15683238 1.202 9.6815851e-39
-0.060420003 -0.15617999 1.197 1.2078671e-38
-0.057751428 -0.1551362 1.189 1.6130963e-38
-0.055486668 -0.1551362 1.189 1.640755e-38
-0.053221904 -0.1551362 1.189 1.6130613e-38
-0.1425 -0.1539 1.197 1.2445369e-38
-0.13975143 -0.15338571 1.1930001 8.6717968e-39
-0.13747905 -0.15338571 1.1930001 7.1966667e-39
-0.13520667 -0.15338571 1.1930001 6.0027576e-39
-0.13338 -0.1539 1.197 6.1871489e-39
-0.1306619 -0.15338571 1.1930001 1.1065596e-38
-0.12838952 -0.15338571 1.1930001 1.3647073e-38
-0.12611714 -0.15338571 1.1930001 1.3462347e-38
-0.12384477 -0.15338571 1.1930001 1.4845282e-38
-0.12116476 -0.15287143 1.189 1.6134588e-38
-0.1189 -0.15287143 1.189 1.272335e-38
-0.11663524 -0.15287143 1.189 1.225911e-38
-0.11437048 -0.15287143 1.189 1.2996675e-38
-0.11172857 -0.15235715 1.1850001 1.5855443e-38
-0.10947143 -0.15235715 1.1850001 1.6593008e-38
-0.10721429 -0.15235715 1.1850001 1.5305919e-38
-0.10460287 -0.15184286 1.1810001 1.3554202e-38
-0.10235334 -0.15184286 1.1810001 1.3005342e-38
-0.10010382 -0.15184286 1.1810001 1.6139993e-38
-0.097854294 -0.15184286 1.1810001 1.6874318e-38
-0.09560477 -0.15184286 1.1810001 1.4661623e-38
-0.093355246 -0.15184286 1.1810001 1.3649995e-38
-0.091105722 -0.15184286 1.1810001 1.3742191e-38
-0.088856198 -0.15184286 1.1810001 1.5674689e-38
-0.086606674 -0.15184286 1.1810001 1.650445e-38
-0.08435715 -0.15184286 1.1810001 1.5857633e-38
-0.082385719 -0.15235715 1.1850001 1.5396655e-38
-0.080128573 -0.15235715 1.1850001 1.4754541e-38
-0.077871434 -0.15235715 1.1850001 1.4201367e-38
-0.075869523 -0.15287143 1.189 1.2452155e-38
-0.073852383 -0.15338571 1.1930001 5.9062656e-39
-0.071820006 -0.1539 1.197 3.5260957e-39
-0.069539994 -0.1539 1.197 7.6748991e-39
-0.067259997 -0.1539 1.197 1.3003206e-38
-0.065251425 -0.15454286 1.202 1.1712467e-38
-0.062961906 -0.15454286 1.202 8.6695113e-39
-0.060420003 -0.1539 1.197 1.2265141e-38
-0.058139998 -0.1539 1.197 1.5209032e-38
-0.056093335 -0.15454286 1.202 1.5762206e-38
-0.053803809 -0.15454286 1.202 1.5669645e-38
-0.14357144 -0.15276001 1.2060001 1.3552057e-38
-0.1412743 -0.15276001 1.2060001 7.5669192e-39
-0.13851619 -0.15225333 1.202 4.9854416e-39
-0.13622667 -0.15225333 1.202 3.3395465e-39
-0.13338 -0.15162 1.197 2.8785683e-39
-0.1311 -0.15162 1.197 6.2797299e-39
-0.12838952 -0.15111333 1.1930001 1.1903663e-38
-0.12611714 -0.15111333 1.1930001 1.4659108e-38
-0.12384477 -0.15111333 1.1930001 1.5857651e-38
-0.12116476 -0.15060668 1.189 1.5120058e-38
-0.1189 -0.15060668 1.189 1.0418081e-38
-0.11663524 -0.15060668 1.189 9.8652855e-39
-0.11437048 -0.15060668 1.189 1.0326264e-38
-0.11172857 -0.15010001 1.1850001 1.2631799e-38
-0.10947143 -0.15010001 1.1850001 1.6043037e-38
-0.10721429 -0.15010001 1.1850001 1.6593441e-38
-0.10495715 -0.15010001 1.1850001 1.788418e-38
-0.1027 -0.15010001 1.1850001 1.7150873e-38
-0.10010382 -0.14959334 1.1810001 1.7335264e-38
-0.097854294 -0.14959334 1.1810001 1.5403507e-38
-0.09560477 -0.14959334 1.1810001 1.3098616e-38
-0.093355246 -0.14959334 1.1810001 1.181149e-38
-0.091414295 -0.15010001 1.1850001 1.181149e-38
-0.088856198 -0.14959334 1.1810001 1.34681e-38
-0.086606674 -0.14959334 1.1810001 1.4851034e-38
-0.084642865 -0.15010001 1.1850001 1.6410835e-38
-0.082385719 -0.15010001 1.1850001 1.8346943e-38
-0.080399044 -0.15060668 1.189 1.567544e-38
-0.078134283 -0.15060668 1.189 1.0420289e-38
-0.076124765 -0.15111333 1.1930001 5.2731688e-39
-0.073852383 -0.15111333 1.1930001 5.0887775e-39
-0.07158 -0.15111333 1.1930001 4.7236006e-39
-0.069539994 -0.15162 1.197 4.7236006e-39
-0.067259997 -0.15162 1.197 1.0239826e-38
-0.06498 -0.15162 1.197 1.014763e-38
-0.062699996 -0.15162 1.197 8.574855e-39
-0.060420003 -0.15162 1.197 1.2354876e-38
-0.058139998 -0.15162 1.197 1.5393067e-38
-0.055859998 -0.15162 1.197 1.5854046e-38
-0.14357144 -0.15046287 1.2060001 1.3643183e-38
-0.1412743 -0.15046287 1.2060001 7.2013611e-39
-0.13851619 -0.14996381 1.202 3.974514e-39
-0.13622667 -0.14996381 1.202 2.0524202e-39
-0.13338 -0.14934 1.197 1.9602246e-39
-0.1311 -0.14934 1.197 4.6252182e-39
-0.12838952 -0.14884095 1.1930001 1.0156956e-38
-0.12611714 -0.14884095 1.1930001 1.4475793e-38
-0.12384477 -0.14884095 1.1930001 1.4567989e-38
-0.12116476 -0.14834191 1.189 1.281518e-38
-0.1189 -0.14834191 1.189 9.8649198e-39
-0.11663524 -0.14834191 1.189 9.8656386e-39
-0.11437048 -0.14834191 1.189 9.8656386e-39
-0.11172857 -0.14784285 1.1850001 1.0417691e-38
-0.10947143 -0.14784285 1.1850001 1.2999169e-38
-0.10721429 -0.14784285 1.1850001 1.6591601e-38
-0.10495715 -0.14784285 1.1850001 1.9541861e-38
-0.1027 -0.14784285 1.1850001 1.8072141e-38
-0.10044286 -0.14784285 1.1850001 1.6228229e-38
-0.098185718 -0.14784285 1.1850001 1.2735244e-38
-0.09592858 -0.14784285 1.1850001 1.1813288e-38
-0.093671434 -0.14784285 1.1850001 1.1445584e-38
-0.091414295 -0.14784285 1.1850001 1.153778e-38
-0.089157149 -0.14784285 1.1850001 1.1444853e-38
-0.086900003 -0.14784285 1.1850001 1.1352657e-38
-0.084928572 -0.14834191 1.189 1.5582503e-38
-0.082663804 -0.14834191 1.189 1.8163981e-38
-0.080399044 -0.14834191 1.189 1.4941823e-38
-0.078134283 -0.14834191 1.189 6.7364117e-39
-0.076124765 -0.14884095 1.1930001 2.0592599e-39
-0.073852383 -0.14884095 1.1930001 3.7187813e-39
-0.07158 -0.14884095 1.1930001 3.8967055e-39
-0.069539994 -0.14934 1.197 3.7123143e-39
-0.067259997 -0.14934 1.197 9.9632615e-39
-0.06498 -0.14934 1.197 9.8710659e-39
-0.062699996 -0.14934 1.197 7.4695262e-39
-0.060420003 -0.14934 1.197 1.3185638e-38
-0.058139998 -0.14934 1.197 1.5393067e-38
-0.055859998 -0.14934 1.197 1.5669654e-38
-0.14357144 -0.14816572 1.2060001 1.3644956e-38
-0.1412743 -0.14816572 1.2060001 8.5800132e-39
-0.13897716 -0.14816572 1.2060001 6.5517093e-39
-0.13668001 -0.14816572 1.2060001 3.5235944e-39
-0.13393715 -0.14767428 1.202 2.9704206e-39
-0.13164762 -0.14767428 1.202 2.787114e-39
-0.12882 -0.14706001 1.197 5.9217654e-39
-0.12611714 -0.14656857 1.1930001 1.2449259e-38
-0.12384477 -0.14656857 1.1930001 1.3094628e-38
-0.12116476 -0.14607714 1.189 1.1893552e-38
-0.1189 -0.14607714 1.189 9.6808564e-39
-0.11663524 -0.14607714 1.189 1.0233718e-38
-0.11437048 -0.14607714 1.189 1.0971283e-38
-0.11172857 -0.14558572 1.1850001 1.0602851e-38
-0.10947143 -0.14558572 1.1850001 9.6808943e-39
-0.10721429 -0.14558572 1.1850001 1.0969135e-38
-0.10495715 -0.14558572 1.1850001 1.8252589e-38
-0.1027 -0.14558572 1.1850001 1.7336015e-38
-0.1007819 -0.14607714 1.189 1.364819e-38
-0.098185718 -0.14558572 1.1850001 1.071019e-38
-0.09592858 -0.14558572 1.1850001 1.1263364e-38
-0.093987621 -0.14607714 1.189 1.1721818e-38
-0.091722853 -0.14607714 1.189 1.1814014e-38
-0.089458093 -0.14607714 1.189 1.1537074e-38
-0.087193333 -0.14607714 1.189 1.0615118e-38
-0.084928572 -0.14607714 1.189 1.4202796e-38
-0.082941905 -0.14656857 1.1930001 1.7060861e-38
-0.080669522 -0.14656857 1.1930001 1.4113121e-38
-0.078397147 -0.14656857 1.1930001 6.1842973e-39
-0.076124765 -0.14656857 1.1930001 1.3253103e-39
-0.073852383 -0.14656857 1.1930001 1.7862884e-39
-0.071820006 -0.14706001 1.197 4.630658e-39
-0.069539994 -0.14706001 1.197 7.2121357e-39
-0.067259997 -0.14706001 1.197 1.2266688e-38
-0.065251425 -0.14767428 1.202 1.1713514e-38
-0.062961906 -0.14767428 1.202 1.1062364e-38
-0.06067238 -0.14767428 1.202 1.3551646e-38
-0.058382858 -0.14767428 1.202 1.5485613e-38
-0.056093335 -0.14767428 1.202 1.6223178e-38
-0.14404762 -0.14635238 1.21 1.3920852e-38
-0.14174286 -0.14635238 1.21 1.1894703e-38
-0.13897716 -0.14586858 1.2060001 8.4834651e-39
-0.13668001 -0.14586858 1.2060001 5.3596037e-39
-0.13438286 -0.14586858 1.2060001 3.5156911e-39
-0.13164762 -0.14538477 1.202 1.1336939e-39
-0.1293581 -0.14538477 1.202 5.6512798e-39
-0.12611714 -0.1442962 1.1930001 1.1989738e-38
-0.12384477 -0.1442962 1.1930001 1.2819499e-38
-0.12116476 -0.14381239 1.189 1.1523019e-38
-0.1189 -0.14381239 1.189 9.6791062e-39
-0.11663524 -0.14381239 1.189 1.0141154e-38
-0.11437048 -0.14381239 1.189 1.106311e-38
-0.11210571 -0.14381239 1.189 1.0419185e-38
-0.10984095 -0.14381239 1.189 9.3128376e-39
-0.10757619 -0.14381239 1.189 9.9599643e-39
-0.10495715 -0.14332858 1.1850001 1.7796593e-38
-0.1027 -0.14332858 1.1850001 1.650987e-38
-0.1007819 -0.14381239 1.189 1.2361067e-38
-0.098517142 -0.14381239 1.189 1.006625e-38
-0.096252382 -0.14381239 1.189 1.1080402e-38
-0.093987621 -0.14381239 1.189 1.1539222e-38
-0.091722853 -0.14381239 1.189 1.1262635e-38
-0.089458093 -0.14381239 1.189 1.071019e-38
-0.087193333 -0.14381239 1.189 1.0433603e-38
-0.085214287 -0.1442962 1.1930001 1.4202446e-38
-0.082941905 -0.1442962 1.1930001 1.6876119e-38
-0.080669522 -0.1442962 1.1930001 1.2827087e-38
-0.078397147 -0.1442962 1.1930001 5.2670451e-39
-0.076124765 -0.1442962 1.1930001 1.7830598e-39
-0.073852383 -0.1442962 1.1930001 1.1376904e-39
-0.071820006 -0.14478 1.197 5.1812913e-39
-0.069539994 -0.14478 1.197 9.7910728e-39
-0.067259997 -0.14478 1.197 1.3554205e-38
-0.065251425 -0.14538477 1.202 1.2355662e-38
-0.062961906 -0.14538477 1.202 1.1340004e-38
-0.060874287 -0.14586858 1.2060001 1.3644894e-38
-0.058577146 -0.14586858 1.2060001 1.5393418e-38
-0.14404762 -0.14404762 1.21 1.5118313e-38
-0.14174286 -0.14404762 1.21 1.1711041e-38
-0.13943809 -0.14404762 1.21 1.0328106e-38
-0.13668001 -0.14357144 1.2060001 5.1759873e-39
-0.13438286 -0.14357144 1.2060001 2.9632922e-39
-0.13208573 -0.14357144 1.2060001 3.7983764e-39
-0.1293581 -0.14309524 1.202 1.0252071e-38
-0.12611714 -0.14202382 1.1930001 1.5212982e-38
-0.12384477 -0.14202382 1.1930001 1.5858352e-38
-0.12116476 -0.14154762 1.189 1.419671e-38
-0.1189 -0.14154762 1.189 1.0140103e-38
-0.11663524 -0.14154762 1.189 9.4057395e-39
-0.11437048 -0.14154762 1.189 9.6823264e-39
-0.11210571 -0.14154762 1.189 9.8642135e-39
-0.10984095 -0.14154762 1.189 1.161593e-38
-0.10757619 -0.14154762 1.189 1.2077312e-38
-0.10531143 -0.14154762 1.189 1.8254419e-38
-0.10304666 -0.14154762 1.189 1.7243835e-38
-0.1007819 -0.14154762 1.189 1.5123336e-38
-0.098517142 -0.14154762 1.189 1.1812945e-38
-0.096252382 -0.14154762 1.189 1.1444162e-38
-0.093987621 -0.14154762 1.189 1.0894934e-38
-0.092031434 -0.14202382 1.1930001 1.0802739e-38
-0.089759052 -0.14202382 1.1930001 1.2364664e-38
-0.087486669 -0.14202382 1.1930001 1.4116381e-38
-0.085214287 -0.14202382 1.1930001 1.6321501e-38
-0.082941905 -0.14202382 1.1930001 1.7427848e-38
-0.080669522 -0.14202382 1.1930001 1.5861271e-38
-0.078397147 -0.14202382 1.1930001 1.3279793e-38
-0.076124765 -0.14202382 1.1930001 5.6456003e-39
-0.074100003 -0.1425 1.197 3.0641227e-39
-0.071820006 -0.1425 1.197 6.9290846e-39
-0.069539994 -0.1425 1.197 1.2184235e-38
-0.067540951 -0.14309524 1.202 1.3186493e-38
-0.065251425 -0.14309524 1.202 1.1619167e-38
-0.063171431 -0.14357144 1.2060001 1.1249277e-38
-0.060874287 -0.14357144 1.2060001 1.3369776e-38
-0.058577146 -0.14357144 1.2060001 1.5393761e-38
-0.14404762 -0.14174286 1.21 1.5026115e-38
-0.14174286 -0.14174286 1.21 1.2997448e-38
-0.13943809 -0.14174286 1.21 1.0876949e-38
-0.13713333 -0.14174286 1.21 9.2271006e-39
-0.13438286 -0.1412743 1.2060001 6.9222098e-39
-0.13208573 -0.1412743 1.2060001 7.7512698e-39
-0.12978858 -0.1412743 1.2060001 1.3283008e-38
-0.12654001 -0.14022 1.197 1.5395942e-38
-0.12384477 -0.13975143 1.1930001 1.5488137e-38
-0.12157239 -0.13975143 1.1930001 1.4843872e-38
-0.11930001 -0.13975143 1.1930001 1.1709221e-38
-0.11663524 -0.13928285 1.189 1.0140813e-38
-0.11437048 -0.13928285 1.189 9.403248e-39
-0.11210571 -0.13928285 1.189 9.4046577e-39
-0.10984095 -0.13928285 1.189 1.3276874e-38
-0.10757619 -0.13928285 1.189 1.6313973e-38
-0.10531143 -0.13928285 1.189 1.806569e-38
-0.10304666 -0.13928285 1.189 1.7334185e-38
-0.10112096 -0.13975143 1.1930001 1.6873207e-38
-0.098848581 -0.13975143 1.1930001 1.4849983e-38
-0.096576199 -0.13975143 1.1930001 1.2452897e-38
-0.094303817 -0.13975143 1.1930001 1.0525774e-38
-0.092031434 -0.13975143 1.1930001 1.080236e-38
-0.089759052 -0.13975143 1.1930001 1.3559241e-38
-0.087486669 -0.13975143 1.1930001 1.5771937e-38
-0.085214287 -0.13975143 1.1930001 1.6963996e-38
-0.082941905 -0.13975143 1.1930001 1.6503018e-38
-0.080669522 -0.13975143 1.1930001 1.6596283e-38
-0.078397147 -0.13975143 1.1930001 1.5766522e-38
-0.076380007 -0.14022 1.197 1.2179552e-38
-0.074100003 -0.14022 1.197 9.0449009e-39
-0.071820006 -0.14022 1.197 9.6913536e-39
-0.069830477 -0.14080572 1.202 1.1811853e-38
-0.06776572 -0.1412743 1.2060001 1.2909534e-38
-0.065468572 -0.1412743 1.2060001 1.088123e-38
-0.063171431 -0.1412743 1.2060001 1.1249973e-38
-0.060874287 -0.1412743 1.2060001 1.3370472e-38
-0.058771431 -0.14174286 1.21 1.4748401e-38
-0.056466665 -0.14174286 1.21 1.5024988e-38
-0.054161906 -0.14174286 1.21 1.4932067e-38
-0.14404762 -0.13943809 1.21 1.5117938e-38
-0.14174286 -0.13943809 1.21 1.1709233e-38
-0.13943809 -0.13943809 1.21 6.3618866e-39
-0.13713333 -0.13943809 1.21 7.195613e-39
-0.13438286 -0.13897716 1.2060001 1.2450764e-38
-0.13208573 -0.13897716 1.2060001 1.3372317e-38
-0.12978858 -0.13897716 1.2060001 1.3741099e-38
-0.12654001 -0.13794 1.197 1.328118e-38
-0.12384477 -0.13747905 1.1930001 1.2728007e-38
-0.12157239 -0.13747905 1.1930001 1.3922985e-38
-0.11930001 -0.13747905 1.1930001 1.5951289e-38
-0.11663524 -0.1370181 1.189 1.4751301e-38
-0.11437048 -0.1370181 1.189 1.1616649e-38
-0.11210571 -0.1370181 1.189 1.2721227e-38
-0.10984095 -0.1370181 1.189 1.8437356e-38
-0.10757619 -0.1370181 1.189 1.7056923e-38
-0.10531143 -0.1370181 1.189 1.290812e-38
-0.10304666 -0.1370181 1.189 1.4387126e-38
-0.10112096 -0.13747905 1.1930001 1.7429582e-38
-0.098848581 -0.13747905 1.1930001 1.7336028e-38
-0.096576199 -0.13747905 1.1930001 1.6414072e-38
-0.094303817 -0.13747905 1.1930001 1.4852469e-38
-0.092031434 -0.13747905 1.1930001 1.4668078e-38
-0.089759052 -0.13747905 1.1930001 1.5861964e-38
-0.087486669 -0.13747905 1.1930001 1.6230747e-38
-0.085214287 -0.13747905 1.1930001 1.401448e-38
-0.082941905 -0.13747905 1.1930001 1.041885e-38
-0.080669522 -0.13747905 1.1930001 1.2538608e-38
-0.078397147 -0.13747905 1.1930001 1.7056194e-38
-0.076380007 -0.13794 1.197 1.6412973e-38
-0.074100003 -0.13794 1.197 1.6044191e-38
-0.071820006 -0.13794 1.197 1.46645e-38
-0.069830477 -0.13851619 1.202 1.1806436e-38
-0.06776572 -0.13897716 1.2060001 1.0332745e-38
-0.065468572 -0.13897716 1.2060001 9.2263971e-39
-0.063171431 -0.13897716 1.2060001 1.0328747e-38
-0.060874287 -0.13897716 1.2060001 1.2541442e-38
-0.058771431 -0.13943809 1.21 1.4747678e-38
-0.056466665 -0.13943809 1.21 1.4563287e-38
-0.054161906 -0.13943809 1.21 1.4654761e-38
-0.14404762 -0.13713333 1.21 1.5762231e-38
-0.14174286 -0.13713333 1.21 1.2168767e-38
-0.13943809 -0.13713333 1.21 5.4384856e-39
-0.13713333 -0.13713333 1.21 8.0219867e-39
-0.13438286 -0.13668001 1.2060001 1.4936659e-38
-0.13208573 -0.13668001 1.2060001 1.4843499e-38
-0.12978858 -0.13668001 1.2060001 1.3183978e-38
-0.12706856 -0.13622667 1.202 1.0152669e-38
-0.12426001 -0.13566001 1.197 9.6916913e-39
-0.12157239 -0.13520667 1.1930001 1.3371238e-38
-0.11930001 -0.13520667 1.1930001 1.586052e-38
-0.11702763 -0.13520667 1.1930001 1.6226434e-38
-0.11475525 -0.13520667 1.1930001 1.5304477e-38
-0.11210571 -0.13475333 1.189 1.5027913e-38
-0.10984095 -0.13475333 1.189 1.7424999e-38
-0.10757619 -0.13475333 1.189 1.5586472e-38
-0.10531143 -0.13475333 1.189 8.3952127e-39
-0.10304666 -0.13475333 1.189 8.4009076e-39
-0.10112096 -0.13520667 1.1930001 1.3102885e-38
-0.098848581 -0.13520667 1.1930001 1.7886293e-38
-0.096576199 -0.13520667 1.1930001 1.8070684e-38
-0.094303817 -0.13520667 1.1930001 1.7334576e-38
-0.092031434 -0.13520667 1.1930001 1.7334576e-38
-0.089759052 -0.13520667 1.1930001 1.7611163e-38
-0.087486669 -0.13520667 1.1930001 1.4753099e-38
-0.085214287 -0.13520667 1.1930001 1.2448561e-38
-0.082941905 -0.13520667 1.1930001 9.8670834e-39
-0.080669522 -0.13520667 1.1930001 1.1247455e-38
-0.078660004 -0.13566001 1.197 1.493528e-38
-0.076380007 -0.13566001 1.197 1.7606469e-38
-0.074100003 -0.13566001 1.197 1.779086e-38
-0.072119996 -0.13622667 1.202 1.493967e-38
-0.069830477 -0.13622667 1.202 1.0698671e-38
-0.06776572 -0.13668001 1.2060001 9.782438e-39
-0.065468572 -0.13668001 1.2060001 9.1370685e-39
-0.063380957 -0.13713333 1.21 1.0050718e-38
-0.061076194 -0.13713333 1.21 1.3185369e-38
-0.058771431 -0.13713333 1.21 1.4654767e-38
-0.056466665 -0.13713333 1.21 1.4931354e-38
-0.054340959 -0.13758668 1.2140001 1.4655477e-38
-0.052028574 -0.13758668 1.2140001 1.4655477e-38
-0.14174286 -0.13482858 1.21 1.3461288e-38
-0.13943809 -0.13482858 1.21 3.3197685e-39
-0.13713333 -0.13482858 1.21 5.0742979e-39
-0.13482858 -0.13482858 1.21 1.2726535e-38
-0.13208573 -0.13438286 1.2060001 1.2449662e-38
-0.12978858 -0.13438286 1.2060001 1.0974532e-38
-0.12706856 -0.13393715 1.202 9.4151352e-39
-0.12426001 -0.13338 1.197 9.5073308e-39
-0.12198001 -0.13338 1.197 1.0702624e-38
-0.11930001 -0.13293429 1.1930001 1.3099711e-38
-0.11702763 -0.13293429 1.1930001 1.5581061e-38
-0.11475525 -0.13293429 1.1930001 1.834693e-38
-0.11210571 -0.13248858 1.189 1.6595945e-38
-0.10984095 -0.13248858 1.189 1.2723728e-38
-0.10757619 -0.13248858 1.189 7.5758917e-39
-0.10531143 -0.13248858 1.189 5.7319791e-39
-0.10304666 -0.13248858 1.189 5.7366679e-39
-0.10112096 -0.13293429 1.1930001 6.6586242e-39
-0.098848581 -0.13293429 1.1930001 1.1717802e-38
-0.096576199 -0.13293429 1.1930001 1.6235388e-38
-0.094303817 -0.13293429 1.1930001 1.7611533e-38
-0.092031434 -0.13293429 1.1930001 1.7334946e-38
-0.089759052 -0.13293429 1.1930001 1.613602e-38
-0.087486669 -0.13293429 1.1930001 1.0696478e-38
-0.085500002 -0.13338 1.197 1.0052914e-38
-0.083220005 -0.13338 1.197 1.0513892e-38
-0.080940001 -0.13338 1.197 1.0418091e-38
-0.078660004 -0.13338 1.197 1.0418091e-38
-0.076380007 -0.13338 1.197 1.5026397e-38
-0.07440953 -0.13393715 1.202 1.6962505e-38
-0.072119996 -0.13393715 1.202 1.4755594e-38
-0.070062861 -0.13438286 1.2060001 1.0606791e-38
-0.067990474 -0.13482858 1.21 9.6909682e-39
-0.065685712 -0.13482858 1.21 9.5987726e-39
-0.063380957 -0.13482858 1.21 1.1064179e-38
-0.061076194 -0.13482858 1.21 1.3553461e-38
-0.05896572 -0.13527429 1.2140001 1.4747325e-38
-0.056653336 -0.13527429 1.2140001 1.5116108e-38
-0.054340959 -0.13527429 1.2140001 1.4838789e-38
-0.052028574 -0.13527429 1.2140001 1.4930985e-38
-0.13989906 -0.13296191 1.2140001 5.4384758e-39
-0.13758668 -0.13296191 1.2140001 3.8768211e-39
-0.13482858 -0.13252382 1.21 1.2358806e-38
-0.13252382 -0.13252382 1.21 1.1806095e-38
-0.13021906 -0.13252382 1.21 1.0330965e-38
-0.12706856 -0.13164762 1.202 8.9555864e-39
-0.12426001 -0.1311 1.197 9.6009558e-39
-0.12198001 -0.1311 1.197 9.4176309e-39
-0.11930001 -0.1306619 1.1930001 1.0616174e-38
-0.11702763 -0.1306619 1.1930001 1.429392e-38
-0.11475525 -0.1306619 1.1930001 1.7612962e-38
-0.11248287 -0.1306619 1.1930001 1.5126943e-38
-0.11021049 -0.1306619 1.1930001 7.6590966e-39
-0.1079381 -0.1306619 1.1930001 4.6356929e-39
-0.10566572 -0.1306619 1.1930001 5.7420405e-39
-0.10339334 -0.1306619 1.1930001 6.016482e-39
-0.10112096 -0.1306619 1.1930001 4.264765e-39
-0.098848581 -0.1306619 1.1930001 5.6454882e-39
-0.096900001 -0.1311 1.197 1.320553e-38
-0.094303817 -0.1306619 1.1930001 1.6877937e-38
-0.092031434 -0.1306619 1.1930001 1.6416958e-38
-0.089759052 -0.1306619 1.1930001 1.3465594e-38
-0.087779999 -0.1311 1.197 9.8699645e-39
-0.085500002 -0.1311 1.197 1.0603579e-38
-0.083220005 -0.1311 1.197 1.0972362e-38
-0.080940001 -0.1311 1.197 1.0511008e-38
-0.078660004 -0.1311 1.197 9.9578343e-39
-0.076699048 -0.13164762 1.202 1.2355268e-38
-0.07440953 -0.13164762 1.202 1.5950898e-38
-0.072360002 -0.13208573 1.2060001 1.3098982e-38
-0.070062861 -0.13208573 1.2060001 9.8721351e-39
-0.067990474 -0.13252382 1.21 1.0059028e-38
-0.065685712 -0.13252382 1.21 9.5058539e-39
-0.063380957 -0.13252382 1.21 1.1340388e-38
-0.061076194 -0.13252382 1.21 1.4014061e-38
-0.05896572 -0.13296191 1.2140001 1.4838439e-38
-0.056653336 -0.13296191 1.2140001 1.4654048e-38
-0.054340959 -0.13296191 1.2140001 1.4746597e-38
-0.13758668 -0.13064952 1.2140001 6.7323871e-39
-0.13527429 -0.13064952 1.2140001 1.2632907e-38
-0.13252382 -0.13021906 1.21 1.2450013e-38
-0.13021906 -0.13021906 1.21 1.1343665e-38
-0.12749144 -0.12978858 1.2060001 9.3240158e-39
-0.12477905 -0.1293581 1.202 9.7849939e-39
-0.12198001 -0.12882 1.197 9.4176337e-39
-0.11970001 -0.12882 1.197 1.0063003e-38
-0.11702763 -0.12838952 1.1930001 1.3740386e-38
-0.11475525 -0.12838952 1.1930001 1.7059429e-38
-0.11248287 -0.12838952 1.1930001 1.4298216e-38
-0.11021049 -0.12838952 1.1930001 6.6459789e-39
-0.1079381 -0.12838952 1.1930001 2.4316578e-39
-0.10566572 -0.12838952 1.1930001 4.367766e-39
-0.10339334 -0.12838952 1.1930001 5.9257283e-39
-0.10112096 -0.12838952 1.1930001 4.9115763e-39
-0.099179998 -0.12882 1.197 5.0952389e-39
-0.096900001 -0.12882 1.197 9.6128248e-39
-0.094620004 -0.12882 1.197 1.5125831e-38
-0.09234 -0.12882 1.197 1.4296071e-38
-0.090060003 -0.12882 1.197 1.2357442e-38
-0.087779999 -0.12882 1.197 1.0329138e-38
-0.085500002 -0.12882 1.197 1.0420643e-38
-0.083220005 -0.12882 1.197 1.0236251e-38
-0.080940001 -0.12882 1.197 1.0877289e-38
-0.078660004 -0.12882 1.197 1.2260224e-38
-0.076699048 -0.1293581 1.202 1.4657285e-38
-0.07440953 -0.1293581 1.202 1.7146567e-38
-0.072360002 -0.12978858 1.2060001 1.5031475e-38
-0.070062861 -0.12978858 1.2060001 1.0790476e-38
-0.067990474 -0.13021906 1.21 9.7817219e-39
-0.065685712 -0.13021906 1.21 8.8597656e-39
-0.063380957 -0.13021906 1.21 1.0970186e-38
-0.061076194 -0.13021906 1.21 1.4289228e-38
-0.05896572 -0.13064952 1.2140001 1.4838436e-38
-0.056653336 -0.13064952 1.2140001 1.4469654e-38
-0.054340959 -0.13064952 1.2140001 1.4652969e-38
-0.1409362 -0.12928857 1.223 8.5723957e-39
-0.13860667 -0.12928857 1.223 8.0170191e-39
-0.13527429 -0.12833716 1.2140001 1.4009735e-38
-0.13252382 -0.12791428 1.21 1.3556332e-38
-0.13021906 -0.12791428 1.21 1.2449985e-38
-0.12749144 -0.12749144 1.2060001 9.232539e-39
-0.12477905 -0.12706856 1.202 9.5091259e-39
-0.12248952 -0.12706856 1.202 9.2332397e-39
-0.11970001 -0.12654001 1.197 9.9708047e-39
-0.11742 -0.12654001 1.197 1.3096098e-38
-0.11514 -0.12654001 1.197 1.6599532e-38
-0.11248287 -0.12611714 1.1930001 1.2826721e-38
-0.11021049 -0.12611714 1.1930001 6.0964401e-39
-0.1079381 -0.12611714 1.1930001 3.4407721e-39
-0.10566572 -0.12611714 1.1930001 4.454924e-39
-0.10339334 -0.12611714 1.1930001 5.0981186e-39
-0.10146 -0.12654001 1.197 4.3605536e-39
-0.099179998 -0.12654001 1.197 4.6364216e-39
-0.096900001 -0.12654001 1.197 1.0168159e-38
-0.094620004 -0.12654001 1.197 1.4666674e-38
-0.09234 -0.12654001 1.197 1.4390087e-38
-0.090060003 -0.12654001 1.197 1.2173083e-38
-0.087779999 -0.12654001 1.197 9.9603874e-39
-0.085500002 -0.12654001 1.197 1.032699e-38
-0.083220005 -0.12654001 1.197 1.0142598e-38
-0.080940001 -0.12654001 1.197 1.0325192e-38
-0.078988574 -0.12706856 1.202 1.3828626e-38
-0.076699048 -0.12706856 1.202 1.5945541e-38
-0.07465715 -0.12749144 1.2060001 1.659091e-38
-0.072360002 -0.12749144 1.2060001 1.4755251e-38
-0.070062861 -0.12749144 1.2060001 1.2173773e-38
-0.067990474 -0.12791428 1.21 1.0057265e-38
-0.065685712 -0.12791428 1.21 8.5821347e-39
-0.063380957 -0.12791428 1.21 1.1063029e-38
-0.061278097 -0.12833716 1.2140001 1.4750854e-38
-0.05896572 -0.12833716 1.2140001 1.4930988e-38
-0.056653336 -0.12833716 1.2140001 1.4562205e-38
-0.054340959 -0.12833716 1.2140001 1.4561126e-38
-0.14607145 -0.12737429 1.2270001 1.5116468e-38
-0.1409362 -0.12695906 1.223 1.1153147e-38
-0.13860667 -0.12695906 1.223 1.1430811e-38
-0.13527429 -0.12602477 1.2140001 1.3182528e-38
-0.13296191 -0.12602477 1.2140001 1.3371176e-38
-0.13021906 -0.12560952 1.21 1.3739958e-38
-0.12749144 -0.1251943 1.2060001 1.1900452e-38
-0.12477905 -0.12477905 1.202 1.0425321e-38
-0.12248952 -0.12477905 1.202 1.0426038e-38
-0.1202 -0.12477905 1.202 1.3376298e-38
-0.11791047 -0.12477905 1.202 1.6044175e-38
-0.11514 -0.12426001 1.197 1.742711e-38
-0.11286 -0.12426001 1.197 1.5585037e-38
-0.11021049 -0.12384477 1.1930001 1.3464537e-38
-0.1079381 -0.12384477 1.1930001 7.6717209e-39
-0.10566572 -0.12384477 1.1930001 4.905852e-39
-0.10339334 -0.12384477 1.1930001 3.0748664e-39
-0.10146 -0.12426001 1.197 3.9968227e-39
-0.099179998 -0.12426001 1.197 8.5879025e-39
-0.096900001 -0.12426001 1.197 1.476501e-38
-0.094620004 -0.12426001 1.197 1.7796275e-38
-0.09234 -0.12426001 1.197 1.7796275e-38
-0.090060003 -0.12426001 1.197 1.6043151e-38
-0.087779999 -0.12426001 1.197 1.1986543e-38
-0.085500002 -0.12426001 1.197 1.0235883e-38
-0.083220005 -0.12426001 1.197 1.0420274e-38
-0.080940001 -0.12426001 1.197 1.2166969e-38
-0.078988574 -0.12477905 1.202 1.7237728e-38
-0.076699048 -0.12477905 1.202 1.5764746e-38
-0.07465715 -0.1251943 1.2060001 1.2353508e-38
-0.072360002 -0.1251943 1.2060001 1.2451808e-38
-0.070062861 -0.1251943 1.2060001 1.4387916e-38
-0.067990474 -0.12560952 1.21 1.3925137e-38
-0.065685712 -0.12560952 1.21 8.5777907e-39
-0.063590482 -0.12602477 1.2140001 9.4975442e-39
-0.061278097 -0.12602477 1.2140001 1.4568304e-38
-0.05896572 -0.12602477 1.2140001 1.5484878e-38
-0.056653336 -0.12602477 1.2140001 1.5116095e-38
-0.14607145 -0.12503716 1.2270001 1.5392692e-38
-0.14373431 -0.12503716 1.2270001 1.4379997e-38
-0.14139715 -0.12503716 1.2270001 1.2259498e-38
-0.13906002 -0.12503716 1.2270001 1.2260571e-38
-0.13627714 -0.12462953 1.223 1.1430811e-38
-0.13350953 -0.12422191 1.2190001 1.0696414e-38
-0.13064952 -0.12371239 1.2140001 1.226374e-38
-0.12749144 -0.12289715 1.2060001 1.3372319e-38
-0.1251943 -0.12289715 1.2060001 1.1897189e-38
-0.12248952 -0.12248952 1.202 1.1436962e-38
-0.1202 -0.12248952 1.202 1.5032592e-38
-0.11791047 -0.12248952 1.202 1.65041e-38
-0.11562095 -0.12248952 1.202 1.5674339e-38
-0.11286 -0.12198001 1.197 1.5767941e-38
-0.11021049 -0.12157239 1.1930001 1.558355e-38
-0.1079381 -0.12157239 1.1930001 1.2179925e-38
-0.10566572 -0.12157239 1.1930001 6.3716004e-39
-0.10339334 -0.12157239 1.1930001 3.4411e-39
-0.10146 -0.12198001 1.197 6.1147732e-39
-0.099179998 -0.12198001 1.197 1.3648566e-38
-0.096900001 -0.12198001 1.197 1.7244195e-38
-0.094620004 -0.12198001 1.197 1.8163258e-38
-0.09234 -0.12198001 1.197 1.7794475e-38
-0.090060003 -0.12198001 1.197 1.742751e-38
-0.087779999 -0.12198001 1.197 1.447725e-38
-0.085500002 -0.12198001 1.197 1.2079075e-38
-0.083220005 -0.12198001 1.197 1.2263466e-38
-0.080940001 -0.12198001 1.197 1.4286029e-38
-0.078988574 -0.12248952 1.202 1.6775311e-38
-0.076699048 -0.12248952 1.202 1.429537e-38
-0.07465715 -0.12289715 1.2060001 9.0402192e-39
-0.072360002 -0.12289715 1.2060001 1.0793693e-38
-0.070295244 -0.12330476 1.21 1.5034692e-38
-0.067990474 -0.12330476 1.21 1.5671835e-38
-0.065902859 -0.12371239 1.2140001 8.6649669e-39
-0.063852385 -0.12422191 1.2190001 8.387933e-39
-0.061732382 -0.12462953 1.223 1.5486996e-38
-0.059402857 -0.12462953 1.223 1.576183e-38
-0.057073336 -0.12462953 1.223 1.5208657e-38
-0.14607145 -0.12270001 1.2270001 1.5301215e-38
-0.14373431 -0.12270001 1.2270001 1.5025707e-38
-0.1409362 -0.12230001 1.223 1.327399e-38
-0.13860667 -0.12230001 1.223 1.1434056e-38
-0.13627714 -0.12230001 1.223 7.6540351e-39
-0.13350953 -0.12190001 1.2190001 5.1751774e-39
-0.13064952 -0.12140001 1.2140001 6.9268944e-39
-0.12749144 -0.12060001 1.2060001 1.0515356e-38
-0.1251943 -0.12060001 1.2060001 1.466416e-38
-0.12248952 -0.1202 1.202 1.6226415e-38
-0.1202 -0.1202 1.202 1.6687394e-38
-0.11791047 -0.1202 1.202 1.410525e-38
-0.11562095 -0.1202 1.202 9.956447e-39
-0.11333143 -0.1202 1.202 1.1157797e-38
-0.11058 -0.11970001 1.197 1.7150513e-38
-0.1083 -0.11970001 1.197 1.5953119e-38
-0.10566572 -0.11930001 1.1930001 1.3740424e-38
-0.10339334 -0.11930001 1.1930001 1.3469525e-38
-0.10146 -0.11970001 1.197 1.6235394e-38
-0.099179998 -0.11970001 1.197 1.6967243e-38
-0.096900001 -0.11970001 1.197 1.6229678e-38
-0.094620004 -0.11970001 1.197 1.4295733e-38
-0.09234 -0.11970001 1.197 1.3834755e-38
-0.090060003 -0.11970001 1.197 1.5584671e-38
-0.087779999 -0.11970001 1.197 1.7705171e-38
-0.085857145 -0.1202 1.202 1.7332781e-38
-0.083567619 -0.1202 1.202 1.7056194e-38
-0.081278101 -0.1202 1.202 1.6780684e-38
-0.078988574 -0.1202 1.202 1.3000663e-38
-0.076954298 -0.12060001 1.2060001 7.2968175e-39
-0.07465715 -0.12060001 1.2060001 4.2543618e-39
-0.0726 -0.121 1.21 7.477557e-39
-0.070295244 -0.121 1.21 1.2179534e-38
-0.068215244 -0.12140001 1.2140001 1.3461253e-38
-0.065902859 -0.12140001 1.2140001 6.177798e-39
-0.063852385 -0.12190001 1.2190001 8.1132154e-39
-0.061732382 -0.12230001 1.223 1.5212279e-38
-0.059402857 -0.12230001 1.223 1.5854383e-38
-0.14607145 -0.12036287 1.2270001 1.5484903e-38
-0.14373431 -0.12036287 1.2270001 1.5301603e-38
-0.1409362 -0.11997048 1.223 1.3826473e-38
-0.13860667 -0.11997048 1.223 1.0424946e-38
-0.13627714 -0.11997048 1.223 5.8151644e-39
-0.13350953 -0.1195781 1.2190001 9.4856836e-40
-0.13064952 -0.11908762 1.2140001 1.4095465e-39
-0.12791428 -0.11869524 1.21 9.0426897e-39
-0.1251943 -0.11830287 1.2060001 1.5127601e-38
-0.12248952 -0.11791047 1.202 1.6963295e-38
-0.1202 -0.11791047 1.202 1.5949143e-38
-0.11791047 -0.11791047 1.202 1.1989395e-38
-0.11562095 -0.11791047 1.202 8.8547433e-39
-0.11333143 -0.11791047 1.202 1.0051044e-38
-0.11058 -0.11742 1.197 1.4660826e-38
-0.1083 -0.11742 1.197 1.7240207e-38
-0.10602 -0.11742 1.197 1.6871425e-38
-0.10374 -0.11742 1.197 1.6687412e-38
-0.10146 -0.11742 1.197 1.8346933e-38
-0.099179998 -0.11742 1.197 1.7612968e-38
-0.096900001 -0.11742 1.197 1.4293925e-38
-0.094620004 -0.11742 1.197 1.2180623e-38
-0.09234 -0.11742 1.197 1.1904036e-38
-0.090060003 -0.11742 1.197 1.4294639e-38
-0.087779999 -0.11742 1.197 1.6599529e-38
-0.085857145 -0.11791047 1.202 1.8345495e-38
-0.083567619 -0.11791047 1.202 1.8068909e-38
-0.081278101 -0.11791047 1.202 1.6230041e-38
-0.079251431 -0.11830287 1.2060001 8.9465858e-39
-0.076954298 -0.11830287 1.2060001 5.0912761e-39
-0.074904762 -0.11869524 1.21 3.616146e-39
-0.0726 -0.11869524 1.21 5.641175e-39
-0.070295244 -0.11869524 1.21 1.0158761e-38
-0.068215244 -0.11908762 1.2140001 1.1895757e-38
-0.065902859 -0.11908762 1.2140001 7.0093888e-39
-0.063852385 -0.1195781 1.2190001 8.482686e-39
-0.061530478 -0.1195781 1.2190001 1.5120771e-38
-0.059208576 -0.1195781 1.2190001 1.5762556e-38
-0.14373431 -0.11802572 1.2270001 1.5948412e-38
-0.14139715 -0.11802572 1.2270001 1.3643521e-38
-0.13906002 -0.11802572 1.2270001 1.1992246e-38
-0.13627714 -0.11764096 1.223 7.1980736e-39
-0.13394763 -0.11764096 1.223 2.4215657e-39
-0.13118763 -0.1172562 1.2190001 1.8683919e-39
-0.12791428 -0.11639048 1.21 4.9000451e-39
-0.1251943 -0.11600572 1.2060001 1.1722522e-38
-0.12289715 -0.11600572 1.2060001 1.4475458e-38
-0.12060001 -0.11600572 1.2060001 1.0972024e-38
-0.11830287 -0.11600572 1.2060001 9.2220839e-39
-0.11562095 -0.11562095 1.202 9.7752577e-39
-0.11333143 -0.11562095 1.202 1.0234068e-38
-0.11058 -0.11514 1.197 1.0510655e-38
-0.1083 -0.11514 1.197 1.1526587e-38
-0.10602 -0.11514 1.197 1.7242716e-38
-0.10374 -0.11514 1.197 1.7702299e-38
-0.10188381 -0.11562095 1.202 1.7333517e-38
-0.099594288 -0.11562095 1.202 1.5495333e-38
-0.097304761 -0.11562095 1.202 1.3374833e-38
-0.095015235 -0.11562095 1.202 1.2090957e-38
-0.092725717 -0.11562095 1.202 1.1906565e-38
-0.09043619 -0.11562095 1.202 1.2548332e-38
-0.088146664 -0.11562095 1.202 1.3193701e-38
-0.08614286 -0.11600572 1.2060001 1.5493182e-38
-0.083567619 -0.11562095 1.202 1.6230747e-38
-0.081278101 -0.11562095 1.202 1.4668757e-38
-0.079251431 -0.11600572 1.2060001 6.6477375e-39
-0.077209525 -0.11639048 1.21 2.2433107e-39
-0.074904762 -0.11639048 1.21 2.2433107e-39
-0.072840005 -0.11677525 1.2140001 7.2027778e-39
-0.070527628 -0.11677525 1.2140001 1.1443777e-38
-0.068215244 -0.11677525 1.2140001 1.2081934e-38
-0.065902859 -0.11677525 1.2140001 6.3658047e-39
-0.063852385 -0.1172562 1.2190001 8.7596638e-39
-0.061530478 -0.1172562 1.2190001 1.4936771e-38
-0.059208576 -0.1172562 1.2190001 1.5854036e-38
-0.14373431 -0.11568858 1.2270001 1.5488525e-38
-0.14139715 -0.11568858 1.2270001 1.4382178e-38
-0.13860667 -0.11531143 1.223 1.1624931e-38
-0.13627714 -0.11531143 1.223 7.2917364e-39
-0.13394763 -0.11531143 1.223 3.7983764e-39
-0.13118763 -0.11493429 1.2190001 2.6920289e-39
-0.12791428 -0.11408571 1.21 1.7786695e-39
-0.1251943 -0.11370859 1.2060001 9.0621243e-39
-0.12289715 -0.11370859 1.2060001 1.2913184e-38
-0.12060001 -0.11370859 1.2060001 9.6863369e-39
-0.11830287 -0.11370859 1.2060001 9.1291526e-39
-0.11562095 -0.11333143 1.202 1.0419891e-38
-0.11333143 -0.11333143 1.202 1.0602851e-38
-0.1110419 -0.11333143 1.202 9.9574812e-39
-0.1083 -0.11286 1.197 9.0405149e-39
-0.10602 -0.11286 1.197 1.6047383e-38
-0.10374 -0.11286 1.197 1.7336394e-38
-0.10188381 -0.11333143 1.202 1.6045655e-38
-0.099594288 -0.11333143 1.202 1.3010752e-38
-0.097304761 -0.11333143 1.202 1.2457578e-38
-0.095015235 -0.11333143 1.202 1.2092043e-38
-0.092725717 -0.11333143 1.202 1.172326e-38
-0.090737149 -0.11370859 1.2060001 1.0895295e-38
-0.088440008 -0.11370859 1.2060001 1.1171881e-38
-0.08614286 -0.11370859 1.2060001 1.319479e-38
-0.08384572 -0.11370859 1.2060001 1.4485529e-38
-0.081548579 -0.11370859 1.2060001 1.153957e-38
-0.079514287 -0.11408571 1.21 4.9014842e-39
-0.077209525 -0.11408571 1.21 1.3245788e-39
-0.075152382 -0.11446287 1.2140001 1.6933613e-39
-0.072840005 -0.11446287 1.2140001 6.466998e-39
-0.070527628 -0.11446287 1.2140001 1.190654e-38
-0.068496197 -0.11493429 1.2190001 1.3096105e-38
-0.066174291 -0.11493429 1.2190001 8.5785194e-39
-0.063852385 -0.11493429 1.2190001 9.7741339e-39
-0.061732382 -0.11531143 1.223 1.512148e-38
-0.059402857 -0.11531143 1.223 1.5669642e-38
-0.14373431 -0.11335144 1.2270001 1.6040245e-38
-0.14139715 -0.11335144 1.2270001 1.5579266e-38
-0.13860667 -0.11298191 1.223 1.2726597e-38
-0.13627714 -0.11298191 1.223 9.8685323e-39
-0.13394763 -0.11298191 1.223 3.6158349e-39
-0.13118763 -0.11261239 1.2190001 2.0485092e-39
-0.12833716 -0.11215048 1.2140001 2.8811019e-39
-0.12560952 -0.11178096 1.21 1.0164557e-38
-0.12330476 -0.11178096 1.21 1.3833323e-38
-0.12060001 -0.11141144 1.2060001 1.1436236e-38
-0.11830287 -0.11141144 1.2060001 9.2217434e-39
-0.11600572 -0.11141144 1.2060001 9.4983303e-39
-0.11333143 -0.1110419 1.202 1.0141898e-38
-0.1110419 -0.1110419 1.202 1.0141898e-38
-0.10875238 -0.1110419 1.202 9.3149956e-39
-0.10646286 -0.1110419 1.202 1.4938929e-38
-0.10417333 -0.1110419 1.202 1.6875034e-38
-0.10222286 -0.11141144 1.2060001 1.6229665e-38
-0.099925719 -0.11141144 1.2060001 1.3469935e-38
-0.097628579 -0.11141144 1.2060001 1.273237e-38
-0.095331438 -0.11141144 1.2060001 1.1999494e-38
-0.09303429 -0.11141144 1.2060001 1.1722907e-38
-0.090737149 -0.11141144 1.2060001 1.2089887e-38
-0.088440008 -0.11141144 1.2060001 1.2919648e-38
-0.086428568 -0.11178096 1.21 1.5863399e-38
-0.084123813 -0.11178096 1.21 1.7430725e-38
-0.08181905 -0.11178096 1.21 1.5036876e-38
-0.079514287 -0.11178096 1.21 6.1860951e-39
-0.077464767 -0.11215048 1.2140001 1.9692195e-39
-0.075152382 -0.11215048 1.2140001 3.0755671e-39
-0.072840005 -0.11215048 1.2140001 8.8597782e-39
-0.070527628 -0.11215048 1.2140001 1.3746147e-38
-0.068496197 -0.11261239 1.2190001 1.447508e-38
-0.066391431 -0.11298191 1.223 1.1893602e-38
-0.064061902 -0.11298191 1.223 1.1985394e-38
-0.061732382 -0.11298191 1.223 1.5120045e-38
-0.059402857 -0.11298191 1.223 1.5761111e-38
-0.057073336 -0.11298191 1.223 1.5392329e-38
-0.14373431 -0.11101429 1.2270001 1.6499421e-38
-0.14139715 -0.11101429 1.2270001 1.6222834e-38
-0.13860667 -0.11065239 1.223 1.3736057e-38
-0.13627714 -0.11065239 1.223 1.0693601e-38
-0.13394763 -0.11065239 1.223 7.8484975e-39
-0.13118763 -0.11029048 1.2190001 4.3450636e-39
-0.12886572 -0.11029048 1.2190001 4.5362848e-39
-0.12602477 -0.10983811 1.2140001 1.181974e-38
-0.12330476 -0.10947619 1.21 1.576905e-38
-0.121 -0.10947619 1.21 1.429392e-38
-0.11830287 -0.10911429 1.2060001 1.0883075e-38
-0.11600572 -0.10911429 1.2060001 8.7625757e-39
-0.11370859 -0.10911429 1.2060001 9.4053611e-39
-0.1110419 -0.10875238 1.202 1.0142926e-38
-0.10875238 -0.10875238 1.202 1.0052208e-38
-0.10646286 -0.10875238 1.202 1.6137119e-38
-0.10417333 -0.10875238 1.202 1.7151621e-38
-0.10222286 -0.10911429 1.2060001 1.6782839e-38
-0.099925719 -0.10911429 1.2060001 1.356215e-38
-0.097628579 -0.10911429 1.2060001 1.2271412e-38
-0.095331438 -0.10911429 1.2060001 1.1631418e-38
-0.09303429 -0.10911429 1.2060001 1.1447026e-38
-0.090737149 -0.10911429 1.2060001 1.2273194e-38
-0.088733338 -0.10947619 1.21 1.4024911e-38
-0.086428568 -0.10947619 1.21 1.705692e-38
-0.084123813 -0.10947619 1.21 1.7794485e-38
-0.082089528 -0.10983811 1.2140001 1.5495365e-38
-0.079777151 -0.10983811 1.2140001 9.4104535e-39
-0.077464767 -0.10983811 1.2140001 5.6437436e-39
-0.075152382 -0.10983811 1.2140001 6.7500911e-39
-0.073140003 -0.11029048 1.2190001 1.1805003e-38
-0.070818104 -0.11029048 1.2190001 1.3372329e-38
-0.068720959 -0.11065239 1.223 1.4289241e-38
-0.066391431 -0.11065239 1.223 1.2629719e-38
-0.064061902 -0.11065239 1.223 1.3549117e-38
-0.061934292 -0.11101429 1.2270001 1.5485225e-38
-0.059597149 -0.11101429 1.2270001 1.5576357e-38
-0.057260003 -0.11101429 1.2270001 1.5023184e-38
-0.14139715 -0.10867715 1.2270001 1.6037724e-38
-0.13860667 -0.10832286 1.223 1.2908089e-38
-0.13627714 -0.10832286 1.223 8.0217204e-39
-0.13394763 -0.10832286 1.223 8.3051849e-39
-0.1316181 -0.10832286 1.223 1.0794467e-38
-0.12886572 -0.10796858 1.2190001 1.1623817e-38
-0.12602477 -0.10752572 1.2140001 1.4020903e-38
