# .PCD v0.7 - Point Cloud Data file format
VERSION 0.7
FIELDS x y z rgb
SIZE 4 4 4 4
TYPE F F F F
COUNT 1 1 1 1
WIDTH 1039
HEIGHT 1
VIEWPOINT 0 0 0 1 0 0 0
POINTS 1039
DATA ascii
-0.11576286 -0.20787525 1.307 1.8157811e-38
-0.11370667 -0.20867048 1.312 1.6777029e-38
-0.11163143 -0.20946573 1.317 1.6869225e-38
-0.10912286 -0.20946573 1.317 1.6498277e-38
-0.10701905 -0.21026096 1.322 1.6406082e-38
-0.10450096 -0.21026096 1.322 1.603658e-38
-0.10244572 -0.21121526 1.3280001 1.6128776e-38
-0.09991619 -0.21121526 1.3280001 1.6128781e-38
-0.097386673 -0.21121526 1.3280001 1.6128781e-38
-0.094428569 -0.21026096 1.322 1.6312444e-38
-0.091910481 -0.21026096 1.322 1.5943661e-38
-0.089392379 -0.21026096 1.322 1.5574147e-38
-0.086874284 -0.21026096 1.322 1.6219517e-38
-0.084356196 -0.21026096 1.322 1.603622e-38
-0.081838094 -0.21026096 1.322 1.6405003e-38
-0.079319999 -0.21026096 1.322 1.677199e-38
-0.076511435 -0.20946573 1.317 1.7601751e-38
-0.074002862 -0.20946573 1.317 1.7232963e-38
-0.071765721 -0.21026096 1.322 1.8247114e-38
-0.068985716 -0.20946573 1.317 1.8248209e-38
-0.066477142 -0.20946573 1.317 1.8801383e-38
-0.063968569 -0.20946573 1.317 1.8801383e-38
-0.06122667 -0.20867048 1.312 1.9538948e-38
-0.05850381 -0.20787525 1.307 1.990737e-38
-0.056014288 -0.20787525 1.307 1.9999566e-38
-0.053319998 -0.20708001 1.302 2.1011532e-38
-0.050840002 -0.20708001 1.302 2.082714e-38
-0.048359998 -0.20708001 1.302 1.972438e-38
-0.12970001 -0.20381428 1.2970001 1.9353818e-38
-0.12722953 -0.20381428 1.2970001 1.8154595e-38
-0.12475906 -0.20381428 1.2970001 1.7509226e-38
-0.12276001 -0.20460001 1.302 1.7601398e-38
-0.12028001 -0.20460001 1.302 1.7601398e-38
-0.1178 -0.20460001 1.302 1.7234061e-38
-0.11576286 -0.20538573 1.307 1.6957474e-38
-0.11370667 -0.20617144 1.312 1.6866353e-38
-0.11163143 -0.20695715 1.317 1.7419527e-38
-0.10912286 -0.20695715 1.317 1.6681952e-38
-0.10661428 -0.20695715 1.317 1.6681952e-38
-0.10450096 -0.20774285 1.322 1.631282e-38
-0.10244572 -0.20868573 1.3280001 1.631282e-38
-0.09991619 -0.20868573 1.3280001 1.6312457e-38
-0.097386673 -0.20868573 1.3280001 1.6312457e-38
-0.094428569 -0.20774285 1.322 1.6404286e-38
-0.091910481 -0.20774285 1.322 1.61277e-38
-0.089392379 -0.20774285 1.322 1.6219514e-38
-0.086874284 -0.20774285 1.322 1.6403905e-38
-0.084356196 -0.20774285 1.322 1.6219539e-38
-0.081838094 -0.20774285 1.322 1.70493e-38
-0.079319999 -0.20774285 1.322 1.7049314e-38
-0.076511435 -0.20695715 1.317 1.7879075e-38
-0.074002862 -0.20695715 1.317 1.7786868e-38
-0.071765721 -0.20774285 1.322 1.8063455e-38
-0.068985716 -0.20695715 1.317 1.7971626e-38
-0.066477142 -0.20695715 1.317 1.8616996e-38
-0.063968569 -0.20695715 1.317 1.8616991e-38
-0.06122667 -0.20617144 1.312 1.8893578e-38
-0.058727618 -0.20617144 1.312 1.9077244e-38
-0.056014288 -0.20538573 1.307 1.9538222e-38
-0.053319998 -0.20460001 1.302 2.0458358e-38
-0.050840002 -0.20460001 1.302 2.3501174e-38
-0.048359998 -0.20460001 1.302 2.2951156e-38
-0.044681903 -0.19925714 1.268 2.350577e-38
-0.13217048 -0.20134382 1.2970001 2.0091383e-38
-0.12970001 -0.20134382 1.2970001 1.8524057e-38
-0.12722953 -0.20134382 1.2970001 1.7786519e-38
-0.12475906 -0.20134382 1.2970001 1.7509932e-38
-0.12276001 -0.20212001 1.302 1.7601751e-38
-0.12028001 -0.20212001 1.302 1.7509555e-38
-0.1178 -0.20212001 1.302 1.6771984e-38
-0.11576286 -0.20289619 1.307 1.7140767e-38
-0.11370667 -0.20367238 1.312 1.7049656e-38
-0.11163143 -0.20444858 1.317 1.7049656e-38
-0.10912286 -0.20444858 1.317 1.6773069e-38
-0.10661428 -0.20444858 1.317 1.6865265e-38
-0.10450096 -0.20522477 1.322 1.6495766e-38
-0.10244572 -0.20615619 1.3280001 1.6587962e-38
-0.09991619 -0.20615619 1.3280001 1.6496482e-38
-0.097386673 -0.20615619 1.3280001 1.6404286e-38
-0.094428569 -0.20522477 1.322 1.6404284e-38
-0.091910481 -0.20522477 1.322 1.6312088e-38
-0.089392379 -0.20522477 1.322 1.6679422e-38
-0.086874284 -0.20522477 1.322 1.6771617e-38
-0.084356196 -0.20522477 1.322 1.6127697e-38
-0.081838094 -0.20522477 1.322 1.6957457e-38
-0.079319999 -0.20522477 1.322 1.704967e-38
-0.076511435 -0.20444858 1.317 1.7695039e-38
-0.074002862 -0.20444858 1.317 1.7694672e-38
-0.071765721 -0.20522477 1.322 1.7971259e-38
-0.068985716 -0.20444858 1.317 1.7971256e-38
-0.066477142 -0.20444858 1.317 1.852443e-38
-0.063968569 -0.20444858 1.317 1.8616263e-38
-0.06122667 -0.20367238 1.312 1.8616263e-38
-0.058727618 -0.20367238 1.312 1.8432931e-38
-0.055800002 -0.20212001 1.302 1.9170496e-38
-0.053115241 -0.20134382 1.2970001 1.9813704e-38
-0.050293338 -0.19994669 1.2880001 2.0735661e-38
-0.047282856 -0.19761808 1.273 2.183768e-38
-0.044681903 -0.19684191 1.268 2.1561093e-38
-0.042266667 -0.19684191 1.268 2.0178912e-38
-0.13163048 -0.19442666 1.268 2.0275801e-38
-0.13166095 -0.19810668 1.2920001 1.9906992e-38
-0.1292 -0.19810668 1.2920001 1.7970883e-38
-0.12673905 -0.19810668 1.2920001 1.7510644e-38
-0.12475906 -0.19887333 1.2970001 1.7510644e-38
-0.12276001 -0.19964001 1.302 1.7509552e-38
-0.12028001 -0.19964001 1.302 1.797053e-38
-0.1178 -0.19964001 1.302 1.7233672e-38
-0.11576286 -0.20040667 1.307 1.7510258e-38
-0.11370667 -0.20117334 1.312 1.6957107e-38
-0.11163143 -0.20194 1.317 1.6864911e-38
-0.10912286 -0.20194 1.317 1.70493e-38
-0.10661428 -0.20194 1.317 1.7233691e-38
-0.10450096 -0.20270668 1.322 1.6772004e-38
-0.10244572 -0.20362668 1.3280001 1.7325178e-38
-0.09991619 -0.20362668 1.3280001 1.6772703e-38
-0.097386673 -0.20362668 1.3280001 1.6772703e-38
-0.094857149 -0.20362668 1.3280001 1.6404647e-38
-0.091910481 -0.20270668 1.322 1.7050016e-38
-0.089392379 -0.20270668 1.322 1.6496119e-38
-0.086874284 -0.20270668 1.322 1.668051e-38
-0.084356196 -0.20270668 1.322 1.6403931e-38
-0.081838094 -0.20270668 1.322 1.6957104e-38
-0.079319999 -0.20270668 1.322 1.7049306e-38
-0.076511435 -0.20194 1.317 1.7510284e-38
-0.074002862 -0.20194 1.317 1.7786149e-38
-0.071765721 -0.20270668 1.322 1.8062736e-38
-0.068985716 -0.20194 1.317 1.8156003e-38
-0.066477142 -0.20194 1.317 1.9170155e-38
-0.063968569 -0.20194 1.317 1.9078313e-38
-0.06122667 -0.20117334 1.312 1.93549e-38
-0.05850381 -0.20040667 1.307 2.0091733e-38
-0.055800002 -0.19964001 1.302 2.0460516e-38
-0.052746668 -0.19749334 1.2880001 2.0275771e-38
-0.050098099 -0.19672668 1.2830001 2.0367967e-38
-0.047282856 -0.19519334 1.273 1.9443529e-38
-0.044681903 -0.19442666 1.268 1.8890355e-38
-0.042266667 -0.19442666 1.268 1.889102e-38
-0.13163048 -0.19201143 1.268 2.0367264e-38
-0.12921523 -0.19201143 1.268 1.9723692e-38
-0.12639999 -0.19140573 1.2640001 1.8064171e-38
-0.12399238 -0.19140573 1.2640001 1.7879426e-38
-0.1242781 -0.19564572 1.2920001 1.7695035e-38
-0.12276001 -0.19716001 1.302 1.7509549e-38
-0.12028001 -0.19716001 1.302 1.7786136e-38
-0.11825238 -0.19791715 1.307 1.7601378e-38
-0.11664857 -0.19943142 1.317 1.7693574e-38
-0.11414 -0.19943142 1.317 1.6956732e-38
-0.11163143 -0.19943142 1.317 1.7048927e-38
-0.10912286 -0.19943142 1.317 1.7418436e-38
-0.10661428 -0.19943142 1.317 1.7234044e-38
-0.10450096 -0.20018856 1.322 1.6680154e-38
-0.10244572 -0.20109715 1.3280001 1.7141133e-38
-0.09991619 -0.20109715 1.3280001 1.6864899e-38
-0.097386673 -0.20109715 1.3280001 1.6680508e-38
-0.094857149 -0.20109715 1.3280001 1.6404634e-38
-0.092327625 -0.20109715 1.3280001 1.6681221e-38
-0.089798093 -0.20109715 1.3280001 1.6220248e-38
-0.086874284 -0.20018856 1.322 1.6496835e-38
-0.084356196 -0.20018856 1.322 1.6312441e-38
-0.081838094 -0.20018856 1.322 1.6681224e-38
-0.079319999 -0.20018856 1.322 1.6589031e-38
-0.076801904 -0.20018856 1.322 1.7510987e-38
-0.074283808 -0.20018856 1.322 1.8062726e-38
-0.071765721 -0.20018856 1.322 1.8431509e-38
-0.069247618 -0.20018856 1.322 1.8432234e-38
-0.066477142 -0.19943142 1.317 1.9169799e-38
-0.063968569 -0.19943142 1.317 1.9078323e-38
-0.061460003 -0.19943142 1.317 1.9447105e-38
-0.058279999 -0.19716001 1.302 2.0092489e-38
-0.05537143 -0.19564572 1.2920001 2.0184684e-38
-0.052132379 -0.19276857 1.273 2.0092477e-38
-0.049707618 -0.19276857 1.273 1.9815891e-38
-0.047097143 -0.19201143 1.268 1.8065969e-38
-0.044540953 -0.19140573 1.2640001 1.7697186e-38
-0.042133335 -0.19140573 1.2640001 1.7327297e-38
-0.13121524 -0.1889981 1.2640001 1.8800597e-38
-0.12880762 -0.1889981 1.2640001 1.9078325e-38
-0.1259 -0.18825048 1.2590001 1.9631499e-38
-0.1235019 -0.18825048 1.2590001 1.9078702e-38
-0.12071906 -0.18765239 1.2550001 1.8894311e-38
-0.11832858 -0.18765239 1.2550001 1.9261998e-38
-0.12028001 -0.19468001 1.302 1.9446389e-38
-0.11825238 -0.19542763 1.307 1.8986117e-38
-0.11664857 -0.19692287 1.317 1.8893922e-38
-0.11414 -0.19692287 1.317 1.8432578e-38
-0.11163143 -0.19692287 1.317 1.8524773e-38
-0.10912286 -0.19692287 1.317 1.8156351e-38
-0.10701905 -0.19767047 1.322 1.7787568e-38
-0.10450096 -0.19767047 1.322 1.7879063e-38
-0.10244572 -0.19856763 1.3280001 1.7971259e-38
-0.10029238 -0.19931524 1.3330001 1.7787221e-38
-0.097753339 -0.19931524 1.3330001 1.760283e-38
-0.094857149 -0.19856763 1.3280001 1.7695729e-38
-0.092327625 -0.19856763 1.3280001 1.8156707e-38
-0.089798093 -0.19856763 1.3280001 1.7972694e-38
-0.087268576 -0.19856763 1.3280001 1.8157085e-38
-0.084356196 -0.19767047 1.322 1.815707e-38
-0.081838094 -0.19767047 1.322 1.8525852e-38
-0.079319999 -0.19767047 1.322 1.8617322e-38
-0.076801904 -0.19767047 1.322 1.8801713e-38
-0.074283808 -0.19767047 1.322 1.9077231e-38
-0.071765721 -0.19767047 1.322 1.9814796e-38
-0.069247618 -0.19767047 1.322 1.9539291e-38
-0.066477142 -0.19692287 1.317 2.0092465e-38
-0.063968569 -0.19692287 1.317 1.8987576e-38
-0.061460003 -0.19692287 1.317 1.8987576e-38
-0.058279999 -0.19468001 1.302 1.8249307e-38
-0.054557141 -0.19034381 1.273 1.6958569e-38
-0.052132379 -0.19034381 1.273 1.7049656e-38
-0.049707618 -0.19034381 1.273 1.6773069e-38
-0.047097143 -0.18959619 1.268 1.6773785e-38
-0.044540953 -0.1889981 1.2640001 1.7972328e-38
-0.042133335 -0.1889981 1.2640001 1.7880468e-38
-0.13362285 -0.18659049 1.2640001 1.6313135e-38
-0.13121524 -0.18659049 1.2640001 1.6589722e-38
-0.1282981 -0.18585238 1.2590001 1.6957811e-38
-0.1259 -0.18585238 1.2590001 1.9170506e-38
-0.1235019 -0.18585238 1.2590001 1.889576e-38
-0.12071906 -0.18526192 1.2550001 1.8803564e-38
-0.11785714 -0.18452381 1.25 1.9447116e-38
-0.11547619 -0.18452381 1.25 1.8893943e-38
-0.11264285 -0.18378572 1.245 1.8524081e-38
-0.11027143 -0.18378572 1.245 1.8524081e-38
-0.10789999 -0.18378572 1.245 1.852442e-38
-0.11205524 -0.19515239 1.322 1.852442e-38
-0.10953714 -0.19515239 1.322 1.8431871e-38
-0.10701905 -0.19515239 1.322 1.8155285e-38
-0.10450096 -0.19515239 1.322 1.8246778e-38
-0.10283143 -0.1967762 1.3330001 1.8062387e-38
-0.10029238 -0.1967762 1.3330001 1.8246764e-38
-0.097753339 -0.1967762 1.3330001 1.833896e-38
-0.095214292 -0.1967762 1.3330001 1.8063805e-38
-0.092675239 -0.1967762 1.3330001 1.8063805e-38
-0.089798093 -0.1960381 1.3280001 1.7972352e-38
-0.087268576 -0.1960381 1.3280001 1.7787961e-38
-0.084739052 -0.1960381 1.3280001 1.732662e-38
-0.082209527 -0.1960381 1.3280001 1.7695402e-38
-0.079319999 -0.19515239 1.322 1.8340026e-38
-0.076801904 -0.19515239 1.322 1.8708809e-38
-0.074283808 -0.19515239 1.322 1.9352759e-38
-0.071765721 -0.19515239 1.322 1.953715e-38
-0.069247618 -0.19515239 1.322 1.9262714e-38
-0.066477142 -0.19441429 1.317 1.9078323e-38
-0.063968569 -0.19441429 1.317 1.7791187e-38
-0.058986671 -0.18659049 1.2640001 1.7606795e-38
-0.05657905 -0.18659049 1.2640001 1.6869607e-38
-0.054171428 -0.18659049 1.2640001 1.4841303e-38
-0.05176381 -0.18659049 1.2640001 1.5575564e-38
-0.049512379 -0.18718095 1.268 1.5759955e-38
-0.047097143 -0.18718095 1.268 1.6589366e-38
-0.044681903 -0.18718095 1.268 1.8156691e-38
-0.042266667 -0.18718095 1.268 1.8341448e-38
-0.13603048 -0.18418287 1.2640001 1.6588327e-38
-0.13362285 -0.18418287 1.2640001 1.6405e-38
-0.13121524 -0.18418287 1.2640001 1.6681587e-38
-0.1282981 -0.18345429 1.2590001 1.5946173e-38
-0.1259 -0.18345429 1.2590001 1.5946173e-38
-0.12310953 -0.18287145 1.2550001 1.4929556e-38
-0.12071906 -0.18287145 1.2550001 1.4191991e-38
-0.11785714 -0.18214285 1.25 1.4837674e-38
-0.11547619 -0.18214285 1.25 1.5667435e-38
-0.11264285 -0.18141429 1.245 1.5760729e-38
-0.11027143 -0.18141429 1.245 1.594512e-38
-0.10789999 -0.18141429 1.245 1.6681587e-38
-0.10518952 -0.18083143 1.2410001 1.723476e-38
-0.10282572 -0.18083143 1.2410001 1.7050357e-38
-0.10046192 -0.18083143 1.2410001 1.6312791e-38
-0.098414287 -0.18141429 1.245 1.5115029e-38
-0.096042857 -0.18141429 1.245 1.4838442e-38
-0.10066857 -0.19496572 1.3380001 1.6680517e-38
-0.097753339 -0.19423714 1.3330001 1.7786865e-38
-0.088928573 -0.18141429 1.245 1.7327309e-38
-0.086557142 -0.18141429 1.245 1.6774135e-38
-0.084185712 -0.18141429 1.245 1.6313922e-38
-0.081814282 -0.18141429 1.245 1.5852944e-38
-0.079442859 -0.18141429 1.245 1.4468578e-38
-0.077071428 -0.18141429 1.245 1.4099795e-38
-0.079680003 -0.19350858 1.3280001 1.4745466e-38
-0.072619043 -0.18214285 1.25 1.5575226e-38
-0.070238091 -0.18214285 1.25 1.6128079e-38
-0.072091438 -0.19350858 1.3280001 1.6773449e-38
-0.069247618 -0.19263428 1.322 1.6774138e-38
-0.066729523 -0.19263428 1.322 1.6866334e-38
-0.061151426 -0.18345429 1.2590001 1.5853273e-38
-0.058753334 -0.18345429 1.2590001 1.5484491e-38
-0.056355242 -0.18345429 1.2590001 1.4473939e-38
-0.053957146 -0.18345429 1.2590001 1.1154896e-38
-0.05176381 -0.18418287 1.2640001 1.1432171e-38
-0.049356192 -0.18418287 1.2640001 1.272291e-38
-0.047097143 -0.18476571 1.268 1.5484115e-38
-0.044540953 -0.18418287 1.2640001 1.7881202e-38
-0.042133335 -0.18418287 1.2640001 1.7972303e-38
-0.13603048 -0.18177524 1.2640001 1.6772713e-38
-0.13362285 -0.18177524 1.2640001 1.6589381e-38
-0.13121524 -0.18177524 1.2640001 1.6865968e-38
-0.1282981 -0.1810562 1.2590001 1.5854697e-38
-0.1259 -0.1810562 1.2590001 1.410298e-38
-0.12310953 -0.18048097 1.2550001 1.4195191e-38
-0.12071906 -0.18048097 1.2550001 1.3734213e-38
-0.11785714 -0.1797619 1.25 1.1521853e-38
-0.11547619 -0.1797619 1.25 1.4933091e-38
-0.11264285 -0.17904285 1.245 1.4749105e-38
-0.11027143 -0.17904285 1.245 1.4195931e-38
-0.10789999 -0.17904285 1.245 1.4655428e-38
-0.10518952 -0.17846762 1.2410001 1.5208602e-38
-0.10282572 -0.17846762 1.2410001 1.5300823e-38
-0.10046192 -0.17846762 1.2410001 1.493204e-38
-0.098414287 -0.17904285 1.245 1.3735669e-38
-0.095734291 -0.17846762 1.2410001 1.392006e-38
-0.093370475 -0.17846762 1.2410001 1.5575602e-38
-0.091006674 -0.17846762 1.2410001 1.6405363e-38
-0.088642858 -0.17846762 1.2410001 1.6128781e-38
-0.08627905 -0.17846762 1.2410001 1.594439e-38
-0.084185712 -0.17904285 1.245 1.5577773e-38
-0.081814282 -0.17904285 1.245 1.5485577e-38
-0.079442859 -0.17904285 1.245 1.3733874e-38
-0.077071428 -0.17904285 1.245 1.3457287e-38
-0.074699998 -0.17904285 1.245 1.3182471e-38
-0.072328568 -0.17904285 1.245 1.4381015e-38
-0.069957145 -0.17904285 1.245 1.447359e-38
-0.067857139 -0.1797619 1.25 1.3736025e-38
-0.065476187 -0.1797619 1.25 1.4562507e-38
-0.063347623 -0.18048097 1.2550001 1.5023485e-38
-0.060957149 -0.18048097 1.2550001 1.6035864e-38
-0.058566671 -0.18048097 1.2550001 1.6035864e-38
-0.056355242 -0.1810562 1.2590001 1.4014763e-38
-0.053957146 -0.1810562 1.2590001 8.0220469e-39
-0.05176381 -0.18177524 1.2640001 8.3932621e-39
-0.049356192 -0.18177524 1.2640001 1.1527909e-38
-0.047097143 -0.18235047 1.268 1.5300798e-38
-0.044540953 -0.18177524 1.2640001 1.7513493e-38
-0.042133335 -0.18177524 1.2640001 1.7971587e-38
-0.13603048 -0.17936763 1.2640001 1.6864896e-38
-0.13362285 -0.17936763 1.2640001 1.6681211e-38
-0.13121524 -0.17936763 1.2640001 1.6865602e-38
-0.1282981 -0.1786581 1.2590001 1.5302605e-38
-0.1259 -0.1786581 1.2590001 1.3274301e-38
-0.12310953 -0.17809048 1.2550001 1.3276133e-38
-0.12071906 -0.17809048 1.2550001 1.4474676e-38
-0.11785714 -0.17738095 1.25 1.5118217e-38
-0.11547619 -0.17738095 1.25 1.5671391e-38
-0.11264285 -0.17667143 1.245 1.4106259e-38
-0.11027143 -0.17667143 1.245 9.1276953e-39
-0.10789999 -0.17667143 1.245 9.5886608e-39
-0.10518952 -0.17610382 1.2410001 1.1985747e-38
-0.10282572 -0.17610382 1.2410001 1.2995608e-38
-0.10046192 -0.17610382 1.2410001 1.4194152e-38
-0.098414287 -0.17667143 1.245 1.4195544e-38
-0.095734291 -0.17610382 1.2410001 1.4379936e-38
-0.093370475 -0.17610382 1.2410001 1.5391554e-38
-0.091006674 -0.17610382 1.2410001 1.4746185e-38
-0.088642858 -0.17610382 1.2410001 1.2348419e-38
-0.08627905 -0.17610382 1.2410001 1.1610854e-38
-0.084185712 -0.17667143 1.245 1.2442023e-38
-0.081814282 -0.17667143 1.245 1.5576674e-38
-0.079442859 -0.17667143 1.245 1.4745874e-38
-0.077071428 -0.17667143 1.245 1.41927e-38
-0.074699998 -0.17667143 1.245 1.4287031e-38
-0.072328568 -0.17667143 1.245 1.5762161e-38
-0.069957145 -0.17667143 1.245 1.4104808e-38
-0.067857139 -0.17738095 1.25 1.2168699e-38
-0.065476187 -0.17738095 1.25 1.2261231e-38
-0.063095234 -0.17738095 1.25 1.2814405e-38
-0.060957149 -0.17809048 1.2550001 1.4379583e-38
-0.058566671 -0.17809048 1.2550001 1.5024952e-38
-0.056355242 -0.1786581 1.2590001 1.3555207e-38
-0.053957146 -0.1786581 1.2590001 7.6546867e-39
-0.05176381 -0.17936763 1.2640001 7.7508691e-39
-0.049356192 -0.17936763 1.2640001 1.0608934e-38
-0.047097143 -0.17993525 1.268 1.5392999e-38
-0.044681903 -0.17993525 1.268 1.7605694e-38
-0.042266667 -0.17993525 1.268 1.8154539e-38
-0.13362285 -0.17696001 1.2640001 1.6495731e-38
-0.13121524 -0.17696001 1.2640001 1.6864514e-38
-0.1282981 -0.17626001 1.2590001 1.4749794e-38
-0.1259 -0.17626001 1.2590001 1.2813686e-38
-0.12310953 -0.17570001 1.2550001 1.1250679e-38
-0.12071906 -0.17570001 1.2550001 1.4016548e-38
-0.11785714 -0.175 1.25 1.548666e-38
-0.11547619 -0.175 1.25 1.5578856e-38
-0.11264285 -0.1743 1.245 1.3002783e-38
-0.11027143 -0.1743 1.245 7.3788496e-39
-0.10789999 -0.1743 1.245 6.7381283e-39
-0.10518952 -0.17374 1.2410001 8.305454e-39
-0.10282572 -0.17374 1.2410001 1.2995912e-38
-0.10046192 -0.17374 1.2410001 1.4655434e-38
-0.098414287 -0.1743 1.245 1.4747652e-38
-0.095734291 -0.17374 1.2410001 1.4839847e-38
-0.093370475 -0.17374 1.2410001 1.5117148e-38
-0.091006674 -0.17374 1.2410001 1.2351279e-38
-0.088928573 -0.1743 1.245 1.1612615e-38
-0.086557142 -0.1743 1.245 1.0137485e-38
-0.084185712 -0.1743 1.245 1.1241281e-38
-0.081814282 -0.1743 1.245 1.400715e-38
-0.079442859 -0.1743 1.245 1.6035148e-38
-0.077071428 -0.1743 1.245 1.5850757e-38
-0.074699998 -0.1743 1.245 1.5023181e-38
-0.072328568 -0.1743 1.245 1.4930985e-38
-0.069957145 -0.1743 1.245 1.4011513e-38
-0.067857139 -0.175 1.25 1.2075405e-38
-0.065476187 -0.175 1.25 1.0605313e-38
-0.063095234 -0.175 1.25 1.1619465e-38
-0.060957149 -0.17570001 1.2550001 1.3277188e-38
-0.058566671 -0.17570001 1.2550001 1.4199144e-38
-0.056355242 -0.17626001 1.2590001 1.2080803e-38
-0.053957146 -0.17626001 1.2590001 7.4710214e-39
-0.05176381 -0.17696001 1.2640001 8.1178257e-39
-0.049356192 -0.17696001 1.2640001 1.1990042e-38
-0.047097143 -0.17751999 1.268 1.5575945e-38
-0.044681903 -0.17751999 1.268 1.7604249e-38
-0.042266667 -0.17751999 1.268 1.7508448e-38
-0.13121524 -0.1745524 1.2640001 1.7050347e-38
-0.12880762 -0.1745524 1.2640001 1.5855779e-38
-0.1259 -0.17386191 1.2590001 1.3182106e-38
-0.1235019 -0.17386191 1.2590001 1.1896435e-38
-0.12110382 -0.17386191 1.2590001 1.327937e-38
-0.11832858 -0.17330955 1.2550001 1.3922218e-38
-0.11547619 -0.17261904 1.25 1.3092458e-38
-0.11264285 -0.17192857 1.245 1.1159563e-38
-0.11027143 -0.17192857 1.245 6.9185636e-39
-0.10789999 -0.17192857 1.245 6.554865e-39
-0.10518952 -0.1713762 1.2410001 6.9236476e-39
-0.10282572 -0.1713762 1.2410001 9.9584607e-39
-0.10046192 -0.1713762 1.2410001 1.3277503e-38
-0.098414287 -0.17192857 1.245 1.4747652e-38
-0.096042857 -0.17192857 1.245 1.5024239e-38
-0.093671434 -0.17192857 1.245 1.4378128e-38
-0.091299996 -0.17192857 1.245 1.0690303e-38
-0.088928573 -0.17192857 1.245 1.0690318e-38
-0.086557142 -0.17192857 1.245 1.0782514e-38
-0.084185712 -0.17192857 1.245 1.1149513e-38
-0.081814282 -0.17192857 1.245 1.1333904e-38
-0.079442859 -0.17192857 1.245 1.2993764e-38
-0.077071428 -0.17192857 1.245 1.6589394e-38
-0.074699998 -0.17192857 1.245 1.5394114e-38
-0.072328568 -0.17192857 1.245 1.336581e-38
-0.070238091 -0.17261904 1.25 1.1711294e-38
-0.067857139 -0.17261904 1.25 1.1526903e-38
-0.065476187 -0.17261904 1.25 1.1157797e-38
-0.063347623 -0.17330955 1.2550001 1.1710971e-38
-0.060957149 -0.17330955 1.2550001 1.3736008e-38
-0.058566671 -0.17330955 1.2550001 1.5026747e-38
-0.056355242 -0.17386191 1.2590001 1.2357387e-38
-0.053957146 -0.17386191 1.2590001 7.0100404e-39
-0.05176381 -0.1745524 1.2640001 9.3164025e-39
-0.049356192 -0.1745524 1.2640001 1.4387162e-38
-0.046948571 -0.1745524 1.2640001 1.6405716e-38
-0.044681903 -0.17510477 1.268 1.7696455e-38
-0.042433333 -0.17579524 1.273 1.7694274e-38
-0.13121524 -0.17214477 1.2640001 1.7234032e-38
-0.12880762 -0.17214477 1.2640001 1.6224208e-38
-0.12639999 -0.17214477 1.2640001 1.3550535e-38
-0.1235019 -0.17146382 1.2590001 1.1804596e-38
-0.12110382 -0.17146382 1.2590001 1.2818748e-38
-0.11870572 -0.17146382 1.2590001 1.3003512e-38
-0.1159381 -0.17091906 1.2550001 1.2911316e-38
-0.11309524 -0.17023809 1.25 8.8590005e-39
-0.11027143 -0.16955714 1.245 6.4619141e-39
-0.10789999 -0.16955714 1.245 5.726168e-39
-0.10552857 -0.16955714 1.245 5.6339723e-39
-0.10315715 -0.16955714 1.245 7.0114249e-39
-0.10078571 -0.16955714 1.245 1.1529008e-38
-0.098414287 -0.16955714 1.245 1.3458016e-38
-0.096042857 -0.16955714 1.245 1.401119e-38
-0.093671434 -0.16955714 1.245 1.2259094e-38
-0.091299996 -0.16955714 1.245 9.9542035e-39
-0.088928573 -0.16955714 1.245 9.8612946e-39
-0.086557142 -0.16955714 1.245 1.0322273e-38
-0.084185712 -0.16955714 1.245 1.041375e-38
-0.081814282 -0.16955714 1.245 9.6761845e-39
-0.079442859 -0.16955714 1.245 1.0782133e-38
-0.077071428 -0.16955714 1.245 1.6406066e-38
-0.074699998 -0.16955714 1.245 1.4659796e-38
-0.072328568 -0.16955714 1.245 1.2170514e-38
-0.070238091 -0.17023809 1.25 1.0332686e-38
-0.067857139 -0.17023809 1.25 1.0424881e-38
-0.065738104 -0.17091906 1.2550001 1.1158147e-38
-0.063347623 -0.17091906 1.2550001 1.2172299e-38
-0.061151426 -0.17146382 1.2590001 1.3919683e-38
-0.058753334 -0.17146382 1.2590001 1.5210422e-38
-0.056355242 -0.17146382 1.2590001 1.2175183e-38
-0.054171428 -0.17214477 1.2640001 8.7639448e-39
-0.05176381 -0.17214477 1.2640001 1.088083e-38
-0.049356192 -0.17214477 1.2640001 1.4753047e-38
-0.046948571 -0.17214477 1.2640001 1.6773419e-38
-0.044681903 -0.17268953 1.268 1.7418789e-38
-0.042600002 -0.17405143 1.2780001 1.7235464e-38
-0.13121524 -0.16973716 1.2640001 1.7142908e-38
-0.12880762 -0.16973716 1.2640001 1.6040158e-38
-0.12639999 -0.16973716 1.2640001 1.4380636e-38
-0.1235019 -0.16906573 1.2590001 1.336977e-38
-0.12110382 -0.16906573 1.2590001 1.3461966e-38
-0.11870572 -0.16906573 1.2590001 1.4197383e-38
-0.11630762 -0.16906573 1.2590001 1.4842752e-38
-0.11309524 -0.16785714 1.25 1.143546e-38
-0.11071429 -0.16785714 1.25 6.8256786e-39
-0.10789999 -0.16718571 1.245 4.7163474e-39
-0.10552857 -0.16718571 1.245 5.1773256e-39
-0.10315715 -0.16718571 1.245 7.0118621e-39
-0.10078571 -0.16718571 1.245 9.5933397e-39
-0.098809525 -0.16785714 1.25 1.3364738e-38
-0.096042857 -0.16718571 1.245 1.4194499e-38
-0.093671434 -0.16718571 1.245 1.2074002e-38
-0.091299996 -0.16718571 1.245 9.676916e-39
-0.088928573 -0.16718571 1.245 9.9538658e-39
-0.086557142 -0.16718571 1.245 1.0414844e-38
-0.084523812 -0.16785714 1.25 1.0229374e-38
-0.081814282 -0.16718571 1.245 9.5840043e-39
-0.079442859 -0.16718571 1.245 1.1610491e-38
-0.077071428 -0.16718571 1.245 1.6773446e-38
-0.074999996 -0.16785714 1.25 1.5394804e-38
-0.072619043 -0.16785714 1.25 1.3274304e-38
-0.070238091 -0.16785714 1.25 1.1343966e-38
-0.067857139 -0.16785714 1.25 1.0698597e-38
-0.065738104 -0.16852859 1.2550001 1.1893917e-38
-0.063347623 -0.16852859 1.2550001 1.4383199e-38
-0.061151426 -0.16906573 1.2590001 1.520898e-38
-0.058753334 -0.16906573 1.2590001 1.6315328e-38
-0.05657905 -0.16973716 1.2640001 1.5763949e-38
-0.054171428 -0.16973716 1.2640001 1.4104428e-38
-0.05176381 -0.16973716 1.2640001 1.4104794e-38
-0.049356192 -0.16973716 1.2640001 1.438138e-38
-0.047097143 -0.17027427 1.268 1.6037277e-38
-0.044858098 -0.1709457 1.273 1.6774842e-38
-0.042600002 -0.17161715 1.2780001 1.6957435e-38
-0.12880762 -0.16732953 1.2640001 1.5853621e-38
-0.12639999 -0.16732953 1.2640001 1.4378491e-38
-0.12399238 -0.16732953 1.2640001 1.4380322e-38
-0.12158477 -0.16732953 1.2640001 1.4564714e-38
-0.11917715 -0.16732953 1.2640001 1.5115023e-38
-0.11630762 -0.16666763 1.2590001 1.5483806e-38
-0.11354763 -0.16613811 1.2550001 1.318576e-38
-0.11115715 -0.16613811 1.2550001 8.2071963e-39
-0.10833333 -0.16547619 1.25 4.6237608e-39
-0.10595238 -0.16547619 1.25 4.7159565e-39
-0.10315715 -0.16481429 1.245 6.4593876e-39
-0.10078571 -0.16481429 1.245 1.0055017e-38
-0.098809525 -0.16547619 1.25 1.3640578e-38
-0.096428573 -0.16547619 1.25 1.4378143e-38
-0.094047621 -0.16547619 1.25 1.1981804e-38
-0.091666669 -0.16547619 1.25 9.9535001e-39
-0.089285716 -0.16547619 1.25 1.0413755e-38
-0.086904764 -0.16547619 1.25 1.0413755e-38
-0.084523812 -0.16547619 1.25 1.0045333e-38
-0.08214286 -0.16547619 1.25 1.0137528e-38
-0.079761907 -0.16547619 1.25 1.2898362e-38
-0.077380955 -0.16547619 1.25 1.6770579e-38
-0.074999996 -0.16547619 1.25 1.5394798e-38
-0.072619043 -0.16547619 1.25 1.428845e-38
-0.070238091 -0.16547619 1.25 1.143583e-38
-0.068128571 -0.16613811 1.2550001 1.0882656e-38
-0.065738104 -0.16613811 1.2550001 1.2721157e-38
-0.063549526 -0.16666763 1.2590001 1.4657265e-38
-0.061151426 -0.16666763 1.2590001 1.5023147e-38
-0.058753334 -0.16666763 1.2590001 1.5945103e-38
-0.05657905 -0.16732953 1.2640001 1.6591189e-38
-0.054342858 -0.16785905 1.268 1.6498993e-38
-0.05176381 -0.16732953 1.2640001 1.4656183e-38
-0.049356192 -0.16732953 1.2640001 1.4195205e-38
-0.047097143 -0.16785905 1.268 1.4930923e-38
-0.044858098 -0.16852096 1.273 1.6590445e-38
-0.042600002 -0.16918287 1.2780001 1.6680848e-38
-0.12921523 -0.16544381 1.268 1.5669953e-38
-0.12639999 -0.16492191 1.2640001 1.4010431e-38
-0.12399238 -0.16492191 1.2640001 1.4563635e-38
-0.12158477 -0.16492191 1.2640001 1.5577787e-38
-0.11917715 -0.16492191 1.2640001 1.4930638e-38
-0.11676953 -0.16492191 1.2640001 1.4561855e-38
-0.11390953 -0.16426952 1.2590001 1.3736783e-38
-0.11115715 -0.16374762 1.2550001 1.2630436e-38
-0.10833333 -0.16309524 1.25 8.5806606e-39
-0.10595238 -0.16309524 1.25 8.1196824e-39
-0.10315715 -0.16244286 1.245 1.0879778e-38
-0.10078571 -0.16244286 1.245 1.4936386e-38
-0.098809525 -0.16309524 1.25 1.520898e-38
-0.096428573 -0.16309524 1.25 1.4932393e-38
-0.094047621 -0.16309524 1.25 1.4010461e-38
-0.091666669 -0.16309524 1.25 1.2443135e-38
-0.089285716 -0.16309524 1.25 1.0414496e-38
-0.086904764 -0.16309524 1.25 1.013791e-38
-0.084523812 -0.16309524 1.25 1.0689633e-38
-0.08214286 -0.16309524 1.25 1.4285263e-38
-0.079761907 -0.16309524 1.25 1.4102296e-38
-0.077380955 -0.16309524 1.25 1.3641318e-38
-0.074999996 -0.16309524 1.25 1.5210382e-38
-0.072619043 -0.16309524 1.25 1.6040142e-38
-0.070238091 -0.16309524 1.25 1.4934215e-38
-0.068128571 -0.16374762 1.2550001 1.3459085e-38
-0.065738104 -0.16374762 1.2550001 1.3918967e-38
-0.063549526 -0.16426952 1.2590001 1.3273598e-38
-0.061151426 -0.16426952 1.2590001 1.2717543e-38
-0.058753334 -0.16426952 1.2590001 1.2164369e-38
-0.05657905 -0.16492191 1.2640001 1.4471014e-38
-0.054342858 -0.16544381 1.268 1.7236883e-38
-0.05176381 -0.16492191 1.2640001 1.5209367e-38
-0.049356192 -0.16492191 1.2640001 1.4287411e-38
-0.046948571 -0.16492191 1.2640001 1.4839819e-38
-0.044681903 -0.16544381 1.268 1.6868123e-38
-0.12639999 -0.1625143 1.2640001 1.382604e-38
-0.12399238 -0.1625143 1.2640001 1.4838057e-38
-0.12158477 -0.1625143 1.2640001 1.5575622e-38
-0.11917715 -0.1625143 1.2640001 1.4837353e-38
-0.11676953 -0.1625143 1.2640001 1.4191984e-38
-0.11390953 -0.16187143 1.2590001 1.4380325e-38
-0.11115715 -0.16135716 1.2550001 1.3919347e-38
-0.10833333 -0.16071428 1.25 1.1801366e-38
-0.10595238 -0.16071428 1.25 1.1340388e-38
-0.10357143 -0.16071428 1.25 1.382607e-38
-0.10119048 -0.16071428 1.25 1.5577787e-38
-0.098809525 -0.16071428 1.25 1.530117e-38
-0.096428573 -0.16071428 1.25 1.4840192e-38
-0.094047621 -0.16071428 1.25 1.493277e-38
-0.091666669 -0.16071428 1.25 1.345764e-38
-0.089285716 -0.16071428 1.25 1.2166174e-38
-0.086904764 -0.16071428 1.25 1.1428609e-38
-0.084523812 -0.16071428 1.25 1.2072537e-38
-0.08214286 -0.16071428 1.25 1.4930601e-38
-0.079761907 -0.16071428 1.25 1.5210083e-38
-0.077380955 -0.16071428 1.25 1.106128e-38
-0.074999996 -0.16071428 1.25 1.1982461e-38
-0.072619043 -0.16071428 1.25 1.4287352e-38
-0.070519052 -0.16135716 1.2550001 1.5669608e-38
-0.068128571 -0.16135716 1.2550001 1.5300826e-38
-0.065947622 -0.16187143 1.2590001 1.3644215e-38
-0.063549526 -0.16187143 1.2590001 1.1708107e-38
-0.061394289 -0.1625143 1.2640001 1.2257631e-38
-0.058986671 -0.1625143 1.2640001 1.1981044e-38
-0.05657905 -0.1625143 1.2640001 1.3088811e-38
-0.054342858 -0.16302858 1.268 1.5670289e-38
-0.05176381 -0.1625143 1.2640001 1.5118238e-38
-0.049356192 -0.1625143 1.2640001 1.4196281e-38
-0.046948571 -0.1625143 1.2640001 1.474835e-38
-0.044681903 -0.16302858 1.268 1.6500067e-38
-0.12438476 -0.16061333 1.268 1.4102996e-38
-0.12158477 -0.16010667 1.2640001 1.4748365e-38
-0.11917715 -0.16010667 1.2640001 1.2347368e-38
-0.11676953 -0.16010667 1.2640001 1.0503455e-38
-0.11390953 -0.15947334 1.2590001 1.1612658e-38
-0.11151143 -0.15947334 1.2590001 1.5484875e-38
-0.10876667 -0.15896668 1.2550001 1.520937e-38
-0.10637619 -0.15896668 1.2550001 1.5670348e-38
-0.10357143 -0.15833333 1.25 1.5394811e-38
-0.10119048 -0.15833333 1.25 1.3550898e-38
-0.099204771 -0.15896668 1.2550001 1.2630714e-38
-0.096428573 -0.15833333 1.25 1.2630714e-38
-0.094047621 -0.15833333 1.25 1.3550535e-38
-0.091666669 -0.15833333 1.25 1.4656883e-38
-0.089285716 -0.15833333 1.25 1.5024589e-38
-0.086904764 -0.15833333 1.25 1.520898e-38
-0.084523812 -0.15833333 1.25 1.4378518e-38
-0.08214286 -0.15833333 1.25 1.4009735e-38
-0.079761907 -0.15833333 1.25 1.0973379e-38
-0.077380955 -0.15833333 1.25 8.1153146e-39
-0.074999996 -0.15833333 1.25 8.3015079e-39
-0.072619043 -0.15833333 1.25 9.776638e-39
-0.070519052 -0.15896668 1.2550001 1.3549787e-38
-0.068128571 -0.15896668 1.2550001 1.6039069e-38
-0.065947622 -0.15947334 1.2590001 1.4286685e-38
-0.063549526 -0.15947334 1.2590001 1.1244229e-38
-0.061394289 -0.16010667 1.2640001 1.1060906e-38
-0.058986671 -0.16010667 1.2640001 1.096871e-38
-0.05657905 -0.16010667 1.2640001 1.2258381e-38
-0.054342858 -0.16061333 1.268 1.4747663e-38
-0.051927619 -0.16061333 1.268 1.4841627e-38
-0.049512379 -0.16061333 1.268 1.4657236e-38
-0.047097143 -0.16061333 1.268 1.530117e-38
-0.044681903 -0.16061333 1.268 1.7052887e-38
-0.12438476 -0.15819809 1.268 1.2905169e-38
-0.12158477 -0.15769906 1.2640001 1.3642734e-38
-0.11917715 -0.15769906 1.2640001 1.1979262e-38
-0.11676953 -0.15769906 1.2640001 1.0688523e-38
-0.11390953 -0.15707524 1.2590001 1.1057968e-38
-0.11151143 -0.15707524 1.2590001 1.4377011e-38
-0.10911334 -0.15707524 1.2590001 1.5851473e-38
-0.10637619 -0.1565762 1.2550001 1.6773429e-38
-0.10357143 -0.15595238 1.25 1.530301e-38
-0.10119048 -0.15595238 1.25 1.1615185e-38
-0.099204771 -0.1565762 1.2550001 1.0974808e-38
-0.09681429 -0.1565762 1.2550001 1.0974808e-38
-0.094423823 -0.1565762 1.2550001 1.1708786e-38
-0.091666669 -0.15595238 1.25 1.2722938e-38
-0.089285716 -0.15595238 1.25 1.5943308e-38
-0.086904764 -0.15595238 1.25 1.6404286e-38
-0.084523812 -0.15595238 1.25 1.4748026e-38
-0.08214286 -0.15595238 1.25 1.0875809e-38
-0.079761907 -0.15595238 1.25 8.7628602e-39
-0.077380955 -0.15595238 1.25 7.564317e-39
-0.074999996 -0.15595238 1.25 6.3729667e-39
-0.072619043 -0.15595238 1.25 5.8197929e-39
-0.070519052 -0.1565762 1.2550001 1.0969751e-38
-0.068345711 -0.15707524 1.2590001 1.4749772e-38
-0.065947622 -0.15707524 1.2590001 1.474552e-38
-0.063801907 -0.15769906 1.2640001 1.1334282e-38
-0.061394289 -0.15769906 1.2640001 1.0691755e-38
-0.058986671 -0.15769906 1.2640001 1.1060537e-38
-0.05657905 -0.15769906 1.2640001 1.2350565e-38
-0.054342858 -0.15819809 1.268 1.520863e-38
-0.051927619 -0.15819809 1.268 1.5025312e-38
-0.049512379 -0.15819809 1.268 1.4748725e-38
-0.047097143 -0.15819809 1.268 1.5852545e-38
-0.044681903 -0.15819809 1.268 1.6313523e-38
-0.12438476 -0.15578286 1.268 1.39179e-38
-0.12196951 -0.15578286 1.268 1.474766e-38
-0.11955428 -0.15578286 1.268 1.2534627e-38
-0.11676953 -0.15529144 1.2640001 1.0414128e-38
-0.11390953 -0.15467715 1.2590001 1.0599529e-38
-0.11151143 -0.15467715 1.2590001 1.1521486e-38
-0.10911334 -0.15467715 1.2590001 1.4747229e-38
-0.10671524 -0.15467715 1.2590001 1.6037967e-38
-0.10398573 -0.15418573 1.2550001 1.4842003e-38
-0.10159525 -0.15418573 1.2550001 1.152296e-38
-0.099520952 -0.15467715 1.2590001 1.0239791e-38
-0.09681429 -0.15418573 1.2550001 1.0516378e-38
-0.094423823 -0.15418573 1.2550001 1.1249274e-38
-0.092033342 -0.15418573 1.2550001 1.0880491e-38
-0.08964286 -0.15418573 1.2550001 1.4193023e-38
-0.087252386 -0.15418573 1.2550001 1.6313523e-38
-0.084861912 -0.15418573 1.2550001 1.4103356e-38
-0.082471438 -0.15418573 1.2550001 8.7560093e-39
-0.080080956 -0.15418573 1.2550001 6.738913e-39
-0.077690482 -0.15418573 1.2550001 6.6467173e-39
-0.075300008 -0.15418573 1.2550001 6.280083e-39
-0.072909534 -0.15418573 1.2550001 5.7269092e-39
-0.070743814 -0.15467715 1.2590001 8.5748816e-39
-0.068617143 -0.15529144 1.2640001 1.346125e-38
-0.066209525 -0.15529144 1.2640001 1.4010461e-38
-0.063801907 -0.15529144 1.2640001 1.0691418e-38
-0.06158857 -0.15578286 1.268 1.0600641e-38
-0.059173334 -0.15578286 1.268 1.2075771e-38
-0.056758095 -0.15578286 1.268 1.2901981e-38
-0.054342858 -0.15578286 1.268 1.6036632e-38
-0.052132379 -0.15639713 1.273 1.5853645e-38
-0.049707618 -0.15639713 1.273 1.5484862e-38
-0.047282856 -0.15639713 1.273 1.5944022e-38
-0.044858098 -0.15639713 1.273 1.6220608e-38
-0.12487524 -0.15397239 1.273 1.4655081e-38
-0.12196951 -0.15336761 1.268 1.5116059e-38
-0.11955428 -0.15336761 1.268 1.4010464e-38
-0.11713905 -0.15336761 1.268 1.050703e-38
-0.1143619 -0.15288381 1.2640001 1.0323663e-38
-0.11151143 -0.15227905 1.2590001 1.143001e-38
-0.10911334 -0.15227905 1.2590001 1.3640203e-38
-0.10671524 -0.15227905 1.2590001 1.5852898e-38
-0.10431714 -0.15227905 1.2590001 1.3460887e-38
-0.10191905 -0.15227905 1.2590001 1.1340388e-38
-0.099520952 -0.15227905 1.2590001 1.0789362e-38
-0.097122863 -0.15227905 1.2590001 1.1065949e-38
-0.094724767 -0.15227905 1.2590001 1.0973753e-38
-0.092326671 -0.15227905 1.2590001 1.0512775e-38
-0.08964286 -0.15179525 1.2550001 1.2351266e-38
-0.087252386 -0.15179525 1.2550001 1.5762504e-38
-0.084861912 -0.15179525 1.2550001 1.2816234e-38
-0.082471438 -0.15179525 1.2550001 8.2064522e-39
-0.080080956 -0.15179525 1.2550001 5.727282e-39
-0.077690482 -0.15179525 1.2550001 6.0960645e-39
-0.075300008 -0.15179525 1.2550001 5.7279532e-39
-0.07314191 -0.15227905 1.2590001 5.6357576e-39
-0.070743814 -0.15227905 1.2590001 7.9323526e-39
-0.068617143 -0.15288381 1.2640001 1.3187504e-38
-0.066209525 -0.15288381 1.2640001 1.4104454e-38
-0.063801907 -0.15288381 1.2640001 1.060102e-38
-0.06158857 -0.15336761 1.268 1.1150933e-38
-0.059173334 -0.15336761 1.268 1.290265e-38
-0.056758095 -0.15336761 1.268 1.4835892e-38
-0.054342858 -0.15336761 1.268 1.6403217e-38
-0.052132379 -0.15397239 1.273 1.6497561e-38
-0.049707618 -0.15397239 1.273 1.5944387e-38
-0.047282856 -0.15397239 1.273 1.5944012e-38
-0.044858098 -0.15397239 1.273 1.6220599e-38
-0.12487524 -0.15154761 1.273 1.6039101e-38
-0.12196951 -0.15095238 1.268 1.6592275e-38
-0.11955428 -0.15095238 1.268 1.5117878e-38
-0.11713905 -0.15095238 1.268 1.1614444e-38
-0.1143619 -0.15047619 1.2640001 1.1890312e-38
-0.11151143 -0.14988096 1.2590001 1.382642e-38
-0.10911334 -0.14988096 1.2590001 1.5299042e-38
-0.10671524 -0.14988096 1.2590001 1.6866367e-38
-0.10431714 -0.14988096 1.2590001 1.5118243e-38
-0.10191905 -0.14988096 1.2590001 1.3458722e-38
-0.09991619 -0.15047619 1.2640001 1.115887e-38
-0.097122863 -0.14988096 1.2590001 1.1066675e-38
-0.094724767 -0.14988096 1.2590001 1.0881914e-38
-0.092326671 -0.14988096 1.2590001 1.2172652e-38
-0.089928575 -0.14988096 1.2590001 1.437993e-38
-0.087530479 -0.14988096 1.2590001 1.6408234e-38
-0.08513239 -0.14988096 1.2590001 1.5118217e-38
-0.082734287 -0.14988096 1.2590001 1.0508435e-38
-0.080336191 -0.14988096 1.2590001 7.0137146e-39
-0.077938102 -0.14988096 1.2590001 6.2761496e-39
-0.075539999 -0.14988096 1.2590001 6.1871489e-39
-0.073432386 -0.15047619 1.2640001 8.5842353e-39
-0.071024768 -0.15047619 1.2640001 1.1710242e-38
-0.068617143 -0.15047619 1.2640001 1.4752698e-38
-0.066209525 -0.15047619 1.2640001 1.5210394e-38
-0.06400381 -0.15095238 1.268 1.3458677e-38
-0.06158857 -0.15095238 1.268 1.4193047e-38
-0.059173334 -0.15095238 1.268 1.539159e-38
-0.056758095 -0.15095238 1.268 1.3826772e-38
-0.054342858 -0.15095238 1.268 1.1245294e-38
-0.052132379 -0.15154761 1.273 1.3548754e-38
-0.049707618 -0.15154761 1.273 1.5577058e-38
-0.047282856 -0.15154761 1.273 1.5852157e-38
-0.12487524 -0.14912285 1.273 1.6407533e-38
-0.12196951 -0.14853714 1.268 1.6130946e-38
-0.11955428 -0.14853714 1.268 1.4843809e-38
-0.11713905 -0.14853714 1.268 1.2538918e-38
-0.1143619 -0.14806858 1.2640001 1.3452252e-38
-0.11151143 -0.14748287 1.2590001 1.5849339e-38
-0.10911334 -0.14748287 1.2590001 1.6495427e-38
-0.10671524 -0.14748287 1.2590001 1.621884e-38
-0.10431714 -0.14748287 1.2590001 1.4842366e-38
-0.10191905 -0.14748287 1.2590001 1.3828214e-38
-0.09991619 -0.14806858 1.2640001 1.0699697e-38
-0.097508572 -0.14806858 1.2640001 1.0515306e-38
-0.095100954 -0.14806858 1.2640001 1.0697522e-38
-0.092693336 -0.14806858 1.2640001 1.2725826e-38
-0.089928575 -0.14748287 1.2590001 1.4748012e-38
-0.087530479 -0.14748287 1.2590001 1.5577773e-38
-0.08513239 -0.14748287 1.2590001 1.5117851e-38
-0.082734287 -0.14748287 1.2590001 1.2167591e-38
-0.080336191 -0.14748287 1.2590001 9.4075388e-39
-0.077938102 -0.14748287 1.2590001 6.5494742e-39
-0.075539999 -0.14748287 1.2590001 7.104394e-39
-0.073432386 -0.14806858 1.2640001 1.0792219e-38
-0.071024768 -0.14806858 1.2640001 1.3918262e-38
-0.068617143 -0.14806858 1.2640001 1.5301197e-38
-0.066209525 -0.14806858 1.2640001 1.5578473e-38
-0.06400381 -0.14853714 1.268 1.5670669e-38
-0.06158857 -0.14853714 1.268 1.4562571e-38
-0.059173334 -0.14853714 1.268 1.4746962e-38
-0.056758095 -0.14853714 1.268 1.3185355e-38
-0.054557141 -0.14912285 1.273 9.774117e-39
-0.052132379 -0.14912285 1.273 1.1892449e-38
-0.049707618 -0.14912285 1.273 1.4289535e-38
-0.047282856 -0.14912285 1.273 1.5481952e-38
-0.12487524 -0.1466981 1.273 1.5855794e-38
-0.12245047 -0.1466981 1.273 1.3366512e-38
-0.11955428 -0.1461219 1.268 1.3276496e-38
-0.11713905 -0.1461219 1.268 1.5028213e-38
-0.1143619 -0.14566095 1.2640001 1.6405389e-38
-0.11151143 -0.14508477 1.2590001 1.6774172e-38
-0.10911334 -0.14508477 1.2590001 1.3640625e-38
-0.10671524 -0.14508477 1.2590001 1.0874756e-38
-0.10431714 -0.14508477 1.2590001 1.1524782e-38
-0.10191905 -0.14508477 1.2590001 1.4751629e-38
-0.09991619 -0.14566095 1.2640001 1.3736761e-38
-0.097508572 -0.14566095 1.2640001 1.2722609e-38
-0.095100954 -0.14566095 1.2640001 1.4288832e-38
-0.092693336 -0.14566095 1.2640001 1.5210788e-38
-0.089928575 -0.14508477 1.2590001 1.437888e-38
-0.087530479 -0.14508477 1.2590001 1.2258381e-38
-0.08513239 -0.14508477 1.2590001 1.3456875e-38
-0.082734287 -0.14508477 1.2590001 1.566957e-38
-0.080336191 -0.14508477 1.2590001 1.3182883e-38
-0.077938102 -0.14508477 1.2590001 1.1246775e-38
-0.075539999 -0.14508477 1.2590001 1.2721151e-38
-0.073432386 -0.14566095 1.2640001 1.5394825e-38
-0.071024768 -0.14566095 1.2640001 1.4381024e-38
-0.068617143 -0.14566095 1.2640001 1.2537112e-38
-0.066209525 -0.14566095 1.2640001 1.4196255e-38
-0.06400381 -0.1461219 1.268 1.5763581e-38
-0.06158857 -0.1461219 1.268 1.5394114e-38
-0.059406664 -0.1466981 1.273 1.336581e-38
-0.056981906 -0.1466981 1.273 9.7784751e-39
-0.054557141 -0.1466981 1.273 8.2111494e-39
-0.052132379 -0.1466981 1.273 1.1525495e-38
-0.049707618 -0.1466981 1.273 1.3553799e-38
-0.047468573 -0.1472743 1.2780001 1.5481964e-38
-0.12536573 -0.14484002 1.2780001 1.5118243e-38
-0.12293144 -0.14484002 1.2780001 1.2997744e-38
-0.12049715 -0.14484002 1.2780001 1.2355209e-38
-0.11760096 -0.14427333 1.273 1.5397665e-38
-0.1143619 -0.14325333 1.2640001 1.7144046e-38
-0.11151143 -0.14268668 1.2590001 1.5668916e-38
-0.10911334 -0.14268668 1.2590001 1.2079385e-38
-0.10671524 -0.14268668 1.2590001 8.2071683e-39
-0.10431714 -0.14268668 1.2590001 1.0693527e-38
-0.10191905 -0.14268668 1.2590001 1.3735983e-38
-0.09991619 -0.14325333 1.2640001 1.5392314e-38
-0.097508572 -0.14325333 1.2640001 1.4931335e-38
-0.095100954 -0.14325333 1.2640001 1.5209017e-38
-0.092693336 -0.14325333 1.2640001 1.5393408e-38
-0.090285718 -0.14325333 1.2640001 1.4286682e-38
-0.087878101 -0.14325333 1.2640001 1.0783248e-38
-0.085470475 -0.14325333 1.2640001 1.2162539e-38
-0.083062857 -0.14325333 1.2640001 1.4283039e-38
-0.08065524 -0.14325333 1.2640001 1.5851476e-38
-0.078247622 -0.14325333 1.2640001 1.5390497e-38
-0.075840004 -0.14325333 1.2640001 1.5115023e-38
-0.073432386 -0.14325333 1.2640001 1.539161e-38
-0.07124953 -0.14370666 1.268 1.4472155e-38
-0.068834282 -0.14370666 1.268 1.225946e-38
-0.066419043 -0.14370666 1.268 1.1249588e-38
-0.06400381 -0.14370666 1.268 1.456863e-38
-0.06158857 -0.14370666 1.268 1.4751291e-38
-0.059406664 -0.14427333 1.273 1.2354205e-38
-0.056981906 -0.14427333 1.273 8.3994489e-39
-0.054557141 -0.14427333 1.273 8.3072532e-39
-0.052132379 -0.14427333 1.273 1.2078669e-38
-0.049707618 -0.14427333 1.273 1.4106973e-38
-0.12002572 -0.14184856 1.273 1.2633643e-38
-0.11760096 -0.14184856 1.273 1.4569751e-38
-0.1143619 -0.14084572 1.2640001 1.5120058e-38
-0.11195429 -0.14084572 1.2640001 1.1801015e-38
-0.10954667 -0.14084572 1.2640001 8.1200327e-39
-0.10671524 -0.14028858 1.2590001 6.3683158e-39
-0.10431714 -0.14028858 1.2590001 8.1182125e-39
-0.10191905 -0.14028858 1.2590001 9.9621251e-39
-0.09991619 -0.14084572 1.2640001 1.3549806e-38
-0.097508572 -0.14084572 1.2640001 1.622348e-38
-0.095100954 -0.14084572 1.2640001 1.5393021e-38
-0.092693336 -0.14084572 1.2640001 1.2627152e-38
-0.090285718 -0.14084572 1.2640001 1.0689986e-38
-0.087878101 -0.14084572 1.2640001 1.0229008e-38
-0.085470475 -0.14084572 1.2640001 1.1334632e-38
-0.083062857 -0.14084572 1.2640001 1.096585e-38
-0.08065524 -0.14084572 1.2640001 1.336145e-38
-0.078247622 -0.14084572 1.2640001 1.6957079e-38
-0.075840004 -0.14084572 1.2640001 1.6129884e-38
-0.073664762 -0.14129142 1.268 1.4285972e-38
-0.07124953 -0.14129142 1.268 1.2723678e-38
-0.068834282 -0.14129142 1.268 1.1986113e-38
-0.066419043 -0.14129142 1.268 1.1249627e-38
-0.06400381 -0.14129142 1.268 1.3738909e-38
-0.061831426 -0.14184856 1.273 1.4015143e-38
-0.059406664 -0.14184856 1.273 1.2079034e-38
-0.056981906 -0.14184856 1.273 9.1341595e-39
-0.054557141 -0.14184856 1.273 1.0332703e-38
-0.052132379 -0.14184856 1.273 1.3182142e-38
-0.049707618 -0.14184856 1.273 1.5394837e-38
-0.12293144 -0.13997145 1.2780001 1.4381024e-38
-0.12002572 -0.13942382 1.273 1.2725809e-38
-0.11760096 -0.13942382 1.273 1.4569722e-38
-0.1143619 -0.13843809 1.2640001 1.3835083e-38
-0.11195429 -0.13843809 1.2640001 9.9628663e-39
-0.10954667 -0.13843809 1.2640001 7.01762e-39
-0.10713905 -0.13843809 1.2640001 6.6488375e-39
-0.10473143 -0.13843809 1.2640001 6.7399668e-39
-0.10232381 -0.13843809 1.2640001 6.2789886e-39
-0.09991619 -0.13843809 1.2640001 1.0694278e-38
-0.097508572 -0.13843809 1.2640001 1.530406e-38
-0.095100954 -0.13843809 1.2640001 1.5300852e-38
-0.092693336 -0.13843809 1.2640001 1.0230093e-38
-0.090285718 -0.13843809 1.2640001 1.0597051e-38
-0.087878101 -0.13843809 1.2640001 1.1150224e-38
-0.085470475 -0.13843809 1.2640001 1.1059475e-38
-0.083062857 -0.13843809 1.2640001 1.032191e-38
-0.08065524 -0.13843809 1.2640001 1.1888455e-38
-0.078247622 -0.13843809 1.2640001 1.6590432e-38
-0.075840004 -0.13843809 1.2640001 1.5854402e-38
-0.073664762 -0.1388762 1.268 1.2996337e-38
-0.07124953 -0.1388762 1.268 1.1710965e-38
-0.068834282 -0.1388762 1.268 1.1526574e-38
-0.066419043 -0.1388762 1.268 1.1249977e-38
-0.06400381 -0.1388762 1.268 1.3739259e-38
-0.06158857 -0.1388762 1.268 1.383147e-38
-0.059406664 -0.13942382 1.273 1.1987558e-38
-0.056981906 -0.13942382 1.273 1.0052484e-38
-0.054557141 -0.13942382 1.273 1.1435418e-38
-0.052132379 -0.13942382 1.273 1.4285582e-38
-0.049707618 -0.13942382 1.273 1.5852908e-38
-0.12293144 -0.13753715 1.2780001 1.5117851e-38
-0.12002572 -0.13699904 1.273 1.429135e-38
-0.11760096 -0.13699904 1.273 1.5489893e-38
-0.11472381 -0.13646095 1.268 1.5121493e-38
-0.11230858 -0.13646095 1.268 1.2816602e-38
-0.10954667 -0.13603048 1.2640001 7.7527174e-39
-0.10713905 -0.13603048 1.2640001 6.2775873e-39
-0.10473143 -0.13603048 1.2640001 5.7287239e-39
-0.10232381 -0.13603048 1.2640001 5.2677458e-39
-0.10023239 -0.13646095 1.268 1.0418066e-38
-0.097817145 -0.13646095 1.268 1.4935651e-38
-0.095100954 -0.13603048 1.2640001 1.4655828e-38
-0.092693336 -0.13603048 1.2640001 9.6772635e-39
-0.090285718 -0.13603048 1.2640001 9.9542161e-39
-0.087878101 -0.13603048 1.2640001 1.0783977e-38
-0.085470475 -0.13603048 1.2640001 1.0875435e-38
-0.083062857 -0.13603048 1.2640001 1.0414457e-38
-0.08065524 -0.13603048 1.2640001 1.179629e-38
-0.078247622 -0.13603048 1.2640001 1.5668507e-38
-0.075840004 -0.13603048 1.2640001 1.5578489e-38
-0.073664762 -0.13646095 1.268 1.281262e-38
-0.07124953 -0.13646095 1.268 1.1619491e-38
-0.068834282 -0.13646095 1.268 1.1527296e-38
-0.066419043 -0.13646095 1.268 1.22627e-38
-0.06400381 -0.13646095 1.268 1.5028569e-38
-0.06158857 -0.13646095 1.268 1.5395179e-38
-0.059406664 -0.13699904 1.273 1.557957e-38
-0.056981906 -0.13699904 1.273 1.419951e-38
-0.054557141 -0.13699904 1.273 1.3554141e-38
-0.052132379 -0.13699904 1.273 1.4472854e-38
-0.049707618 -0.13699904 1.273 1.5302615e-38
-0.12293144 -0.13510287 1.2780001 1.5026021e-38
-0.12049715 -0.13510287 1.2780001 1.4750523e-38
-0.11806287 -0.13510287 1.2780001 1.6317849e-38
-0.11517619 -0.13457428 1.273 1.6317503e-38
-0.11230858 -0.13404572 1.268 1.4842373e-38
-0.10989333 -0.13404572 1.268 1.0976315e-38
-0.10713905 -0.13362285 1.2640001 6.6431202e-39
-0.10473143 -0.13362285 1.2640001 5.8197789e-39
-0.10232381 -0.13362285 1.2640001 6.0041702e-39
-0.10023239 -0.13404572 1.268 1.0876523e-38
-0.097817145 -0.13404572 1.268 1.5209717e-38
-0.095401898 -0.13404572 1.268 1.3918979e-38
-0.092986666 -0.13404572 1.268 1.0323349e-38
-0.090285718 -0.13362285 1.2640001 1.0320817e-38
-0.087878101 -0.13362285 1.2640001 1.0505208e-38
-0.085470475 -0.13362285 1.2640001 1.0230744e-38
-0.083062857 -0.13362285 1.2640001 1.0783918e-38
-0.08065524 -0.13362285 1.2640001 1.216438e-38
-0.078247622 -0.13362285 1.2640001 1.5575619e-38
-0.075840004 -0.13362285 1.2640001 1.5578856e-38
-0.073432386 -0.13362285 1.2640001 1.401153e-38
-0.07124953 -0.13404572 1.268 1.1711697e-38
-0.068834282 -0.13404572 1.268 1.143511e-38
-0.066419043 -0.13404572 1.268 1.3272899e-38
-0.06400381 -0.13404572 1.268 1.5024616e-38
-0.061831426 -0.13457428 1.273 1.548411e-38
-0.059406664 -0.13457428 1.273 1.6129479e-38
-0.056981906 -0.13457428 1.273 1.5028213e-38
-0.054557141 -0.13457428 1.273 1.4382843e-38
-0.052132379 -0.13457428 1.273 1.4198788e-38
-0.049707618 -0.13457428 1.273 1.4475375e-38
-0.12293144 -0.13266858 1.2780001 1.5393366e-38
-0.12049715 -0.13266858 1.2780001 1.5486293e-38
-0.11806287 -0.13266858 1.2780001 1.6961423e-38
-0.11517619 -0.13214953 1.273 1.6684461e-38
-0.11230858 -0.13163048 1.268 1.6131287e-38
-0.10989333 -0.13163048 1.268 1.2908127e-38
-0.10713905 -0.13121524 1.2640001 1.0234453e-38
-0.10473143 -0.13121524 1.2640001 1.0146497e-38
-0.10232381 -0.13121524 1.2640001 1.1713822e-38
-0.10023239 -0.13163048 1.268 1.4379959e-38
-0.097817145 -0.13163048 1.268 1.6039481e-38
-0.095401898 -0.13163048 1.268 1.5208977e-38
-0.092693336 -0.13121524 1.2640001 1.4194826e-38
-0.090285718 -0.13121524 1.2640001 1.2166548e-38
-0.087878101 -0.13121524 1.2640001 1.0322636e-38
