# .PCD v0.7 - Point Cloud Data file format
VERSION 0.7
FIELDS x y z rgb
SIZE 4 4 4 4
TYPE F F F F
COUNT 1 1 1 1
WIDTH 1047
HEIGHT 1
VIEWPOINT 0 0 0 1 0 0 0
POINTS 1047
DATA ascii
0.011648572 -0.21873431 1.3590001 1.4196679e-38
0.014237144 -0.21873431 1.3590001 1.4104484e-38
0.016825715 -0.21873431 1.3590001 1.4105193e-38
0.019414287 -0.21873431 1.3590001 1.4197389e-38
0.021921907 -0.21792954 1.3540001 1.3828603e-38
0.024500953 -0.21792954 1.3540001 1.3736408e-38
0.027080001 -0.21792954 1.3540001 1.3827161e-38
0.029549526 -0.21712478 1.3490001 1.3734966e-38
0.032119051 -0.21712478 1.3490001 1.3458026e-38
0.034688573 -0.21712478 1.3490001 1.3458026e-38
0.037092384 -0.21615906 1.3430001 1.3368328e-38
0.039355241 -0.21454953 1.3330001 1.3460524e-38
0.041548569 -0.21277905 1.322 1.3551278e-38
0.043900002 -0.21197428 1.317 1.30903e-38
0.046408571 -0.21197428 1.317 1.1614854e-38
-0.029549526 -0.21455525 1.3490001 1.3182145e-38
-0.026980001 -0.21455525 1.3490001 1.3643123e-38
-0.024410479 -0.21455525 1.3490001 1.3643126e-38
-0.021921907 -0.21535048 1.3540001 1.4011908e-38
-0.019342858 -0.21535048 1.3540001 1.3367978e-38
-0.01676381 -0.21535048 1.3540001 1.3828956e-38
-0.014184763 -0.21535048 1.3540001 1.3736758e-38
-0.011605715 -0.21535048 1.3540001 1.410554e-38
-0.0090266671 -0.21535048 1.3540001 1.4380335e-38
-0.0064476193 -0.21535048 1.3540001 1.4564726e-38
-0.0038828573 -0.21614572 1.3590001 1.4289211e-38
-0.0012942858 -0.21614572 1.3590001 1.4565798e-38
0.0012942858 -0.21614572 1.3590001 1.4381054e-38
0.0038828573 -0.21614572 1.3590001 1.4565445e-38
0.006471429 -0.21614572 1.3590001 1.447397e-38
0.0090600001 -0.21614572 1.3590001 1.4381774e-38
0.011648572 -0.21614572 1.3590001 1.3828956e-38
0.014237144 -0.21614572 1.3590001 1.3921152e-38
0.016825715 -0.21614572 1.3590001 1.3921149e-38
0.019414287 -0.21614572 1.3590001 1.410554e-38
0.022002857 -0.21614572 1.3590001 1.3921152e-38
0.024500953 -0.21535048 1.3540001 1.3828956e-38
0.027080001 -0.21535048 1.3540001 1.3919713e-38
0.02965905 -0.21535048 1.3540001 1.4104104e-38
0.032238096 -0.21535048 1.3540001 1.3919009e-38
0.034688573 -0.21455525 1.3490001 1.3919009e-38
0.037092384 -0.21360095 1.3430001 1.391936e-38
0.039207622 -0.21121526 1.3280001 1.3827164e-38
0.041391429 -0.20946573 1.317 1.3643476e-38
0.043733336 -0.20867048 1.312 1.2905911e-38
0.046232384 -0.20867048 1.312 1.1064179e-38
-0.030761907 -0.20302857 1.2920001 1.2169761e-38
-0.028300954 -0.20302857 1.2920001 1.2722962e-38
-0.026980001 -0.21198574 1.3490001 1.3368331e-38
-0.024410479 -0.21198574 1.3490001 1.3276143e-38
-0.021840954 -0.21198574 1.3490001 1.4013708e-38
-0.019342858 -0.21277145 1.3540001 1.4105903e-38
-0.01676381 -0.21277145 1.3540001 1.4566881e-38
-0.014184763 -0.21277145 1.3540001 1.4750187e-38
-0.011605715 -0.21277145 1.3540001 1.4934578e-38
-0.0090266671 -0.21277145 1.3540001 1.4843108e-38
-0.0064476193 -0.21277145 1.3540001 1.5488478e-38
-0.0038828573 -0.21355715 1.3590001 1.5764341e-38
-0.0012942858 -0.21355715 1.3590001 1.5856537e-38
0.0012942858 -0.21355715 1.3590001 1.6040212e-38
0.0038828573 -0.21355715 1.3590001 1.6685582e-38
0.006471429 -0.21355715 1.3590001 1.6685226e-38
0.0090600001 -0.21355715 1.3590001 1.6500835e-38
0.011648572 -0.21355715 1.3590001 1.6040926e-38
0.014237144 -0.21355715 1.3590001 1.5856534e-38
0.016825715 -0.21355715 1.3590001 1.5304802e-38
0.019414287 -0.21355715 1.3590001 1.493602e-38
0.022002857 -0.21355715 1.3590001 1.4292092e-38
0.024591429 -0.21355715 1.3590001 1.4199897e-38
0.027080001 -0.21277145 1.3540001 1.4658717e-38
0.029549526 -0.21198574 1.3490001 1.5119695e-38
0.032119051 -0.21198574 1.3490001 1.4012288e-38
0.034688573 -0.21198574 1.3490001 1.4012288e-38
0.036954287 -0.21025714 1.3380001 1.3368717e-38
0.038587622 -0.20538573 1.307 1.0695043e-38
0.040920004 -0.20460001 1.302 8.6681717e-39
0.043233335 -0.20381428 1.2970001 8.9447585e-39
0.045527618 -0.20302857 1.2920001 8.7592785e-39
0.047988571 -0.20302857 1.2920001 8.4826916e-39
-0.03844 -0.20212001 1.302 2.0744029e-38
-0.035960004 -0.20212001 1.302 9.9571406e-39
-0.033351429 -0.20134382 1.2970001 7.3755915e-39
-0.030761907 -0.20056762 1.2920001 1.014146e-38
-0.028300954 -0.20056762 1.2920001 1.1706988e-38
-0.025940001 -0.20134382 1.2970001 1.2352358e-38
-0.023379048 -0.20056762 1.2920001 1.1618788e-38
-0.020918095 -0.20056762 1.2920001 1.1618788e-38
-0.01927143 -0.2094162 1.3490001 1.3553446e-38
-0.016701905 -0.2094162 1.3490001 1.4751989e-38
-0.014184763 -0.21019238 1.3540001 1.465943e-38
-0.011605715 -0.21019238 1.3540001 1.4567235e-38
-0.0090266671 -0.21019238 1.3540001 1.4934951e-38
-0.0064476193 -0.21019238 1.3540001 1.5488125e-38
-0.0038828573 -0.21096858 1.3590001 1.5396995e-38
-0.0011990477 -0.19544476 1.2590001 1.5396995e-38
0.0011990477 -0.19544476 1.2590001 1.6040899e-38
0.0036228569 -0.19684191 1.268 1.7147246e-38
0.0060380953 -0.19684191 1.268 1.7514646e-38
0.0084533338 -0.19684191 1.268 1.6777081e-38
0.010834286 -0.19622096 1.2640001 1.6502606e-38
0.013189524 -0.19544476 1.2590001 1.6318215e-38
0.01558762 -0.19544476 1.2590001 1.5213696e-38
0.018057143 -0.19622096 1.2640001 1.4476131e-38
0.020529523 -0.19684191 1.268 1.3373739e-38
0.022944763 -0.19684191 1.268 1.3373739e-38
0.025359999 -0.19684191 1.268 1.4382856e-38
0.027884761 -0.19761808 1.273 1.4475052e-38
0.030547623 -0.19917049 1.2830001 1.3645294e-38
0.033119999 -0.19994669 1.2880001 1.3184316e-38
0.035573337 -0.19994669 1.2880001 1.1716388e-38
0.038144764 -0.20056762 1.2920001 9.5958887e-39
0.04076286 -0.20134382 1.2970001 6.8325561e-39
0.043066666 -0.20056762 1.2920001 6.1871867e-39
0.045386672 -0.19994669 1.2880001 8.4808741e-39
0.047840003 -0.19994669 1.2880001 9.1262435e-39
-0.03844 -0.19964001 1.302 2.0283389e-38
-0.035821907 -0.19887333 1.2970001 1.0602848e-38
-0.033351429 -0.19887333 1.2970001 4.7977755e-39
-0.030761907 -0.19810668 1.2920001 4.6133842e-39
-0.028300954 -0.19810668 1.2920001 7.7429882e-39
-0.025840001 -0.19810668 1.2920001 1.1983987e-38
-0.023379048 -0.19810668 1.2920001 1.143223e-38
-0.020918095 -0.19810668 1.2920001 1.0786861e-38
-0.018457144 -0.19810668 1.2920001 1.3001344e-38
-0.016701905 -0.20684667 1.3490001 1.4015496e-38
-0.014184763 -0.20761335 1.3540001 1.3002433e-38
-0.010868571 -0.19442666 1.268 1.2449259e-38
-0.0084533338 -0.19442666 1.268 1.3829685e-38
-0.0060380953 -0.19442666 1.268 1.4014076e-38
-0.0036228569 -0.19442666 1.268 1.3371558e-38
-0.0011990477 -0.19304667 1.2590001 1.2633993e-38
0.0011990477 -0.19304667 1.2590001 1.3001655e-38
0.0036228569 -0.19442666 1.268 1.5675328e-38
0.0060380953 -0.19442666 1.268 1.6410797e-38
0.0084533338 -0.19442666 1.268 1.3737124e-38
0.010834286 -0.19381334 1.2640001 1.2545021e-38
0.013189524 -0.19304667 1.2590001 1.3743564e-38
0.01558762 -0.19304667 1.2590001 1.4201714e-38
0.018057143 -0.19381334 1.2640001 1.3832932e-38
0.020529523 -0.19442666 1.268 1.3924392e-38
0.022944763 -0.19442666 1.268 1.3463414e-38
0.025359999 -0.19442666 1.268 1.4475054e-38
0.027884761 -0.19519334 1.273 1.2999924e-38
0.030547623 -0.19672668 1.2830001 9.5890742e-39
0.033119999 -0.19749334 1.2880001 8.8515091e-39
0.035573337 -0.19749334 1.2880001 9.8696113e-39
0.038144764 -0.19810668 1.2920001 1.2451089e-38
0.040605716 -0.19810668 1.2920001 1.0699012e-38
0.043066666 -0.19810668 1.2920001 7.0111867e-39
0.045386672 -0.19749334 1.2880001 7.8384138e-39
0.047840003 -0.19749334 1.2880001 1.0143305e-38
-0.03844 -0.19716001 1.302 2.0375953e-38
-0.035821907 -0.19640286 1.2970001 1.1986151e-38
-0.033351429 -0.19640286 1.2970001 4.06559e-39
-0.030761907 -0.19564572 1.2920001 2.9592425e-39
-0.028300954 -0.19564572 1.2920001 7.3744621e-39
-0.025840001 -0.19564572 1.2920001 1.1707654e-38
-0.023379048 -0.19564572 1.2920001 1.2627539e-38
-0.020918095 -0.19564572 1.2920001 1.3549495e-38
-0.0184 -0.19504002 1.2880001 1.2635808e-38
-0.015884763 -0.19428287 1.2830001 1.2267026e-38
-0.013388573 -0.19352572 1.2780001 1.1623104e-38
-0.010868571 -0.19201143 1.268 1.1254321e-38
-0.0084533338 -0.19201143 1.268 1.3738559e-38
-0.0060380953 -0.19201143 1.268 1.4568319e-38
-0.0036228569 -0.19201143 1.268 1.3096433e-38
-0.0012076191 -0.19201143 1.268 1.1621303e-38
0.0012076191 -0.19201143 1.268 9.7791729e-39
0.0036371427 -0.19276857 1.273 1.5034324e-38
0.0060619046 -0.19276857 1.273 1.6044188e-38
0.0084866667 -0.19276857 1.273 1.0881233e-38
0.010911428 -0.19276857 1.273 8.8618886e-39
0.013336191 -0.19276857 1.273 1.0613606e-38
0.015760953 -0.19276857 1.273 1.3834704e-38
0.018257145 -0.19352572 1.2780001 1.4387878e-38
0.02069143 -0.19352572 1.2780001 1.4569058e-38
0.023125716 -0.19352572 1.2780001 1.4476862e-38
0.025560003 -0.19352572 1.2780001 1.4569045e-38
0.028103812 -0.19428287 1.2830001 1.0512437e-38
0.03066667 -0.19504002 1.2880001 9.1287743e-39
0.033119999 -0.19504002 1.2880001 8.2990136e-39
0.035573337 -0.19504002 1.2880001 9.5897426e-39
0.038144764 -0.19564572 1.2920001 1.3185372e-38
0.040605716 -0.19564572 1.2920001 1.2630804e-38
0.043066666 -0.19564572 1.2920001 7.0068707e-39
0.045527618 -0.19564572 1.2920001 7.1001201e-39
0.047988571 -0.19564572 1.2920001 1.1433315e-38
-0.03844 -0.19468001 1.302 2.0928408e-38
-0.035960004 -0.19468001 1.302 1.3829344e-38
-0.033351429 -0.19393238 1.2970001 5.1687006e-39
-0.030761907 -0.19318476 1.2920001 2.9560055e-39
-0.028300954 -0.19318476 1.2920001 5.995178e-39
-0.025940001 -0.19393238 1.2970001 9.1298294e-39
-0.023379048 -0.19318476 1.2920001 1.0969835e-38
-0.020853335 -0.19258668 1.2880001 1.4381074e-38
-0.0184 -0.19258668 1.2880001 1.2635805e-38
-0.015884763 -0.19183905 1.2830001 1.0607501e-38
-0.013388573 -0.19109143 1.2780001 9.6902647e-39
-0.010954286 -0.19109143 1.2780001 9.7824604e-39
-0.0084866667 -0.19034381 1.273 1.1255407e-38
-0.0060619046 -0.19034381 1.273 1.3007124e-38
-0.0036371427 -0.19034381 1.273 1.4291765e-38
-0.0012123809 -0.19034381 1.273 1.6043482e-38
0.0012123809 -0.19034381 1.273 1.5860124e-38
0.0036371427 -0.19034381 1.273 1.4569386e-38
0.0060619046 -0.19034381 1.273 1.1440177e-38
0.0084866667 -0.19034381 1.273 7.660156e-39
0.010911428 -0.19034381 1.273 4.8161185e-39
0.013388573 -0.19109143 1.2780001 4.3551403e-39
0.015822859 -0.19109143 1.2780001 7.9435322e-39
0.018257145 -0.19109143 1.2780001 1.1907944e-38
0.02069143 -0.19109143 1.2780001 1.4201364e-38
0.023216194 -0.19183905 1.2830001 1.4016973e-38
0.025660003 -0.19183905 1.2830001 1.3093873e-38
0.028213335 -0.19258668 1.2880001 8.2075046e-39
0.03066667 -0.19258668 1.2880001 7.2866791e-39
0.033119999 -0.19258668 1.2880001 7.1022879e-39
0.035573337 -0.19258668 1.2880001 7.929515e-39
0.038144764 -0.19318476 1.2920001 1.1248558e-38
0.040605716 -0.19318476 1.2920001 1.078939e-38
0.043066666 -0.19318476 1.2920001 5.7186304e-39
0.045527618 -0.19318476 1.2920001 7.3785371e-39
0.047988571 -0.19318476 1.2920001 1.2725884e-38
-0.038587622 -0.1929381 1.307 2.0928405e-38
-0.035960004 -0.19220001 1.302 1.4198124e-38
-0.03348 -0.19220001 1.302 6.730281e-39
-0.030880954 -0.19146191 1.2970001 4.0566077e-39
-0.028410478 -0.19146191 1.2970001 4.1548654e-39
-0.025940001 -0.19146191 1.2970001 6.3675605e-39
-0.023379048 -0.19072382 1.2920001 9.6823236e-39
-0.020853335 -0.19013335 1.2880001 1.3462344e-38
-0.0184 -0.19013335 1.2880001 1.1716385e-38
-0.015884763 -0.18939525 1.2830001 9.5958859e-39
-0.013440953 -0.18939525 1.2830001 8.4041951e-39
-0.010954286 -0.18865715 1.2780001 8.5885863e-39
-0.0085200006 -0.18865715 1.2780001 9.0484827e-39
-0.0060857143 -0.18865715 1.2780001 9.7860477e-39
-0.003651429 -0.18865715 1.2780001 1.3648193e-38
-0.0012171429 -0.18865715 1.2780001 1.687504e-38
0.0012171429 -0.18865715 1.2780001 1.6229668e-38
0.003651429 -0.18865715 1.2780001 1.1066713e-38
0.0060857143 -0.18865715 1.2780001 7.5755106e-39
0.0085200006 -0.18865715 1.2780001 5.731598e-39
0.010954286 -0.18865715 1.2780001 3.4400336e-39
0.013388573 -0.18865715 1.2780001 2.5180773e-39
0.015822859 -0.18865715 1.2780001 3.2534339e-39
0.018328572 -0.18939525 1.2830001 8.4163892e-39
0.020772383 -0.18939525 1.2830001 1.3098629e-38
0.023306668 -0.19013335 1.2880001 1.3098629e-38
0.025760002 -0.19013335 1.2880001 1.0698971e-38
0.028213335 -0.19013335 1.2880001 7.4721242e-39
0.03066667 -0.19013335 1.2880001 8.0228022e-39
0.033119999 -0.19013335 1.2880001 7.6540197e-39
0.035573337 -0.19013335 1.2880001 7.6539945e-39
0.038144764 -0.19072382 1.2920001 1.134182e-38
0.040605716 -0.19072382 1.2920001 9.7799268e-39
0.043066666 -0.19072382 1.2920001 5.4467322e-39
0.045527618 -0.19072382 1.2920001 7.3806796e-39
0.047988571 -0.19072382 1.2920001 1.2451439e-38
-0.038587622 -0.19044858 1.307 2.028231e-38
-0.036098097 -0.19044858 1.307 1.521155e-38
-0.03348 -0.18972 1.302 6.6403204e-39
-0.031000003 -0.18972 1.302 3.0446909e-39
-0.028520001 -0.18972 1.302 3.9694441e-39
-0.026040001 -0.18972 1.302 5.7211611e-39
-0.023379048 -0.18826286 1.2920001 9.0383933e-39
-0.020918095 -0.18826286 1.2920001 1.3002805e-38
-0.0184 -0.18768001 1.2880001 1.1532347e-38
-0.015946668 -0.18768001 1.2880001 9.4118478e-39
-0.013440953 -0.18695144 1.2830001 8.1286872e-39
-0.010997144 -0.18695144 1.2830001 8.5896653e-39
-0.0085533345 -0.18695144 1.2830001 8.7722769e-39
-0.0061095241 -0.18695144 1.2830001 8.9566682e-39
-0.0036657148 -0.18695144 1.2830001 1.208159e-38
-0.0012219049 -0.18695144 1.2830001 1.6230394e-38
0.0012171429 -0.18622287 1.2780001 1.4849232e-38
0.003651429 -0.18622287 1.2780001 6.8282121e-39
0.0060857143 -0.18622287 1.2780001 1.7841122e-39
0.0085200006 -0.18622287 1.2780001 3.4436335e-39
0.010997144 -0.18695144 1.2830001 4.5435071e-39
0.013440953 -0.18695144 1.2830001 3.7137464e-39
0.015884763 -0.18695144 1.2830001 4.5398973e-39
0.0184 -0.18768001 1.2880001 7.2135706e-39
0.020853335 -0.18768001 1.2880001 1.2175924e-38
0.023306668 -0.18768001 1.2880001 1.1714946e-38
0.025760002 -0.18768001 1.2880001 1.0604983e-38
0.028213335 -0.18768001 1.2880001 7.6547232e-39
0.03066667 -0.18768001 1.2880001 7.471083e-39
0.033119999 -0.18768001 1.2880001 7.1023005e-39
0.035683811 -0.18826286 1.2920001 9.2188189e-39
0.038144764 -0.18826286 1.2920001 1.3459818e-38
0.04076286 -0.18899144 1.2970001 1.1711687e-38
0.043233335 -0.18899144 1.2970001 7.6550791e-39
0.04570381 -0.18899144 1.2970001 8.7611058e-39
0.048174284 -0.18899144 1.2970001 1.3463083e-38
-0.038735237 -0.18867809 1.312 1.9821332e-38
-0.036098097 -0.18795906 1.307 1.5580333e-38
-0.033608571 -0.18795906 1.307 1.1616652e-38
-0.031000003 -0.18724 1.302 5.8083275e-39
-0.028520001 -0.18724 1.302 4.2452407e-39
-0.026140001 -0.18795906 1.307 7.1033052e-39
-0.023379048 -0.18580191 1.2920001 1.0324819e-38
-0.020918095 -0.18580191 1.2920001 1.3643862e-38
-0.0184 -0.18522668 1.2880001 1.1532347e-38
-0.015946668 -0.18522668 1.2880001 9.596239e-39
-0.013493334 -0.18522668 1.2880001 8.3116365e-39
-0.011040001 -0.18522668 1.2880001 8.7726146e-39
-0.0085533345 -0.18450764 1.2830001 8.4041979e-39
-0.0061095241 -0.18450764 1.2830001 8.5885891e-39
-0.0036657148 -0.18450764 1.2830001 1.107031e-38
-0.0012219049 -0.18450764 1.2830001 1.5311309e-38
0.0012219049 -0.18450764 1.2830001 1.2735585e-38
0.0036657148 -0.18450764 1.2830001 5.5443257e-39
0.0061095241 -0.18450764 1.2830001 2.7932222e-39
0.0085533345 -0.18450764 1.2830001 4.3605479e-39
0.010997144 -0.18450764 1.2830001 4.3591088e-39
0.013440953 -0.18450764 1.2830001 3.3449569e-39
0.015946668 -0.18522668 1.2880001 4.264374e-39
0.0184 -0.18522668 1.2880001 8.0443949e-39
0.020853335 -0.18522668 1.2880001 1.2267764e-38
0.023306668 -0.18522668 1.2880001 1.235996e-38
0.025760002 -0.18522668 1.2880001 1.0880166e-38
0.028213335 -0.18522668 1.2880001 7.5611235e-39
0.03066667 -0.18522668 1.2880001 7.3784754e-39
0.033119999 -0.18522668 1.2880001 8.484823e-39
0.035683811 -0.18580191 1.2920001 1.0781841e-38
0.038144764 -0.18580191 1.2920001 1.3178928e-38
0.04076286 -0.18652095 1.2970001 1.1893927e-38
0.043400001 -0.18724 1.302 9.0358626e-39
0.045880005 -0.18724 1.302 9.4979351e-39
0.048359998 -0.18724 1.302 1.3277956e-38
-0.038735237 -0.18617906 1.312 2.0005726e-38
-0.036098097 -0.18546954 1.307 1.5764727e-38
-0.033608571 -0.18546954 1.307 1.1341177e-38
-0.031000003 -0.18476 1.302 6.9157863e-39
-0.028520001 -0.18476 1.302 7.9295052e-39
-0.026040001 -0.18476 1.302 1.1986113e-38
-0.023560001 -0.18476 1.302 1.2355644e-38
-0.020918095 -0.18334097 1.2920001 1.2816622e-38
-0.0184 -0.18277335 1.2880001 1.171566e-38
-0.015946668 -0.18277335 1.2880001 1.1531268e-38
-0.013493334 -0.18277335 1.2880001 9.6924101e-39
-0.011040001 -0.18277335 1.2880001 8.9548451e-39
-0.0085866675 -0.18277335 1.2880001 9.3232745e-39
-0.0061333338 -0.18277335 1.2880001 1.1074991e-38
-0.0036800003 -0.18277335 1.2880001 1.3557074e-38
-0.0012266667 -0.18277335 1.2880001 1.5861964e-38
0.0012219049 -0.18206383 1.2830001 1.4941077e-38
0.0036657148 -0.18206383 1.2830001 1.2728382e-38
0.0061095241 -0.18206383 1.2830001 6.9323398e-39
0.0085533345 -0.18206383 1.2830001 4.3508622e-39
0.010997144 -0.18206383 1.2830001 2.7957432e-39
0.013493334 -0.18277335 1.2880001 3.4411126e-39
0.015946668 -0.18277335 1.2880001 7.5740686e-39
0.0184 -0.18277335 1.2880001 1.2552633e-38
0.020853335 -0.18277335 1.2880001 1.5030386e-38
0.023306668 -0.18277335 1.2880001 1.5491364e-38
0.025840001 -0.18334097 1.2920001 1.4290676e-38
0.028300954 -0.18334097 1.2920001 9.9574812e-39
0.030761907 -0.18334097 1.2920001 9.6826543e-39
0.033222858 -0.18334097 1.2920001 1.2171936e-38
0.035683811 -0.18334097 1.2920001 1.1987542e-38
0.038144764 -0.18334097 1.2920001 9.1294777e-39
0.04076286 -0.18405049 1.2970001 8.9458502e-39
0.043400001 -0.18476 1.302 8.6692633e-39
0.045880005 -0.18476 1.302 1.051099e-38
0.048545718 -0.18546954 1.307 1.4198815e-38
0.05103524 -0.18546954 1.307 1.4198092e-38
-0.036098097 -0.18298002 1.307 1.6134588e-38
-0.033608571 -0.18298002 1.307 1.3093947e-38
-0.031000003 -0.18228 1.302 7.5622095e-39
-0.028520001 -0.18228 1.302 8.8507426e-39
-0.026040001 -0.18228 1.302 1.2722959e-38
-0.023560001 -0.18228 1.302 1.2264167e-38
-0.020918095 -0.18088001 1.2920001 1.0973428e-38
-0.018457144 -0.18088001 1.2920001 1.1253943e-38
-0.015996192 -0.18088001 1.2920001 1.2913464e-38
-0.013535239 -0.18088001 1.2920001 1.1624193e-38
-0.011040001 -0.18032001 1.2880001 1.0056867e-38
-0.0085866675 -0.18032001 1.2880001 1.0334545e-38
-0.0061333338 -0.18032001 1.2880001 1.3100414e-38
-0.0036800003 -0.18032001 1.2880001 1.5030762e-38
-0.0012266667 -0.18032001 1.2880001 1.4754175e-38
0.0012266667 -0.18032001 1.2880001 1.5399143e-38
0.0036657148 -0.17962001 1.2830001 1.4938165e-38
0.0061095241 -0.17962001 1.2830001 1.22703e-38
0.0085533345 -0.17962001 1.2830001 6.7385627e-39
0.011040001 -0.18032001 1.2880001 4.3551151e-39
0.013493334 -0.18032001 1.2880001 6.1990277e-39
0.015946668 -0.18032001 1.2880001 1.0794432e-38
0.0184 -0.18032001 1.2880001 1.4113475e-38
0.020853335 -0.18032001 1.2880001 1.5121866e-38
0.023306668 -0.18032001 1.2880001 1.502967e-38
0.025840001 -0.18088001 1.2920001 1.5121881e-38
0.028300954 -0.18088001 1.2920001 1.2356012e-38
0.030761907 -0.18088001 1.2920001 1.0694693e-38
0.033222858 -0.18088001 1.2920001 1.2722997e-38
0.035683811 -0.18088001 1.2920001 1.1254321e-38
0.038292382 -0.18158001 1.2970001 4.8006271e-39
0.04076286 -0.18158001 1.2970001 5.1740634e-39
0.043400001 -0.18228 1.302 7.6633454e-39
0.046056192 -0.18298002 1.307 1.143223e-38
0.048545718 -0.18298002 1.307 1.438249e-38
0.05103524 -0.18298002 1.307 1.4197389e-38
-0.036098097 -0.18049048 1.307 1.7148021e-38
-0.033608571 -0.18049048 1.307 1.3462377e-38
-0.031000003 -0.1798 1.302 7.7462476e-39
-0.028520001 -0.1798 1.302 8.6699611e-39
-0.026140001 -0.18049048 1.307 1.0606069e-38
-0.023560001 -0.1798 1.302 7.0144335e-39
-0.02108 -0.1798 1.302 4.3407602e-39
-0.018457144 -0.17841905 1.2920001 5.5439697e-39
-0.015996192 -0.17841905 1.2920001 1.1905468e-38
-0.013535239 -0.17841905 1.2920001 1.3832932e-38
-0.011074286 -0.17841905 1.2920001 1.3832932e-38
-0.0085866675 -0.17786667 1.2880001 1.4109869e-38
-0.0061333338 -0.17786667 1.2880001 1.4755238e-38
-0.0036800003 -0.17786667 1.2880001 1.2817736e-38
-0.0012266667 -0.17786667 1.2880001 9.0377151e-39
0.0012266667 -0.17786667 1.2880001 1.1065245e-38
0.0036800003 -0.17786667 1.2880001 1.5951614e-38
0.0061333338 -0.17786667 1.2880001 1.5399923e-38
0.0085866675 -0.17786667 1.2880001 1.3832597e-38
0.011040001 -0.17786667 1.2880001 1.3008534e-38
0.013493334 -0.17786667 1.2880001 1.4114881e-38
0.015946668 -0.17786667 1.2880001 1.4296777e-38
0.0184 -0.17786667 1.2880001 1.2637256e-38
0.020853335 -0.17786667 1.2880001 1.125507e-38
0.023306668 -0.17786667 1.2880001 1.0886287e-38
0.025840001 -0.17841905 1.2920001 1.2450007e-38
0.028300954 -0.17841905 1.2920001 1.4386115e-38
0.030761907 -0.17841905 1.2920001 1.4752342e-38
0.033222858 -0.17841905 1.2920001 1.1894277e-38
0.035683811 -0.17841905 1.2920001 7.9392386e-39
0.038292382 -0.17910953 1.2970001 3.2372615e-39
0.040920004 -0.1798 1.302 2.7820413e-39
0.043400001 -0.1798 1.302 6.101084e-39
0.046056192 -0.18049048 1.307 1.1432236e-38
0.048545718 -0.18049048 1.307 1.4843474e-38
0.05103524 -0.18049048 1.307 1.4750187e-38
-0.036098097 -0.17800096 1.307 1.8346567e-38
-0.033608571 -0.17800096 1.307 1.3279783e-38
-0.031119047 -0.17800096 1.307 7.102676e-39
-0.028629525 -0.17800096 1.307 7.9370806e-39
-0.026040001 -0.17732 1.302 8.3058631e-39
-0.023560001 -0.17732 1.302 4.9007485e-39
-0.02108 -0.17732 1.302 3.0568359e-39
-0.018457144 -0.17595811 1.2920001 3.797247e-39
-0.015996192 -0.17595811 1.2920001 8.6836154e-39
-0.013535239 -0.17595811 1.2920001 1.4199897e-38
-0.011074286 -0.17595811 1.2920001 1.5675027e-38
-0.008613334 -0.17595811 1.2920001 1.5305554e-38
-0.0061333338 -0.17541336 1.2880001 1.410701e-38
-0.0036800003 -0.17541336 1.2880001 1.1161785e-38
-0.0012266667 -0.17541336 1.2880001 8.0271337e-39
0.0012266667 -0.17541336 1.2880001 9.0372709e-39
0.0036800003 -0.17541336 1.2880001 1.3370465e-38
0.0061333338 -0.17541336 1.2880001 1.6409711e-38
0.0085866675 -0.17541336 1.2880001 1.6409711e-38
0.011040001 -0.17541336 1.2880001 1.5398102e-38
0.013493334 -0.17541336 1.2880001 1.585908e-38
0.015946668 -0.17541336 1.2880001 1.4204594e-38
0.0184 -0.17541336 1.2880001 1.0977747e-38
0.020918095 -0.17595811 1.2920001 8.8666123e-39
0.023379048 -0.17595811 1.2920001 8.4056342e-39
0.025840001 -0.17595811 1.2920001 1.1255034e-38
0.028300954 -0.17595811 1.2920001 1.429749e-38
0.030761907 -0.17595811 1.2920001 1.4937134e-38
0.033222858 -0.17595811 1.2920001 8.8522224e-39
0.035683811 -0.17595811 1.2920001 6.1871489e-39
0.038292382 -0.17663905 1.2970001 3.5134756e-39
0.040920004 -0.17732 1.302 2.690196e-39
0.043400001 -0.17732 1.302 6.8389993e-39
0.046056192 -0.17800096 1.307 1.1155656e-38
0.048545718 -0.17800096 1.307 1.465909e-38
0.05103524 -0.17800096 1.307 1.4749483e-38
-0.036098097 -0.17551143 1.307 1.8622789e-38
-0.033608571 -0.17551143 1.307 1.438396e-38
-0.031000003 -0.17484 1.302 5.9019622e-39
-0.028520001 -0.17484 1.302 5.7272848e-39
-0.026040001 -0.17484 1.302 7.1102192e-39
-0.023560001 -0.17484 1.302 4.6256036e-39
-0.02108 -0.17484 1.302 3.7958429e-39
-0.018528571 -0.17416859 1.2970001 2.4201237e-39
-0.015996192 -0.17349716 1.2920001 2.4201237e-39
-0.013535239 -0.17349716 1.2920001 1.1804194e-38
-0.011074286 -0.17349716 1.2920001 1.5768606e-38
-0.008613334 -0.17349716 1.2920001 1.5579216e-38
-0.0061523807 -0.17349716 1.2920001 9.5865e-39
-0.0036914286 -0.17349716 1.2920001 8.3015471e-39
-0.0012304762 -0.17349716 1.2920001 9.0391122e-39
0.0012266667 -0.17296001 1.2880001 9.5886986e-39
0.0036800003 -0.17296001 1.2880001 9.496503e-39
0.0061333338 -0.17296001 1.2880001 1.088119e-38
0.0085866675 -0.17296001 1.2880001 1.5767559e-38
0.011040001 -0.17296001 1.2880001 1.5492115e-38
0.013493334 -0.17296001 1.2880001 1.392479e-38
0.015946668 -0.17296001 1.2880001 1.1443041e-38
0.018457144 -0.17349716 1.2920001 1.0336694e-38
0.020918095 -0.17349716 1.2920001 9.2361165e-39
0.023379048 -0.17349716 1.2920001 8.3141602e-39
0.025840001 -0.17349716 1.2920001 1.0425656e-38
0.028300954 -0.17349716 1.2920001 1.2914938e-38
0.030761907 -0.17349716 1.2920001 1.2913124e-38
0.033222858 -0.17349716 1.2920001 6.367234e-39
0.035821907 -0.17416859 1.2970001 1.3145175e-39
0.03844 -0.17484 1.302 7.6134367e-40
0.041077144 -0.17551143 1.307 4.8978744e-39
0.04356667 -0.17551143 1.307 9.3232647e-39
0.046056192 -0.17551143 1.307 1.2076536e-38
0.048545718 -0.17551143 1.307 1.5118992e-38
0.05103524 -0.17551143 1.307 1.5116831e-38
-0.033608571 -0.17302191 1.307 1.4752743e-38
-0.031000003 -0.17236 1.302 6.7317229e-39
-0.028520001 -0.17236 1.302 6.3722632e-39
-0.026040001 -0.17236 1.302 7.7551977e-39
-0.023560001 -0.17236 1.302 4.4415752e-39
-0.02108 -0.17236 1.302 3.5196189e-39
-0.018528571 -0.17169809 1.2970001 1.1347827e-39
-0.015996192 -0.1710362 1.2920001 5.8160893e-40
-0.013535239 -0.1710362 1.2920001 7.7537431e-39
-0.011074286 -0.1710362 1.2920001 1.4207437e-38
-0.008613334 -0.1710362 1.2920001 1.3277615e-38
-0.0061523807 -0.1710362 1.2920001 8.4834427e-39
-0.0036914286 -0.1710362 1.2920001 8.3915848e-39
-0.0012304762 -0.1710362 1.2920001 9.7745192e-39
0.0012266667 -0.17050667 1.2880001 9.6823264e-39
0.0036800003 -0.17050667 1.2880001 8.6681745e-39
0.0061333338 -0.17050667 1.2880001 7.7522676e-39
0.0085866675 -0.17050667 1.2880001 1.4851331e-38
0.011074286 -0.1710362 1.2920001 1.512622e-38
0.013493334 -0.17050667 1.2880001 1.2544742e-38
0.015946668 -0.17050667 1.2880001 9.3275779e-39
0.018457144 -0.1710362 1.2920001 9.4197735e-39
0.020918095 -0.1710362 1.2920001 9.9708047e-39
0.023379048 -0.1710362 1.2920001 8.9566528e-39
0.025840001 -0.1710362 1.2920001 9.8742805e-39
0.028300954 -0.1710362 1.2920001 1.2271367e-38
0.030761907 -0.1710362 1.2920001 1.1810752e-38
0.033222858 -0.1710362 1.2920001 5.4492532e-39
0.035821907 -0.17169809 1.2970001 1.1311477e-39
0.03844 -0.17236 1.302 1.4999303e-39
0.041077144 -0.17302191 1.307 5.9109123e-39
0.04356667 -0.17302191 1.307 9.9675201e-39
0.046056192 -0.17302191 1.307 1.2904857e-38
0.048545718 -0.17302191 1.307 1.5301944e-38
0.051230475 -0.17368382 1.312 1.4932445e-38
-0.033608571 -0.17053239 1.307 1.641151e-38
-0.031000003 -0.16988 1.302 8.2060991e-39
-0.028520001 -0.16988 1.302 8.0274588e-39
-0.026140001 -0.17053239 1.307 1.0240154e-38
-0.023560001 -0.16988 1.302 7.2953238e-39
-0.02108 -0.16988 1.302 4.1606723e-39
-0.018528571 -0.16922763 1.2970001 1.225919e-39
-0.016058095 -0.16922763 1.2970001 2.0556796e-39
-0.013587619 -0.16922763 1.2970001 8.3033898e-39
-0.011117143 -0.16922763 1.2970001 1.4572693e-38
-0.008613334 -0.16857524 1.2920001 1.4567598e-38
-0.0061523807 -0.16857524 1.2920001 8.9436641e-39
-0.0036914286 -0.16857524 1.2920001 8.0246043e-39
-0.0012304762 -0.16857524 1.2920001 8.7621694e-39
0.0012304762 -0.16857524 1.2920001 9.1284464e-39
0.0036914286 -0.16857524 1.2920001 8.3908813e-39
0.0061523807 -0.16857524 1.2920001 8.6703297e-39
0.008613334 -0.16857524 1.2920001 1.4847437e-38
0.011074286 -0.16857524 1.2920001 1.5677563e-38
0.013535239 -0.16857524 1.2920001 1.3557064e-38
0.015996192 -0.16857524 1.2920001 1.0430338e-38
0.018457144 -0.16857524 1.2920001 9.8771643e-39
0.020918095 -0.16857524 1.2920001 9.051019e-39
0.023379048 -0.16857524 1.2920001 8.8666278e-39
0.025840001 -0.16857524 1.2920001 1.1255067e-38
0.028300954 -0.16857524 1.2920001 1.3191175e-38
0.030761907 -0.16857524 1.2920001 1.3648903e-38
0.033222858 -0.16857524 1.2920001 1.1159621e-38
0.035821907 -0.16922763 1.2970001 6.9265258e-39
0.03844 -0.16988 1.302 6.373352e-39
0.040920004 -0.16988 1.302 7.9363449e-39
0.04356667 -0.17053239 1.307 1.0425627e-38
0.046056192 -0.17053239 1.307 1.2812662e-38
0.048545718 -0.17053239 1.307 1.5301944e-38
0.051230475 -0.17118476 1.312 1.4564013e-38
-0.031119047 -0.16804287 1.307 8.4809161e-39
-0.028629525 -0.16804287 1.307 8.6685024e-39
-0.026140001 -0.16804287 1.307 1.1157784e-38
-0.023650477 -0.16804287 1.307 9.045233e-39
-0.02108 -0.1674 1.302 4.4354516e-39
-0.0186 -0.1674 1.302 1.4088304e-39
-0.016058095 -0.16675714 1.2970001 4.5434819e-39
-0.013587619 -0.16675714 1.2970001 1.2262006e-38
-0.011117143 -0.16675714 1.2970001 1.5120071e-38
-0.008613334 -0.1661143 1.2920001 1.4383948e-38
-0.0061523807 -0.1661143 1.2920001 1.0696122e-38
-0.0036914286 -0.1661143 1.2920001 8.6685696e-39
-0.0012304762 -0.1661143 1.2920001 8.3919827e-39
0.0012304762 -0.1661143 1.2920001 8.5777319e-39
0.0036914286 -0.1661143 1.2920001 9.6840794e-39
0.0061523807 -0.1661143 1.2920001 1.0788336e-38
0.008613334 -0.1661143 1.2920001 1.493714e-38
0.011074286 -0.1661143 1.2920001 1.6320399e-38
0.013535239 -0.1661143 1.2920001 1.502966e-38
0.015996192 -0.1661143 1.2920001 1.181112e-38
0.018457144 -0.1661143 1.2920001 9.9672076e-39
0.020918095 -0.1661143 1.2920001 8.3145106e-39
0.023379048 -0.1661143 1.2920001 9.1442712e-39
0.025840001 -0.1661143 1.2920001 1.190007e-38
0.028300954 -0.1661143 1.2920001 1.2729831e-38
0.030761907 -0.1661143 1.2920001 1.4108038e-38
0.033222858 -0.1661143 1.2920001 1.2725103e-38
0.035821907 -0.16675714 1.2970001 1.0699362e-38
0.03844 -0.1674 1.302 8.6710583e-39
0.040920004 -0.1674 1.302 8.7631895e-39
0.04356667 -0.16804287 1.307 1.0975885e-38
0.046056192 -0.16804287 1.307 1.2629354e-38
0.048545718 -0.16804287 1.307 1.4934244e-38
-0.031119047 -0.16555335 1.307 7.7433511e-39
-0.028629525 -0.16555335 1.307 5.9980857e-39
-0.026240001 -0.16618666 1.312 8.3029765e-39
-0.023650477 -0.16555335 1.307 8.3055226e-39
-0.021160953 -0.16555335 1.307 9.1352833e-39
-0.0186 -0.16492 1.302 1.0887279e-38
-0.01612 -0.16492 1.302 1.3376561e-38
-0.01364 -0.16492 1.302 1.3740383e-38
-0.011117143 -0.16428667 1.2970001 1.3095014e-38
-0.008646667 -0.16428667 1.2970001 1.3832199e-38
-0.0061761905 -0.16428667 1.2970001 1.4754155e-38
-0.0036914286 -0.16365334 1.2920001 1.2448953e-38
-0.0012304762 -0.16365334 1.2920001 8.7611282e-39
0.0012304762 -0.16365334 1.2920001 9.6833774e-39
0.0036914286 -0.16365334 1.2920001 1.4661941e-38
0.0061523807 -0.16365334 1.2920001 1.4937843e-38
0.008613334 -0.16365334 1.2920001 1.4108082e-38
0.011074286 -0.16365334 1.2920001 1.4204186e-38
0.013535239 -0.16365334 1.2920001 1.4941751e-38
0.015996192 -0.16365334 1.2920001 1.4295365e-38
0.018457144 -0.16365334 1.2920001 1.291243e-38
0.020918095 -0.16365334 1.2920001 1.2639764e-38
0.023379048 -0.16365334 1.2920001 1.356172e-38
0.025840001 -0.16365334 1.2920001 1.3464515e-38
0.028300954 -0.16365334 1.2920001 9.9610811e-39
0.030761907 -0.16365334 1.2920001 9.9606411e-39
0.033351429 -0.16428667 1.2970001 1.2634314e-38
0.035821907 -0.16428667 1.2970001 1.2079442e-38
0.03844 -0.16492 1.302 1.0327725e-38
0.040920004 -0.16492 1.302 8.3944462e-39
0.04356667 -0.16555335 1.307 1.0699337e-38
0.046056192 -0.16555335 1.307 1.3367275e-38
0.048545718 -0.16555335 1.307 1.6040948e-38
0.05103524 -0.16555335 1.307 1.5578162e-38
-0.031238094 -0.16368763 1.312 8.2972409e-39
-0.028739048 -0.16368763 1.312 2.9617214e-39
-0.026240001 -0.16368763 1.312 5.7275903e-39
-0.023740953 -0.16368763 1.312 9.1298435e-39
-0.021160953 -0.16306382 1.307 1.2264495e-38
-0.018671431 -0.16306382 1.307 1.3093189e-38
-0.01612 -0.16244002 1.302 1.4844906e-38
-0.01364 -0.16244002 1.302 1.2730547e-38
-0.01116 -0.16244002 1.302 1.0610048e-38
-0.008646667 -0.16181619 1.2970001 1.2083729e-38
-0.0061761905 -0.16181619 1.2970001 1.4019837e-38
-0.0037057146 -0.16181619 1.2970001 1.5212282e-38
-0.0012304762 -0.16119239 1.2920001 1.2446413e-38
0.0012304762 -0.16119239 1.2920001 1.1340788e-38
0.0036914286 -0.16119239 1.2920001 1.5766179e-38
0.0061523807 -0.16119239 1.2920001 1.6137469e-38
0.008613334 -0.16119239 1.2920001 1.106671e-38
0.011074286 -0.16119239 1.2920001 1.0056844e-38
0.013535239 -0.16119239 1.2920001 1.2453931e-38
0.015996192 -0.16119239 1.2920001 1.4939983e-38
0.018457144 -0.16119239 1.2920001 1.4755592e-38
0.020918095 -0.16119239 1.2920001 1.4570149e-38
0.023379048 -0.16119239 1.2920001 1.4570149e-38
0.025840001 -0.16119239 1.2920001 1.4291739e-38
0.028300954 -0.16119239 1.2920001 7.9302409e-39
0.030761907 -0.16119239 1.2920001 7.7453928e-39
0.033351429 -0.16181619 1.2970001 1.1064435e-38
0.035821907 -0.16181619 1.2970001 1.3091414e-38
0.03844 -0.16244002 1.302 1.0878719e-38
0.041077144 -0.16306382 1.307 8.4866054e-39
0.04356667 -0.16306382 1.307 1.1068083e-38
0.046056192 -0.16306382 1.307 1.4103045e-38
0.048545718 -0.16306382 1.307 1.5578175e-38
0.05103524 -0.16306382 1.307 1.530266e-38
-0.031476188 -0.16241714 1.322 9.495424e-39
-0.028958095 -0.16241714 1.322 3.1450561e-39
-0.02634 -0.16180286 1.317 2.9606648e-39
-0.023740953 -0.16118857 1.312 5.2601858e-39
-0.021160953 -0.1605743 1.307 1.1529489e-38
-0.018671431 -0.1605743 1.307 1.2817341e-38
-0.01612 -0.15996 1.302 1.2540754e-38
-0.01364 -0.15996 1.302 9.9668418e-39
-0.01116 -0.15996 1.302 9.1370812e-39
-0.008646667 -0.15934572 1.2970001 9.415117e-39
-0.0061761905 -0.15934572 1.2970001 1.125903e-38
-0.0037200002 -0.15996 1.302 1.410701e-38
-0.0012352382 -0.15934572 1.2970001 1.6504097e-38
0.0012352382 -0.15934572 1.2970001 1.6412239e-38
0.0037057146 -0.15934572 1.2970001 1.5213696e-38
0.0061761905 -0.15934572 1.2970001 1.1441268e-38
0.008646667 -0.15934572 1.2970001 7.1080738e-39
0.011117143 -0.15934572 1.2970001 4.6324461e-39
0.013587619 -0.15934572 1.2970001 4.7246417e-39
0.015996192 -0.15873145 1.2920001 9.8756579e-39
0.018457144 -0.15873145 1.2920001 1.4116657e-38
0.02099905 -0.15934572 1.2970001 1.5582859e-38
0.023469524 -0.15934572 1.2970001 1.2632599e-38
0.025940001 -0.15934572 1.2970001 1.0144005e-38
0.028410478 -0.15934572 1.2970001 7.7469188e-39
0.030880954 -0.15934572 1.2970001 7.6550763e-39
0.033351429 -0.15934572 1.2970001 8.3926413e-39
0.035960004 -0.15996 1.302 1.0420942e-38
0.038587622 -0.1605743 1.307 9.9599643e-39
0.041077144 -0.1605743 1.307 8.1178467e-39
0.04356667 -0.1605743 1.307 1.1344694e-38
0.046056192 -0.1605743 1.307 1.4658361e-38
0.048545718 -0.1605743 1.307 1.5027144e-38
0.05103524 -0.1605743 1.307 1.5209745e-38
-0.031476188 -0.15989904 1.322 1.0601769e-38
-0.028958095 -0.15989904 1.322 6.8185109e-39
-0.02634 -0.15929429 1.317 4.9745983e-39
-0.023740953 -0.15868953 1.312 4.9838693e-39
-0.021160953 -0.15808477 1.307 1.1621948e-38
-0.018671431 -0.15808477 1.307 1.1991177e-38
-0.016181905 -0.15808477 1.307 1.088483e-38
-0.01364 -0.15748 1.302 8.8637313e-39
-0.01116 -0.15748 1.302 8.9559269e-39
-0.00868 -0.15748 1.302 8.3137945e-39
-0.0062000002 -0.15748 1.302 8.682577e-39
-0.0037342857 -0.15808477 1.307 1.2360316e-38
-0.00124 -0.15748 1.302 1.6140336e-38
0.0012352382 -0.15687525 1.2970001 1.6506267e-38
0.0037057146 -0.15687525 1.2970001 1.1896486e-38
0.0061761905 -0.15687525 1.2970001 7.4851128e-39
0.00868 -0.15748 1.302 5.3646133e-39
0.01116 -0.15748 1.302 3.2570773e-39
0.01364 -0.15748 1.302 2.0585341e-39
0.016058095 -0.15687525 1.2970001 3.8977145e-39
0.018528571 -0.15687525 1.2970001 1.0904582e-38
0.02099905 -0.15687525 1.2970001 1.5124778e-38
0.023469524 -0.15687525 1.2970001 1.0791583e-38
0.025940001 -0.15687525 1.2970001 8.759626e-39
0.028410478 -0.15687525 1.2970001 8.022061e-39
0.030880954 -0.15687525 1.2970001 8.2990136e-39
0.033351429 -0.15687525 1.2970001 9.0365786e-39
0.035960004 -0.15748 1.302 1.0603201e-38
0.038587622 -0.15808477 1.307 9.6812446e-39
0.041077144 -0.15808477 1.307 7.6561063e-39
0.04356667 -0.15808477 1.307 1.2173692e-38
0.046056192 -0.15808477 1.307 1.4842052e-38
0.048545718 -0.15808477 1.307 1.5118639e-38
0.05103524 -0.15808477 1.307 1.5301578e-38
-0.031476188 -0.15738095 1.322 1.4104484e-38
-0.028958095 -0.15738095 1.322 6.5470276e-39
-0.02634 -0.15678571 1.317 3.4123762e-39
-0.023740953 -0.15619047 1.312 4.0623432e-39
-0.021241905 -0.15619047 1.312 1.0516037e-38
-0.018671431 -0.15559524 1.307 1.1990802e-38
-0.016181905 -0.15559524 1.307 1.1253237e-38
-0.013692382 -0.15559524 1.307 9.415117e-39
-0.01116 -0.155 1.302 9.5073126e-39
-0.00868 -0.155 1.302 8.7733335e-39
-0.0062238099 -0.15559524 1.307 8.6811379e-39
-0.0037342857 -0.15559524 1.307 1.0796212e-38
-0.00124 -0.155 1.302 1.4576232e-38
0.00124 -0.155 1.302 1.4574097e-38
0.0037200002 -0.155 1.302 7.3828376e-39
0.0062000002 -0.155 1.302 1.4160457e-39
0.00868 -0.155 1.302 2.8911758e-39
0.01116 -0.155 1.302 4.7278913e-39
0.01364 -0.155 1.302 3.5293481e-39
0.01612 -0.155 1.302 4.6324405e-39
0.0186 -0.155 1.302 9.7032001e-39
0.02108 -0.155 1.302 1.420385e-38
0.023469524 -0.15440476 1.2970001 9.5018728e-39
0.025940001 -0.15440476 1.2970001 7.7480048e-39
0.028520001 -0.155 1.302 7.2870267e-39
0.031000003 -0.155 1.302 8.3905086e-39
0.03348 -0.155 1.302 1.1156377e-38
0.036098097 -0.15559524 1.307 1.1893937e-38
0.038587622 -0.15559524 1.307 1.0879785e-38
0.041077144 -0.15559524 1.307 9.3142445e-39
0.04356667 -0.15559524 1.307 1.2541092e-38
0.046056192 -0.15559524 1.307 1.4658376e-38
0.048545718 -0.15559524 1.307 1.5027159e-38
-0.031476188 -0.15486285 1.322 1.4196679e-38
-0.028958095 -0.15486285 1.322 9.0373395e-39
-0.02634 -0.15427715 1.317 4.5197537e-39
-0.023740953 -0.15369144 1.312 5.5345894e-39
-0.021241905 -0.15369144 1.312 1.1711697e-38
-0.018742858 -0.15369144 1.312 1.2451417e-38
-0.016181905 -0.15310572 1.307 1.1898243e-38
-0.013692382 -0.15310572 1.307 1.0058684e-38
-0.011202858 -0.15310572 1.307 9.8742931e-39
-0.0087133329 -0.15310572 1.307 8.8648005e-39
-0.0062238099 -0.15310572 1.307 8.8648005e-39
-0.0037342857 -0.15310572 1.307 9.5083692e-39
-0.001244762 -0.15310572 1.307 1.3657173e-38
0.00124 -0.15252002 1.302 1.3472078e-38
0.0037200002 -0.15252002 1.302 7.6637531e-39
0.0062000002 -0.15252002 1.302 1.9670615e-39
0.00868 -0.15252002 1.302 2.8890178e-39
0.01116 -0.15252002 1.302 4.0835883e-39
0.01364 -0.15252002 1.302 2.9772408e-39
0.01612 -0.15252002 1.302 3.8963132e-39
0.0186 -0.15252002 1.302 1.0257812e-38
0.02108 -0.15252002 1.302 1.3652509e-38
0.023469524 -0.1519343 1.2970001 1.0702249e-38
0.025940001 -0.1519343 1.2970001 8.1164552e-39
0.028520001 -0.15252002 1.302 7.0101077e-39
0.031000003 -0.15252002 1.302 8.2983003e-39
0.03348 -0.15252002 1.302 1.1801734e-38
0.036098097 -0.15310572 1.307 1.2170164e-38
0.038587622 -0.15310572 1.307 1.0695034e-38
0.041234288 -0.15369144 1.312 9.9585223e-39
0.043733336 -0.15369144 1.312 1.3000978e-38
0.046232384 -0.15369144 1.312 1.4749856e-38
-0.031476188 -0.15234476 1.322 1.355131e-38
-0.028848572 -0.15176858 1.317 9.4039823e-39
-0.02634 -0.15176858 1.317 8.5742216e-39
-0.023740953 -0.15119238 1.312 9.1302386e-39
-0.021241905 -0.15119238 1.312 1.2080499e-38
-0.018742858 -0.15119238 1.312 1.2634356e-38
-0.016181905 -0.1506162 1.307 1.3464117e-38
-0.013692382 -0.1506162 1.307 1.1900424e-38
-0.011202858 -0.1506162 1.307 1.0425293e-38
-0.0087133329 -0.1506162 1.307 9.967195e-39
-0.0062238099 -0.1506162 1.307 1.1442325e-38
-0.0037342857 -0.1506162 1.307 1.3096809e-38
-0.001244762 -0.1506162 1.307 1.5401699e-38
0.001244762 -0.1506162 1.307 1.5125113e-38
0.0037342857 -0.1506162 1.307 1.3926569e-38
0.0062238099 -0.1506162 1.307 8.7744419e-39
0.00868 -0.15004 1.302 4.7178342e-39
0.01116 -0.15004 1.302 1.9695726e-39
0.01364 -0.15004 1.302 4.0900721e-39
0.01612 -0.15004 1.302 9.5998614e-39
0.0186 -0.15004 1.302 1.3748665e-38
0.02108 -0.15004 1.302 1.5213721e-38
0.023560001 -0.15004 1.302 1.4844938e-38
0.026040001 -0.15004 1.302 1.2079095e-38
0.028520001 -0.15004 1.302 9.1288345e-39
0.031119047 -0.1506162 1.307 9.59193e-39
0.033608571 -0.1506162 1.307 1.1804625e-38
0.036098097 -0.1506162 1.307 1.1342539e-38
0.038735237 -0.15119238 1.312 9.5908216e-39
0.041234288 -0.15119238 1.312 9.3145948e-39
0.043733336 -0.15119238 1.312 1.2818029e-38
-0.028848572 -0.14926 1.317 1.0972712e-38
-0.02634 -0.14926 1.317 1.0235147e-38
-0.023740953 -0.14869334 1.312 1.0881217e-38
-0.021241905 -0.14869334 1.312 1.0789021e-38
-0.018742858 -0.14869334 1.312 1.0422351e-38
-0.01624381 -0.14869334 1.312 1.2266263e-38
-0.013692382 -0.14812668 1.307 1.3097152e-38
-0.011202858 -0.14812668 1.307 1.1529826e-38
-0.0087133329 -0.14812668 1.307 1.0794091e-38
-0.0062238099 -0.14812668 1.307 1.3375569e-38
-0.0037342857 -0.14812668 1.307 1.4754528e-38
-0.001244762 -0.14812668 1.307 1.429355e-38
0.001244762 -0.14812668 1.307 1.4936359e-38
0.0037342857 -0.14812668 1.307 1.6042707e-38
0.0062238099 -0.14812668 1.307 1.3377367e-38
0.00868 -0.14756 1.302 7.3846509e-39
0.01116 -0.14756 1.302 3.437863e-39
0.01364 -0.14756 1.302 6.7569057e-39
0.01612 -0.14756 1.302 1.3923691e-38
0.0186 -0.14756 1.302 1.4937843e-38
0.02108 -0.14756 1.302 1.5212269e-38
0.023650477 -0.14812668 1.307 1.539666e-38
0.026140001 -0.14812668 1.307 1.4476862e-38
0.028629525 -0.14812668 1.307 1.3370515e-38
0.031119047 -0.14812668 1.307 9.5058735e-39
0.033608571 -0.14812668 1.307 7.385374e-39
0.036236189 -0.14869334 1.312 8.7599889e-39
0.038735237 -0.14869334 1.312 8.2068152e-39
0.041234288 -0.14869334 1.312 8.3922882e-39
0.043900002 -0.14926 1.317 1.3463048e-38
-0.028848572 -0.14675143 1.317 1.1156753e-38
-0.02634 -0.14675143 1.317 1.0234797e-38
-0.023740953 -0.14619428 1.312 9.0402066e-39
-0.021241905 -0.14619428 1.312 6.5509246e-39
-0.018742858 -0.14619428 1.312 4.4397605e-39
-0.01624381 -0.14619428 1.312 7.0212382e-39
-0.013692382 -0.14563715 1.307 1.0792621e-38
-0.011202858 -0.14563715 1.307 1.4111664e-38
-0.0087133329 -0.14563715 1.307 1.5030389e-38
-0.0062238099 -0.14563715 1.307 1.5306976e-38
-0.0037342857 -0.14563715 1.307 1.3646395e-38
-0.001244762 -0.14563715 1.307 9.3132006e-39
0.001244762 -0.14563715 1.307 1.032801e-38
0.0037342857 -0.14563715 1.307 1.5029987e-38
0.0062238099 -0.14563715 1.307 1.4847099e-38
0.00868 -0.14508 1.302 1.420173e-38
0.01116 -0.14508 1.302 1.3929787e-38
0.013692382 -0.14563715 1.307 1.4759547e-38
0.016181905 -0.14563715 1.307 1.3835458e-38
0.0186 -0.14508 1.302 1.1991546e-38
0.02108 -0.14508 1.302 1.1808211e-38
0.023650477 -0.14563715 1.307 1.2084798e-38
0.026140001 -0.14563715 1.307 1.3740704e-38
0.028629525 -0.14563715 1.307 1.4939247e-38
0.031119047 -0.14563715 1.307 1.2267063e-38
0.033608571 -0.14563715 1.307 5.7211737e-39
0.036236189 -0.14619428 1.312 4.9903882e-39
0.038735237 -0.14619428 1.312 5.4513663e-39
0.041234288 -0.14619428 1.312 7.654726e-39
0.043900002 -0.14675143 1.317 1.4200616e-38
-0.031476188 -0.14479047 1.322 1.4473988e-38
-0.028848572 -0.14424285 1.317 1.2078334e-38
-0.02634 -0.14424285 1.317 1.0142226e-38
-0.023831429 -0.14424285 1.317 8.1218348e-39
-0.021241905 -0.14369524 1.312 4.8949878e-39
-0.018742858 -0.14369524 1.312 1.0414576e-39
-0.01624381 -0.14369524 1.312 1.3180445e-39
-0.013692382 -0.14314763 1.307 8.5835038e-39
-0.011202858 -0.14314763 1.307 1.4023046e-38
-0.0087133329 -0.14314763 1.307 1.5858024e-38
-0.0062238099 -0.14314763 1.307 1.4843872e-38
-0.0037342857 -0.14314763 1.307 1.1621318e-38
-0.001244762 -0.14314763 1.307 8.2100802e-39
0.001244762 -0.14314763 1.307 8.3926147e-39
0.0037342857 -0.14314763 1.307 1.1896049e-38
0.0062238099 -0.14314763 1.307 1.5303007e-38
0.0087133329 -0.14314763 1.307 1.6685942e-38
0.011202858 -0.14314763 1.307 1.6595932e-38
0.013692382 -0.14314763 1.307 1.6042758e-38
0.016181905 -0.14314763 1.307 1.2916383e-38
0.018671431 -0.14314763 1.307 1.0611492e-38
0.021160953 -0.14314763 1.307 8.958445e-39
0.023650477 -0.14314763 1.307 9.1428363e-39
0.026140001 -0.14314763 1.307 1.2635818e-38
0.028629525 -0.14314763 1.307 1.4110948e-38
0.031119047 -0.14314763 1.307 1.2082297e-38
0.033737142 -0.14369524 1.312 4.2456681e-39
0.036236189 -0.14369524 1.312 3.3348059e-39
0.038735237 -0.14369524 1.312 4.9943272e-39
0.041234288 -0.14369524 1.312 7.1008235e-39
0.043900002 -0.14424285 1.317 1.456867e-38
-0.031476188 -0.14227238 1.322 1.5119339e-38
-0.028848572 -0.14173429 1.317 1.2170176e-38
-0.02634 -0.14173429 1.317 9.7730899e-39
-0.023831429 -0.14173429 1.317 8.2147493e-39
-0.021322858 -0.14173429 1.317 4.9879023e-39
-0.018814286 -0.14173429 1.317 1.5021205e-39
-0.01624381 -0.14119619 1.312 1.2255336e-39
-0.013744762 -0.14119619 1.312 4.0731585e-39
-0.011245715 -0.14119619 1.312 1.0803439e-38
-0.0087466668 -0.14119619 1.312 1.3739673e-38
-0.0062476192 -0.14119619 1.312 9.5908692e-39
-0.0037342857 -0.1406581 1.307 8.7618092e-39
-0.001244762 -0.1406581 1.307 9.2227874e-39
0.001244762 -0.1406581 1.307 9.7730899e-39
0.0037342857 -0.1406581 1.307 9.1277205e-39
0.0062238099 -0.1406581 1.307 9.7727242e-39
0.0087133329 -0.1406581 1.307 1.5581049e-38
0.011202858 -0.1406581 1.307 1.5493185e-38
0.013692382 -0.1406581 1.307 1.2911707e-38
0.016181905 -0.1406581 1.307 9.9704446e-39
0.018671431 -0.1406581 1.307 9.9704446e-39
0.021160953 -0.1406581 1.307 9.0506561e-39
0.023650477 -0.1406581 1.307 8.9584604e-39
0.026140001 -0.1406581 1.307 1.162241e-38
0.028739048 -0.14119619 1.312 1.2820953e-38
0.031238094 -0.14119619 1.312 1.0886958e-38
0.033737142 -0.14119619 1.312 4.0644816e-39
0.036236189 -0.14119619 1.312 2.9678745e-39
0.038735237 -0.14119619 1.312 5.9181346e-39
0.041391429 -0.14173429 1.317 9.6815949e-39
0.044066668 -0.14227238 1.322 1.484455e-38
-0.031476188 -0.1397543 1.322 1.5856567e-38
-0.028958095 -0.1397543 1.322 1.2356363e-38
-0.02634 -0.13922571 1.317 9.4061024e-39
-0.023831429 -0.13922571 1.317 8.3069449e-39
-0.021322858 -0.13922571 1.317 6.1864455e-39
-0.018814286 -0.13922571 1.317 1.8691107e-39
-0.01624381 -0.13869715 1.312 1.4081326e-39
-0.013744762 -0.13869715 1.312 1.3177068e-39
-0.011245715 -0.13869715 1.312 8.6011616e-39
-0.0087466668 -0.13869715 1.312 1.2452909e-38
-0.0062476192 -0.13869715 1.312 8.5806928e-39
-0.0037342857 -0.13816857 1.307 8.4837804e-39
-0.001244762 -0.13816857 1.307 9.590128e-39
0.001244762 -0.13816857 1.307 9.9578315e-39
0.0037342857 -0.13816857 1.307 8.9436795e-39
0.0062238099 -0.13816857 1.307 7.9352267e-39
0.0087133329 -0.13816857 1.307 1.5126486e-38
0.011202858 -0.13816857 1.307 1.4851072e-38
0.013692382 -0.13816857 1.307 1.1347638e-38
0.016181905 -0.13816857 1.307 8.8676941e-39
0.018671431 -0.13816857 1.307 9.144281e-39
0.021160953 -0.13816857 1.307 8.958445e-39
0.023650477 -0.13816857 1.307 8.8662494e-39
0.026240001 -0.13869715 1.312 1.1530921e-38
0.028739048 -0.13869715 1.312 1.2913855e-38
0.031238094 -0.13869715 1.312 1.0702236e-38
0.033737142 -0.13869715 1.312 3.8797596e-39
0.036374286 -0.13922571 1.317 3.0593414e-39
0.039030477 -0.1397543 1.322 6.3783841e-39
0.041548569 -0.1397543 1.322 1.0695737e-38
0.044266671 -0.14038858 1.3280001 1.4936736e-38
0.046796191 -0.14038858 1.3280001 1.5579244e-38
-0.031476188 -0.13723619 1.322 1.6409377e-38
-0.028958095 -0.13723619 1.322 1.3737842e-38
-0.02634 -0.13671716 1.317 9.2202566e-39
-0.023831429 -0.13671716 1.317 8.7654022e-39
-0.021322858 -0.13671716 1.317 9.6873585e-39
-0.018814286 -0.13671716 1.317 5.2713737e-39
-0.016305715 -0.13671716 1.317 2.7820917e-39
-0.013744762 -0.1361981 1.312 4.5355687e-39
-0.011245715 -0.1361981 1.312 1.1358045e-38
-0.0087466668 -0.1361981 1.312 1.4293194e-38
-0.0062476192 -0.1361981 1.312 1.1342934e-38
-0.0037485715 -0.1361981 1.312 8.5763614e-39
-0.0012495238 -0.1361981 1.312 8.2997745e-39
0.0012495238 -0.1361981 1.312 8.577418e-39
0.0037342857 -0.13567904 1.307 8.6696136e-39
0.0062238099 -0.13567904 1.307 9.5007938e-39
0.0087133329 -0.13567904 1.307 1.5401314e-38
0.011202858 -0.13567904 1.307 1.5861962e-38
0.013692382 -0.13567904 1.307 1.3464875e-38
0.016181905 -0.13567904 1.307 1.0522199e-38
0.018671431 -0.13567904 1.307 9.6002425e-39
0.021160953 -0.13567904 1.307 9.694208e-39
0.023650477 -0.13567904 1.307 1.1077142e-38
0.026240001 -0.1361981 1.312 1.3097505e-38
0.028739048 -0.1361981 1.312 1.4019461e-38
0.031238094 -0.1361981 1.312 1.3188278e-38
0.033737142 -0.1361981 1.312 8.6706926e-39
0.036374286 -0.13671716 1.317 8.21545e-39
0.039030477 -0.13723619 1.322 8.5842325e-39
0.041548569 -0.13723619 1.322 1.0236191e-38
0.044266671 -0.13785906 1.3280001 1.4661581e-38
0.046796191 -0.13785906 1.3280001 1.5670358e-38
-0.029089525 -0.13532953 1.3280001 1.41052e-38
-0.02644 -0.13471811 1.322 9.0344402e-39
-0.023921905 -0.13471811 1.322 9.131256e-39
-0.02140381 -0.13471811 1.322 1.0790777e-38
-0.018885715 -0.13471811 1.322 8.4924278e-39
-0.016305715 -0.13420857 1.317 5.7265589e-39
-0.013797143 -0.13420857 1.317 7.5701156e-39
-0.011288572 -0.13420857 1.317 1.2917462e-38
-0.0087466668 -0.13369904 1.312 1.5857989e-38
-0.0062476192 -0.13369904 1.312 1.4198468e-38
-0.0037485715 -0.13369904 1.312 1.0421366e-38
-0.0012495238 -0.13369904 1.312 7.9320836e-39
0.0012495238 -0.13369904 1.312 8.301861e-39
0.0037485715 -0.13369904 1.312 9.7769911e-39
