# .PCD v0.7 - Point Cloud Data file format
VERSION 0.7
FIELDS x y z rgba
SIZE 4 4 4 4
TYPE F F F U
COUNT 1 1 1 1
WIDTH 1074
HEIGHT 1
VIEWPOINT 0 0 0 1 0 0 0
POINTS 1074
DATA ascii
-0.052945714 0.014168572 0.78300005 16252154
-0.051454291 0.014168572 0.78300005 16054775
-0.04996286 0.014168572 0.78300005 16252154
-0.048471432 0.014168572 0.78300005 16252154
-0.046980001 0.014168572 0.78300005 16252154
-0.045488574 0.014168572 0.78300005 16252154
-0.043997146 0.014168572 0.78300005 16317947
-0.042505719 0.014168572 0.78300005 16252154
-0.041014288 0.014168572 0.78300005 16383227
-0.039421905 0.014132381 0.78100002 16449020
-0.037934288 0.014132381 0.78100002 16383227
-0.036446668 0.014132381 0.78100002 16251641
-0.034959048 0.014132381 0.78100002 16120314
-0.033471428 0.014132381 0.78100002 15988728
-0.031983808 0.014132381 0.78100002 15988728
-0.030574286 0.014168572 0.78300005 15988728
-0.029082859 0.014168572 0.78300005 16054521
-0.027591432 0.014168572 0.78300005 16251900
-0.026166666 0.014204763 0.78500003 15989498
-0.02467143 0.014204763 0.78500003 15792119
-0.023176191 0.014204763 0.78500003 15857912
-0.021680953 0.014204763 0.78500003 15726326
-0.020185716 0.014204763 0.78500003 15726585
-0.018642858 0.014168572 0.78300005 15792378
-0.017151428 0.014168572 0.78300005 15660792
-0.015700001 0.014204763 0.78500003 15594999
-0.014204763 0.014204763 0.78500003 15726839
-0.012677143 0.014168572 0.78300005 15858425
-0.011185715 0.014168572 0.78300005 15858425
-0.0096942866 0.014168572 0.78300005 15924218
-0.0082028583 0.014168572 0.78300005 15858682
-0.006711429 0.014168572 0.78300005 15924475
-0.0052200002 0.014168572 0.78300005 13097721
-0.0037285716 0.014168572 0.78300005 10926552
-0.002237143 0.014168572 0.78300005 10731487
-0.00074571435 0.014168572 0.78300005 10665694
0.00074571435 0.014168572 0.78300005 11913432
0.002237143 0.014168572 0.78300005 12439776
0.0037285716 0.014168572 0.78300005 13162225
0.0052200002 0.014168572 0.78300005 12701674
0.006711429 0.014168572 0.78300005 12833260
0.0082028583 0.014168572 0.78300005 15793919
0.0096695237 0.014132381 0.78100002 16580606
0.011157143 0.014132381 0.78100002 12304061
0.012644762 0.014132381 0.78100002 8554407
0.014168572 0.014168572 0.78300005 1843521
0.015660001 0.014168572 0.78300005 3612675
-0.087917142 0.01578 0.78900003 4666900
-0.086195245 0.01574 0.78700006 8359311
-0.084696196 0.01574 0.78700006 15925247
-0.083197154 0.01574 0.78700006 16252670
-0.081698097 0.01574 0.78700006 15923705
-0.079995237 0.015700001 0.78500003 15858425
-0.078500003 0.015700001 0.78500003 15792632
-0.077004768 0.015700001 0.78500003 15661303
-0.075509526 0.015700001 0.78500003 15727096
-0.074014291 0.015700001 0.78500003 15792632
-0.072519049 0.015700001 0.78500003 15595253
-0.071023814 0.015700001 0.78500003 15595253
-0.069351435 0.015660001 0.78300005 15595253
-0.067860007 0.015660001 0.78300005 15594999
-0.066368572 0.015660001 0.78300005 15726585
-0.065042861 0.015700001 0.78500003 15727096
-0.063547619 0.015700001 0.78500003 15727096
-0.06189429 0.015660001 0.78300005 15792632
-0.060402859 0.015660001 0.78300005 15595253
-0.059061907 0.015700001 0.78500003 15529206
-0.057566669 0.015700001 0.78500003 15726585
-0.05607143 0.015700001 0.78500003 15660792
-0.054576188 0.015700001 0.78500003 15660792
-0.053080954 0.015700001 0.78500003 15528949
-0.051454291 0.015660001 0.78300005 15594742
-0.04996286 0.015660001 0.78300005 15528949
-0.048471432 0.015660001 0.78300005 15660535
-0.046980001 0.015660001 0.78300005 15726328
-0.045488574 0.015660001 0.78300005 15792121
-0.043997146 0.015660001 0.78300005 16054521
-0.042505719 0.015660001 0.78300005 15725556
-0.041014288 0.015660001 0.78300005 15659765
-0.039421905 0.015620001 0.78100002 15725558
-0.037934288 0.015620001 0.78100002 15922935
-0.036446668 0.015620001 0.78100002 15725556
-0.034959048 0.015620001 0.78100002 15528949
-0.033471428 0.015620001 0.78100002 15397363
-0.032065716 0.015660001 0.78300005 15397109
-0.030574286 0.015660001 0.78300005 15528695
-0.029082859 0.015660001 0.78300005 15528949
-0.027591432 0.015660001 0.78300005 15792121
-0.026233334 0.01574 0.78700006 15726839
-0.024734288 0.01574 0.78700006 15726839
-0.023235239 0.01574 0.78700006 15726839
-0.021680953 0.015700001 0.78500003 15726839
-0.020185716 0.015700001 0.78500003 15529465
-0.018690476 0.015700001 0.78500003 15463672
-0.017195238 0.015700001 0.78500003 15529208
-0.015700001 0.015700001 0.78500003 15595001
-0.014204763 0.015700001 0.78500003 15595512
-0.012677143 0.015660001 0.78300005 15529719
-0.011185715 0.015660001 0.78300005 15398392
-0.0096942866 0.015660001 0.78300005 15464185
-0.0082028583 0.015660001 0.78300005 15661564
-0.006711429 0.015660001 0.78300005 15332599
-0.0052200002 0.015660001 0.78300005 12440052
-0.0037285716 0.015660001 0.78300005 11782122
-0.002237143 0.015660001 0.78300005 12110324
-0.00074571435 0.015660001 0.78300005 12241910
0.00074571435 0.015660001 0.78300005 12569846
0.002237143 0.015660001 0.78300005 13227775
0.0037285716 0.015660001 0.78300005 13949683
0.0052200002 0.015660001 0.78300005 13620718
0.006711429 0.015660001 0.78300005 13293041
0.0082028583 0.015660001 0.78300005 15858943
0.0096695237 0.015620001 0.78100002 16514813
0.011157143 0.015620001 0.78100002 12435647
0.012644762 0.015620001 0.78100002 8357034
0.014132381 0.015620001 0.78100002 1251390
0.015620001 0.015620001 0.78100002 3613459
-0.087917142 0.017282858 0.78900003 4666908
-0.086195245 0.017239049 0.78700006 8293779
-0.084696196 0.017239049 0.78700006 15859711
-0.083408572 0.017282858 0.78900003 16318463
-0.081905723 0.017282858 0.78900003 15857912
-0.080199055 0.017239049 0.78700006 15726585
-0.078700006 0.017239049 0.78700006 15660792
-0.077200957 0.017239049 0.78700006 15660792
-0.075701907 0.017239049 0.78700006 15660792
-0.074202865 0.017239049 0.78700006 15660792
-0.072519049 0.017195238 0.78500003 15660792
-0.071023814 0.017195238 0.78500003 15726585
-0.069528572 0.017195238 0.78500003 15726585
-0.068033338 0.017195238 0.78500003 15792632
-0.066538103 0.017195238 0.78500003 15924218
-0.064877145 0.017151428 0.78300005 15924218
-0.063385718 0.017151428 0.78300005 15990011
-0.06205238 0.017195238 0.78500003 15990011
-0.060557146 0.017195238 0.78500003 15792632
-0.059061907 0.017195238 0.78500003 15858171
-0.057566669 0.017195238 0.78500003 16055550
-0.05607143 0.017195238 0.78500003 16055291
-0.054576188 0.017195238 0.78500003 16121084
-0.053080954 0.017195238 0.78500003 15923707
-0.051454291 0.017151428 0.78300005 15857914
-0.04996286 0.017151428 0.78300005 15988730
-0.048471432 0.017151428 0.78300005 16054523
-0.046980001 0.017151428 0.78300005 15792119
-0.045604762 0.017195238 0.78500003 15660533
-0.043997146 0.017151428 0.78300005 15660535
-0.042505719 0.017151428 0.78300005 15463156
-0.040909525 0.017107621 0.78100002 15528949
-0.039421905 0.017107621 0.78100002 15594742
-0.037934288 0.017107621 0.78100002 15594742
-0.036446668 0.017107621 0.78100002 15528949
-0.034959048 0.017107621 0.78100002 15659765
-0.033471428 0.017107621 0.78100002 15659765
-0.032065716 0.017151428 0.78300005 15725558
-0.030574286 0.017151428 0.78300005 15791351
-0.029157145 0.017195238 0.78500003 15594742
-0.027661905 0.017195238 0.78500003 15857914
-0.026233334 0.017239049 0.78700006 16055291
-0.024734288 0.017239049 0.78700006 16318463
-0.023235239 0.017239049 0.78700006 16449533
-0.021680953 0.017195238 0.78500003 16449533
-0.020185716 0.017195238 0.78500003 16449533
-0.018690476 0.017195238 0.78500003 16449533
-0.017195238 0.017195238 0.78500003 16449533
-0.015700001 0.017195238 0.78500003 16449533
-0.014204763 0.017195238 0.78500003 16449533
-0.012709524 0.017195238 0.78500003 16449533
-0.011214286 0.017195238 0.78500003 16318463
-0.0097190477 0.017195238 0.78500003 16318463
-0.0082238093 0.017195238 0.78500003 16449533
-0.0067285714 0.017195238 0.78500003 16449533
-0.0052200002 0.017151428 0.78300005 15594751
-0.0037285716 0.017151428 0.78300005 15528958
-0.002237143 0.017151428 0.78300005 15725823
-0.00074571435 0.017151428 0.78300005 16054783
0.00074571435 0.017151428 0.78300005 16383229
0.002237143 0.017151428 0.78300005 16580607
0.0037285716 0.017151428 0.78300005 16580606
0.0052200002 0.017151428 0.78300005 16580606
0.006711429 0.017151428 0.78300005 16514813
0.0082028583 0.017151428 0.78300005 16580606
0.0096695237 0.017107621 0.78100002 16646142
0.011157143 0.017107621 0.78100002 13356492
0.012644762 0.017107621 0.78100002 9538983
0.014114286 0.017085714 0.78000003 1775409
0.015600001 0.017085714 0.78000003 3611672
-0.087917142 0.018785715 0.78900003 4469529
-0.086195245 0.018738097 0.78700006 8293275
-0.084696196 0.018738097 0.78700006 15925247
-0.083408572 0.018785715 0.78900003 16318463
-0.081905723 0.018785715 0.78900003 15989498
-0.080199055 0.018738097 0.78700006 15858171
-0.078700006 0.018738097 0.78700006 15858171
-0.077200957 0.018738097 0.78700006 15792380
-0.075701907 0.018738097 0.78700006 15792380
-0.074202865 0.018738097 0.78700006 15595258
-0.072519049 0.018690476 0.78500003 15661051
-0.071023814 0.018690476 0.78500003 15923966
-0.069528572 0.018690476 0.78500003 15858173
-0.068033338 0.018690476 0.78500003 15792380
-0.066538103 0.018690476 0.78500003 15726587
-0.064877145 0.018642858 0.78300005 15660794
-0.063385718 0.018642858 0.78300005 15792380
-0.06205238 0.018690476 0.78500003 15923966
-0.060557146 0.018690476 0.78500003 15858173
-0.059061907 0.018690476 0.78500003 15858173
-0.057566669 0.018690476 0.78500003 15923966
-0.05607143 0.018690476 0.78500003 15989246
-0.054715242 0.018738097 0.78700006 15989246
-0.053080954 0.018690476 0.78500003 16055039
-0.051585715 0.018690476 0.78500003 15923453
-0.04996286 0.018642858 0.78300005 15988732
-0.048471432 0.018642858 0.78300005 15791353
-0.046980001 0.018642858 0.78300005 15659767
-0.045604762 0.018690476 0.78500003 15593974
-0.043997146 0.018642858 0.78300005 15397109
-0.042505719 0.018642858 0.78300005 15528695
-0.040909525 0.018595237 0.78100002 15660535
-0.039421905 0.018595237 0.78100002 15792121
-0.037885718 0.018571429 0.78000003 15922935
-0.036400001 0.018571429 0.78000003 15791349
-0.034914285 0.018571429 0.78000003 15725558
-0.033471428 0.018595237 0.78100002 15791351
-0.031983808 0.018595237 0.78100002 15988471
-0.030574286 0.018642858 0.78300005 15922678
-0.029082859 0.018642858 0.78300005 15462388
-0.027661905 0.018690476 0.78500003 15528181
-0.026233334 0.018738097 0.78700006 15528695
-0.024734288 0.018738097 0.78700006 15660281
-0.023235239 0.018738097 0.78700006 15923453
-0.021736192 0.018738097 0.78700006 15989246
-0.020185716 0.018690476 0.78500003 15857662
-0.018690476 0.018690476 0.78500003 15923455
-0.017195238 0.018690476 0.78500003 15989246
-0.015700001 0.018690476 0.78500003 15989246
-0.014240953 0.018738097 0.78700006 15989246
-0.012709524 0.018690476 0.78500003 15923453
-0.011214286 0.018690476 0.78500003 15989246
-0.0097190477 0.018690476 0.78500003 15857660
-0.0082238093 0.018690476 0.78500003 15725823
-0.0067285714 0.018690476 0.78500003 15528445
-0.0052200002 0.018642858 0.78300005 15527679
-0.0037285716 0.018642858 0.78300005 15330300
-0.002237143 0.018642858 0.78300005 15263742
-0.00074571435 0.018642858 0.78300005 15132156
0.00074571435 0.018642858 0.78300005 14803452
0.002237143 0.018642858 0.78300005 15000831
0.0037285716 0.018642858 0.78300005 15329789
0.0052200002 0.018642858 0.78300005 15066617
0.006711429 0.018642858 0.78300005 14868732
0.0082028583 0.018642858 0.78300005 15263487
0.0096695237 0.018595237 0.78100002 15789055
0.011142857 0.018571429 0.78000003 13025749
0.012628571 0.018571429 0.78000003 8555175
0.014114286 0.018571429 0.78000003 2304840
0.015600001 0.018571429 0.78000003 3942433
-0.087917142 0.020288572 0.78900003 4995110
-0.086195245 0.020237144 0.78700006 9930652
-0.084696196 0.020237144 0.78700006 16774911
-0.083197154 0.020237144 0.78700006 16711422
-0.081698097 0.020237144 0.78700006 16711422
-0.079995237 0.020185716 0.78500003 16646142
-0.078500003 0.020185716 0.78500003 16646142
-0.077004768 0.020185716 0.78500003 16646142
-0.075701907 0.020237144 0.78700006 16646142
-0.074014291 0.020185716 0.78500003 16646142
-0.072519049 0.020185716 0.78500003 15988212
-0.071023814 0.020185716 0.78500003 15987967
-0.069528572 0.020185716 0.78500003 16053759
-0.068033338 0.020185716 0.78500003 15855870
-0.066538103 0.020185716 0.78500003 15724284
-0.065042861 0.020185716 0.78500003 15790079
-0.063547619 0.020185716 0.78500003 15395321
-0.06205238 0.020185716 0.78500003 15263996
-0.060711432 0.020237144 0.78700006 15329789
-0.059061907 0.020185716 0.78500003 15197949
-0.057566669 0.020185716 0.78500003 15132156
-0.05607143 0.020185716 0.78500003 15197692
-0.054715242 0.020237144 0.78700006 14802934
-0.053080954 0.020185716 0.78500003 14670844
-0.051585715 0.020185716 0.78500003 14012914
-0.04996286 0.020134287 0.78300005 13158642
-0.048471432 0.020134287 0.78300005 13750779
-0.046980001 0.020134287 0.78300005 14343919
-0.045604762 0.020185716 0.78500003 15396607
-0.043997146 0.020134287 0.78300005 15790838
-0.042505719 0.020134287 0.78300005 15988217
-0.040909525 0.020082857 0.78100002 16054264
-0.039371427 0.020057144 0.78000003 16120057
-0.037885718 0.020057144 0.78000003 16054264
-0.036400001 0.020057144 0.78000003 16185850
-0.034914285 0.020057144 0.78000003 16120057
-0.033428572 0.020057144 0.78000003 16120057
-0.031942859 0.020057144 0.78000003 16185848
-0.030496189 0.020082857 0.78100002 16580606
-0.029082859 0.020134287 0.78300005 16711422
-0.027661905 0.020185716 0.78500003 15987699
-0.026233334 0.020237144 0.78700006 15001583
-0.024734288 0.020237144 0.78700006 9540764
-0.023235239 0.020237144 0.78700006 9209029
-0.021736192 0.020237144 0.78700006 10195924
-0.020237144 0.020237144 0.78700006 11373270
-0.018690476 0.020185716 0.78500003 11110098
-0.017195238 0.020185716 0.78500003 10977236
-0.015700001 0.020185716 0.78500003 10714064
-0.014204763 0.020185716 0.78500003 10122447
-0.012709524 0.020185716 0.78500003 9464517
-0.011214286 0.020185716 0.78500003 9528004
-0.0097190477 0.020185716 0.78500003 9067453
-0.0082238093 0.020185716 0.78500003 8934073
-0.0067285714 0.020185716 0.78500003 8539315
-0.0052200002 0.020134287 0.78300005 8273331
-0.0037285716 0.020134287 0.78300005 7746987
-0.002237143 0.020134287 0.78300005 7876006
-0.00074571435 0.020134287 0.78300005 7283869
0.00074571435 0.020134287 0.78300005 7414940
0.002237143 0.020134287 0.78300005 8072870
0.0037285716 0.020134287 0.78300005 7482021
0.0052200002 0.020134287 0.78300005 6560919
0.006711429 0.020134287 0.78300005 7082407
0.0082028583 0.020134287 0.78300005 7871923
0.0096695237 0.020082857 0.78100002 7220395
0.011142857 0.020057144 0.78000003 7088809
0.012628571 0.020057144 0.78000003 5914960
-0.087917142 0.021791428 0.78900003 5258282
-0.086195245 0.021736192 0.78700006 10449789
-0.084696196 0.021736192 0.78700006 16767202
-0.083197154 0.021736192 0.78700006 15262719
-0.081698097 0.021736192 0.78700006 14275825
-0.079995237 0.021680953 0.78500003 14077935
-0.078500003 0.021680953 0.78500003 14275314
-0.077004768 0.021680953 0.78500003 14341107
-0.075509526 0.021680953 0.78500003 14209521
-0.074014291 0.021680953 0.78500003 14143219
-0.072519049 0.021680953 0.78500003 13880047
-0.071023814 0.021680953 0.78500003 14010096
-0.069528572 0.021680953 0.78500003 13746924
-0.068033338 0.021680953 0.78500003 13548271
-0.066707626 0.021736192 0.78700006 13811443
-0.065042861 0.021680953 0.78500003 14074874
-0.063547619 0.021680953 0.78500003 13548530
-0.062210482 0.021736192 0.78700006 13350890
-0.060711432 0.021736192 0.78700006 13219304
-0.059212383 0.021736192 0.78700006 13349095
-0.057713337 0.021736192 0.78700006 13414888
-0.056214292 0.021736192 0.78700006 13480427
-0.054715242 0.021736192 0.78700006 13085669
-0.053080954 0.021680953 0.78500003 12690643
-0.051585715 0.021680953 0.78500003 11966920
-0.050090477 0.021680953 0.78500003 10984393
-0.048595238 0.021680953 0.78500003 14668799
-0.0471 0.021680953 0.78500003 15000820
-0.045604762 0.021680953 0.78500003 15921919
-0.043997146 0.021625714 0.78300005 16053751
-0.042505719 0.021625714 0.78300005 15987958
-0.040857144 0.021542858 0.78000003 15988471
-0.039270476 0.021487622 0.77800006 15791092
-0.037788574 0.021487622 0.77800006 15396595
-0.036306668 0.021487622 0.77800006 15659767
-0.034824762 0.021487622 0.77800006 15791092
-0.033342861 0.021487622 0.77800006 15856885
-0.031287622 0.021100953 0.76400006 16119544
-0.029832384 0.021100953 0.76400006 16645887
-0.028265715 0.021018095 0.76100004 16711422
-0.026816191 0.021018095 0.76100004 16711422
-0.026300002 0.021791428 0.78900003 15197940
-0.024797143 0.021791428 0.78900003 11776704
-0.023294287 0.021791428 0.78900003 8466118
-0.021736192 0.021736192 0.78700006 7150258
-0.020185716 0.021680953 0.78500003 10357129
-0.018690476 0.021680953 0.78500003 10751887
-0.017195238 0.021680953 0.78500003 10554774
-0.015700001 0.021680953 0.78500003 10423188
-0.014204763 0.021680953 0.78500003 10226583
-0.012709524 0.021680953 0.78500003 10094997
-0.011214286 0.021680953 0.78500003 10094745
-0.0097190477 0.021680953 0.78500003 10160538
-0.0082238093 0.021680953 0.78500003 9832593
-0.0067285714 0.021680953 0.78500003 9898386
-0.0052200002 0.021625714 0.78300005 9767059
-0.0037285716 0.021625714 0.78300005 9832852
-0.002237143 0.021625714 0.78300005 9832593
-0.00074571435 0.021625714 0.78300005 9898386
0.00074571435 0.021625714 0.78300005 9635975
0.002237143 0.021625714 0.78300005 9899147
0.0037285716 0.021625714 0.78300005 10029202
0.0052200002 0.021625714 0.78300005 10094995
0.0066942861 0.021570476 0.78100002 9767059
0.0081819054 0.021570476 0.78100002 10030231
0.0096695237 0.021570476 0.78100002 8915378
0.011142857 0.021542858 0.78000003 9704894
0.012628571 0.021542858 0.78000003 5580628
-0.086195245 0.023235239 0.78700006 7282966
-0.084696196 0.023235239 0.78700006 7414552
-0.083197154 0.023235239 0.78700006 8064141
-0.081698097 0.023235239 0.78700006 8261520
-0.079995237 0.023176191 0.78500003 6818181
-0.078500003 0.023176191 0.78500003 6686595
-0.077004768 0.023176191 0.78500003 6947979
-0.075509526 0.023176191 0.78500003 6882186
-0.074014291 0.023176191 0.78500003 7079299
-0.072519049 0.023176191 0.78500003 7145092
-0.071023814 0.023176191 0.78500003 7013997
-0.069528572 0.023176191 0.78500003 7079790
-0.068033338 0.023176191 0.78500003 7144829
-0.066538103 0.023176191 0.78500003 7079036
-0.065042861 0.023176191 0.78500003 7079290
-0.063547619 0.023176191 0.78500003 7079290
-0.06205238 0.023176191 0.78500003 7144568
-0.060711432 0.023235239 0.78700006 7210361
-0.059212383 0.023235239 0.78700006 7341685
-0.057713337 0.023235239 0.78700006 7275892
-0.056214292 0.023235239 0.78700006 7275906
-0.054715242 0.023235239 0.78700006 6815867
-0.053216193 0.023235239 0.78700006 5243746
-0.051585715 0.023176191 0.78500003 7809673
-0.050090477 0.023176191 0.78500003 11115979
-0.048595238 0.023176191 0.78500003 16642559
-0.04566 0.022467621 0.76100004 16580349
-0.044210479 0.022467621 0.76100004 16119798
-0.042760953 0.022467621 0.76100004 15725045
-0.041365717 0.022497144 0.76200002 15659252
-0.04001905 0.022556191 0.76400006 15659252
-0.03871524 0.022644762 0.76700002 15725045
-0.037254285 0.022644762 0.76700002 15462388
-0.036120001 0.02285143 0.77400005 15593974
-0.034645718 0.02285143 0.77400005 15725299
-0.03317143 0.02285143 0.77400005 15856885
-0.031205716 0.022497144 0.76200002 15987958
-0.029754287 0.022497144 0.76200002 16185337
-0.028265715 0.022467621 0.76100004 16514043
-0.026816191 0.022467621 0.76100004 16711422
-0.0254 0.022497144 0.76200002 16711422
-0.024797143 0.023294287 0.78900003 16645629
-0.023294287 0.023294287 0.78900003 14073599
-0.021791428 0.023294287 0.78900003 3941480
-0.020134287 0.023117144 0.78300005 7472747
-0.018642858 0.023117144 0.78300005 8130677
-0.017195238 0.023176191 0.78500003 9507210
-0.015700001 0.023176191 0.78500003 10033554
-0.014204763 0.023176191 0.78500003 9709452
-0.012677143 0.023117144 0.78300005 8854143
-0.011185715 0.023117144 0.78300005 9710233
-0.0097190477 0.023176191 0.78500003 9907612
-0.0082028583 0.023117144 0.78300005 9447584
-0.006711429 0.023117144 0.78300005 9184412
-0.0052200002 0.023117144 0.78300005 9382561
-0.0037285716 0.023117144 0.78300005 9777319
-0.002237143 0.023117144 0.78300005 9713577
-0.00074571435 0.023117144 0.78300005 10634679
0.00074571435 0.023117144 0.78300005 10245027
0.002237143 0.023117144 0.78300005 10771371
0.0037285716 0.023117144 0.78300005 10508721
0.0052066664 0.023058096 0.78100002 11232444
0.0066942861 0.023058096 0.78100002 10707122
0.0081819054 0.023058096 0.78100002 11430845
0.0096571427 0.023028571 0.78000003 10250442
0.011142857 0.023028571 0.78000003 8276652
0.01256381 0.022910476 0.77600002 5386852
0.014041905 0.022910476 0.77600002 4992094
-0.085976191 0.02467143 0.78500003 7808816
-0.084480956 0.02467143 0.78500003 8729918
-0.082985714 0.02467143 0.78500003 9504935
-0.081698097 0.024734288 0.78700006 9504935
-0.079995237 0.02467143 0.78500003 9570207
-0.078500003 0.02467143 0.78500003 9767586
-0.077004768 0.02467143 0.78500003 9832106
-0.075509526 0.02467143 0.78500003 9897899
-0.074014291 0.02467143 0.78500003 9897892
-0.072519049 0.02467143 0.78500003 10095271
-0.071023814 0.02467143 0.78500003 9897889
-0.069351435 0.024608573 0.78300005 10029475
-0.067860007 0.024608573 0.78300005 10160812
-0.066538103 0.02467143 0.78500003 10029226
-0.065042861 0.02467143 0.78500003 10029226
-0.063547619 0.02467143 0.78500003 10160812
-0.06205238 0.02467143 0.78500003 10028965
-0.060557146 0.02467143 0.78500003 10226344
-0.059061907 0.02467143 0.78500003 10161064
-0.057566669 0.02467143 0.78500003 10095271
-0.05607143 0.02467143 0.78500003 9963692
-0.054715242 0.024734288 0.78700006 9568934
-0.053216193 0.024734288 0.78700006 7538038
-0.051585715 0.02467143 0.78500003 14248924
-0.050090477 0.02467143 0.78500003 14010858
-0.046985716 0.023854287 0.75900006 16774655
-0.045540005 0.023854287 0.75900006 16449022
-0.044210479 0.023917144 0.76100004 15791092
-0.042760953 0.023917144 0.76100004 15528179
-0.041311432 0.023917144 0.76100004 15593972
-0.039914284 0.023948571 0.76200002 15725045
-0.038563814 0.024011429 0.76400006 15725045
-0.037108574 0.024011429 0.76400006 15593461
-0.035746668 0.024074288 0.76600003 15725047
-0.03428762 0.024074288 0.76600003 15856885
-0.032742858 0.024011429 0.76400006 15922678
-0.031205716 0.023948571 0.76200002 15922165
-0.029754287 0.023948571 0.76200002 15987958
-0.028265715 0.023917144 0.76100004 15856372
-0.026816191 0.023917144 0.76100004 16382716
-0.0254 0.023948571 0.76200002 16711422
-0.023948571 0.023948571 0.76200002 16711422
-0.022497144 0.023948571 0.76200002 16578301
-0.021045715 0.023948571 0.76200002 9275278
-0.020134287 0.024608573 0.78300005 9851351
-0.018642858 0.024608573 0.78300005 11430383
-0.017151428 0.024608573 0.78300005 11694306
-0.015660001 0.024608573 0.78300005 11825892
-0.014168572 0.024608573 0.78300005 11695332
-0.012677143 0.024608573 0.78300005 11695332
-0.011185715 0.024608573 0.78300005 11236837
-0.0096942866 0.024608573 0.78300005 11171044
-0.0082028583 0.024608573 0.78300005 10974948
-0.006711429 0.024608573 0.78300005 10843362
-0.0052200002 0.024608573 0.78300005 10054884
-0.0037285716 0.024608573 0.78300005 9989091
-0.002237143 0.024608573 0.78300005 10053091
-0.00074571435 0.024608573 0.78300005 9987298
0.00074571435 0.024608573 0.78300005 9791449
0.002237143 0.024608573 0.78300005 9791449
0.0037190479 0.024545714 0.78100002 9331418
0.0052066664 0.024545714 0.78100002 9791969
0.0066942861 0.024545714 0.78100002 9135833
0.0081819054 0.024545714 0.78100002 9859556
0.0096571427 0.024514288 0.78000003 9927676
0.011142857 0.024514288 0.78000003 9203953
0.01256381 0.024388572 0.77600002 4212104
0.014041905 0.024388572 0.77600002 3027830
-0.085976191 0.026166666 0.78500003 7094871
-0.084480956 0.026166666 0.78500003 9660798
-0.082985714 0.026166666 0.78500003 10516176
-0.081490479 0.026166666 0.78500003 10121418
-0.079995237 0.026166666 0.78500003 10056406
-0.078500003 0.026166666 0.78500003 10056406
-0.077004768 0.026166666 0.78500003 10121695
-0.075509526 0.026166666 0.78500003 9924316
-0.074014291 0.026166666 0.78500003 10122458
-0.072519049 0.026166666 0.78500003 10319837
-0.070842862 0.026100002 0.78300005 10188510
-0.06917429 0.026033334 0.78100002 9859545
-0.067686662 0.026033334 0.78100002 10385889
-0.066368572 0.026100002 0.78300005 10451682
-0.064877145 0.026100002 0.78300005 10451945
-0.063385718 0.026100002 0.78300005 10517738
-0.06189429 0.026100002 0.78300005 10583529
-0.060557146 0.026166666 0.78500003 10715115
-0.059061907 0.026166666 0.78500003 10584295
-0.057566669 0.026166666 0.78500003 10650088
-0.05607143 0.026166666 0.78500003 10453483
-0.054576188 0.026166666 0.78500003 9137623
-0.053080954 0.026166666 0.78500003 9271517
-0.051585715 0.026166666 0.78500003 16179711
-0.048431434 0.025300002 0.75900006 16711422
-0.046985716 0.025300002 0.75900006 16711422
-0.045540005 0.025300002 0.75900006 15988471
-0.044210479 0.025366668 0.76100004 15527920
-0.042760953 0.025366668 0.76100004 15462386
-0.041311432 0.025366668 0.76100004 15528179
-0.039914284 0.0254 0.76200002 15593459
-0.038563814 0.025466667 0.76400006 15725045
-0.037108574 0.025466667 0.76400006 15659252
-0.035653338 0.025466667 0.76400006 15659252
-0.034198094 0.025466667 0.76400006 15790838
-0.032657143 0.0254 0.76200002 16054010
-0.031205716 0.0254 0.76200002 15987958
-0.029754287 0.0254 0.76200002 16053751
-0.028265715 0.025366668 0.76100004 15791092
-0.026816191 0.025366668 0.76100004 16185850
-0.0254 0.0254 0.76200002 16711422
-0.023948571 0.0254 0.76200002 16711422
-0.022497144 0.0254 0.76200002 16711422
-0.021045715 0.0254 0.76200002 12763842
-0.020082857 0.026033334 0.78100002 8551935
-0.018595237 0.026033334 0.78100002 8815103
-0.017151428 0.026100002 0.78300005 9339391
-0.015660001 0.026100002 0.78300005 9536767
-0.014132381 0.026033334 0.78100002 9667839
-0.012644762 0.026033334 0.78100002 9799423
-0.011157143 0.026033334 0.78100002 9471231
-0.0096695237 0.026033334 0.78100002 9471231
-0.0081819054 0.026033334 0.78100002 9143295
-0.0066942861 0.026033334 0.78100002 9209087
-0.0052066664 0.026033334 0.78100002 8881151
-0.0037190479 0.026033334 0.78100002 8749567
-0.0022314284 0.026033334 0.78100002 8486399
-0.00074380951 0.026033334 0.78100002 8420607
0.00074380951 0.026033334 0.78100002 8419583
0.0022314284 0.026033334 0.78100002 8353791
0.0037190479 0.026033334 0.78100002 8157439
0.0052066664 0.026033334 0.78100002 8025855
0.0066942861 0.026033334 0.78100002 8157439
0.0081819054 0.026033334 0.78100002 9078527
0.0096571427 0.026000001 0.78000003 10327551
0.011142857 0.026000001 0.78000003 9209082
0.012628571 0.026000001 0.78000003 5722781
-0.085976191 0.027661905 0.78500003 5722224
-0.084265716 0.027591432 0.78300005 8748702
-0.082774289 0.027591432 0.78300005 9738489
-0.081282862 0.027591432 0.78300005 9212145
-0.079791434 0.027591432 0.78300005 8951551
-0.078299999 0.027591432 0.78300005 8885759
-0.076808572 0.027591432 0.78300005 8755199
-0.075124763 0.027520953 0.78100002 8426239
-0.073637143 0.027520953 0.78100002 8229631
-0.07233429 0.027591432 0.78300005 8295423
-0.070661902 0.027520953 0.78100002 8230655
-0.06917429 0.027520953 0.78100002 8164863
-0.067686662 0.027520953 0.78100002 8165119
-0.066199049 0.027520953 0.78100002 8099327
-0.064711429 0.027520953 0.78100002 7705087
-0.063223809 0.027520953 0.78100002 7639295
-0.061736189 0.027520953 0.78100002 7442943
-0.060402859 0.027591432 0.78300005 7377151
-0.058911432 0.027591432 0.78300005 7180543
-0.057420004 0.027591432 0.78300005 7114751
-0.055928573 0.027591432 0.78300005 5867775
-0.054576188 0.027661905 0.78500003 3630816
-0.053080954 0.027661905 0.78500003 6522103
-0.049877148 0.026745716 0.75900006 14022399
-0.048431434 0.026745716 0.75900006 16580606
-0.046985716 0.026745716 0.75900006 15988469
-0.045540005 0.026745716 0.75900006 15725045
-0.044210479 0.026816191 0.76100004 15527666
-0.042760953 0.026816191 0.76100004 15462386
-0.041311432 0.026816191 0.76100004 15528179
-0.039861906 0.026816191 0.76100004 15527668
-0.038412381 0.026816191 0.76100004 15725047
-0.036962859 0.026816191 0.76100004 15593972
-0.035513334 0.026816191 0.76100004 15462386
-0.034063812 0.026816191 0.76100004 15593972
-0.032614287 0.026816191 0.76100004 15725558
-0.031164765 0.026816191 0.76100004 15725045
-0.02971524 0.026816191 0.76100004 15790838
-0.028265715 0.026816191 0.76100004 15659252
-0.026816191 0.026816191 0.76100004 16054010
-0.025366668 0.026816191 0.76100004 16514043
-0.023917144 0.026816191 0.76100004 16711422
-0.022467621 0.026816191 0.76100004 16646142
-0.021018095 0.026816191 0.76100004 12172218
-0.020082857 0.027520953 0.78100002 5868287
-0.018595237 0.027520953 0.78100002 3762920
-0.017151428 0.027591432 0.78300005 2324479
-0.015660001 0.027591432 0.78300005 2916607
-0.014132381 0.027520953 0.78100002 3701247
-0.012644762 0.027520953 0.78100002 3964415
-0.011157143 0.027520953 0.78100002 4226815
-0.0096695237 0.027520953 0.78100002 4226815
-0.0081819054 0.027520953 0.78100002 4095231
-0.0066942861 0.027520953 0.78100002 4358399
-0.0052 0.027485715 0.78000003 4554751
-0.0037142858 0.027485715 0.78000003 4225791
-0.0022285716 0.027485715 0.78000003 3832063
-0.00074285717 0.027485715 0.78000003 4095231
0.00074285717 0.027485715 0.78000003 4619263
0.0022285716 0.027485715 0.78000003 4750847
0.0037142858 0.027485715 0.78000003 4356863
0.0052 0.027485715 0.78000003 4093693
0.0066857147 0.027485715 0.78000003 5668350
0.008171428 0.027485715 0.78000003 7576319
0.0096323816 0.027415238 0.77800006 10792703
0.011085714 0.027344763 0.77600002 10397951
0.01256381 0.027344763 0.77600002 2838963
-0.08646857 0.028822856 0.77600002 6181194
-0.084990479 0.028822856 0.77600002 4936581
-0.083727628 0.028897146 0.77800006 7897266
-0.08245714 0.02897143 0.78000003 8164091
-0.080971435 0.02897143 0.78000003 7571954
-0.079587616 0.029008573 0.78100002 7572991
-0.078000002 0.02897143 0.78000003 7770367
-0.076514289 0.02897143 0.78000003 8099583
-0.075124763 0.029008573 0.78100002 8099583
-0.073637143 0.029008573 0.78100002 8099583
-0.07214953 0.029008573 0.78100002 8165375
-0.070661902 0.029008573 0.78100002 8362239
-0.069085717 0.02897143 0.78000003 8428031
-0.067600004 0.02897143 0.78000003 8428543
-0.066114292 0.02897143 0.78000003 8362751
-0.064711429 0.029008573 0.78100002 8232447
-0.063223809 0.029008573 0.78100002 8166655
-0.061736189 0.029008573 0.78100002 7905023
-0.060248572 0.029008573 0.78100002 7773439
-0.058760952 0.029008573 0.78100002 7905023
-0.057273332 0.029008573 0.78100002 7905023
-0.055785716 0.029008573 0.78100002 7116287
-0.054437146 0.029082859 0.78300005 5076717
-0.053080954 0.029157145 0.78500003 7705343
-0.049877148 0.02819143 0.75900006 14481919
-0.048431434 0.02819143 0.75900006 16580606
-0.046985716 0.02819143 0.75900006 15791090
-0.045540005 0.02819143 0.75900006 15593972
-0.044094287 0.02819143 0.75900006 15593972
-0.042648572 0.02819143 0.75900006 15856885
-0.041202862 0.02819143 0.75900006 15922678
-0.039652381 0.028117143 0.75700003 15725045
-0.038210478 0.028117143 0.75700003 15988217
-0.03667143 0.028042858 0.75500005 15725045
-0.035233337 0.028042858 0.75500005 15659252
-0.033795241 0.028042858 0.75500005 15725045
-0.032357145 0.028042858 0.75500005 15856631
-0.031000955 0.028117143 0.75700003 15856885
-0.029559048 0.028117143 0.75700003 16120057
-0.02819143 0.02819143 0.75900006 15791092
-0.026745716 0.02819143 0.75900006 15922678
-0.025366668 0.028265715 0.76100004 16448250
-0.023854287 0.02819143 0.75900006 16711422
-0.022349525 0.028117143 0.75700003 16646142
-0.02090762 0.028117143 0.75700003 13290699
-0.019465715 0.028117143 0.75700003 8890367
-0.018642858 0.029082859 0.78300005 9350911
-0.017107621 0.029008573 0.78100002 9810943
-0.015620001 0.029008573 0.78100002 9481983
-0.014114286 0.02897143 0.78000003 9154047
-0.012628571 0.02897143 0.78000003 8035575
-0.011142857 0.02897143 0.78000003 7970815
-0.0096571427 0.02897143 0.78000003 8299775
-0.008171428 0.02897143 0.78000003 9021695
-0.0066685718 0.028897146 0.77800006 9284863
-0.0051866672 0.028897146 0.77800006 9415423
-0.0037047621 0.028897146 0.77800006 9349631
-0.0022228572 0.028897146 0.77800006 9612543
-0.00074095244 0.028897146 0.77800006 9875711
0.00074095244 0.028897146 0.77800006 10532351
0.0022228572 0.028897146 0.77800006 11124479
0.0037047621 0.028897146 0.77800006 11516927
0.0051733335 0.028822856 0.77600002 11451135
0.0066514285 0.028822856 0.77600002 13028861
0.0081295241 0.028822856 0.77600002 14081535
0.0096076196 0.028822856 0.77600002 15001599
0.011085714 0.028822856 0.77600002 12172500
0.01256381 0.028822856 0.77600002 6184379
-0.087719999 0.030222857 0.77400005 5983813
-0.086245723 0.030222857 0.77400005 6115399
-0.084990479 0.030300954 0.77600002 3036302
-0.083512381 0.030300954 0.77600002 5668022
-0.08203429 0.030300954 0.77600002 5210623
-0.080556192 0.030300954 0.77600002 4815869
-0.079078101 0.030300954 0.77600002 4751103
-0.077600002 0.030300954 0.77600002 5474815
-0.076121904 0.030300954 0.77600002 5999615
-0.074836195 0.030379049 0.77800006 6262783
-0.073354289 0.030379049 0.77800006 6984447
-0.071872383 0.030379049 0.77800006 7116031
-0.070390478 0.030379049 0.77800006 7247359
-0.068908572 0.030379049 0.77800006 7444735
-0.067426667 0.030379049 0.77800006 7641087
-0.065944768 0.030379049 0.77800006 7904255
-0.064462863 0.030379049 0.77800006 7971327
-0.062980957 0.030379049 0.77800006 8037119
-0.061499052 0.030379049 0.77800006 7709695
-0.060017146 0.030379049 0.77800006 7709695
-0.058685716 0.030457145 0.78000003 8037119
-0.0572 0.030457145 0.78000003 7510783
-0.055714291 0.030457145 0.78000003 7116543
-0.054437146 0.030574286 0.78300005 5405939
-0.052945714 0.030574286 0.78300005 8230655
-0.049877148 0.029637145 0.75900006 14283519
-0.048431434 0.029637145 0.75900006 16646142
-0.046985716 0.029637145 0.75900006 16119798
-0.045540005 0.029637145 0.75900006 15659765
-0.044094287 0.029637145 0.75900006 15725558
-0.042536192 0.029559048 0.75700003 15922678
-0.041094288 0.029559048 0.75700003 15856885
-0.039547618 0.029480955 0.75500005 15528179
-0.038059048 0.029441904 0.75400001 15725558
-0.036622856 0.029441904 0.75400001 15725045
-0.035233337 0.029480955 0.75500005 15790838
-0.033795241 0.029480955 0.75500005 16053751
-0.032357145 0.029480955 0.75500005 15922165
-0.030919051 0.029480955 0.75500005 15856885
-0.029559048 0.029559048 0.75700003 15988471
-0.028117143 0.029559048 0.75700003 15856885
-0.026675239 0.029559048 0.75700003 16120057
-0.025233334 0.029559048 0.75700003 16514556
-0.023791429 0.029559048 0.75700003 16646142
-0.022290478 0.029480955 0.75500005 16646142
-0.020824762 0.029441904 0.75400001 12895941
-0.019388571 0.029441904 0.75400001 10661887
-0.017952381 0.029441904 0.75400001 11714559
-0.017107621 0.030496189 0.78100002 12306175
-0.015600001 0.030457145 0.78000003 12240383
-0.014078096 0.030379049 0.77800006 10796543
-0.012596191 0.030379049 0.77800006 9809656
-0.011114286 0.030379049 0.77800006 8495871
-0.0096076196 0.030300954 0.77600002 9022207
-0.0081295241 0.030300954 0.77600002 10268927
-0.0066514285 0.030300954 0.77600002 10334719
-0.0051733335 0.030300954 0.77600002 10400511
-0.0036952381 0.030300954 0.77600002 10729471
-0.0022171428 0.030300954 0.77600002 10926335
-0.00073714292 0.030222857 0.77400005 10926335
0.00073714292 0.030222857 0.77400005 11319807
0.0022171428 0.030300954 0.77600002 12175103
0.0036952381 0.030300954 0.77600002 13027839
0.0051733335 0.030300954 0.77600002 13356799
0.0066514285 0.030300954 0.77600002 13553661
0.0081295241 0.030300954 0.77600002 15001087
0.0096076196 0.030300954 0.77600002 15856383
0.011057143 0.030222857 0.77400005 13093077
0.01253143 0.030222857 0.77400005 7104959
-0.087719999 0.031697143 0.77400005 5786945
-0.086245723 0.031697143 0.77400005 5918531
-0.084771432 0.031697143 0.77400005 3233697
-0.083512381 0.031779047 0.77600002 5733831
-0.081822865 0.031697143 0.77400005 5604863
-0.080348574 0.031697143 0.77400005 5012735
-0.07887429 0.031697143 0.77400005 4554239
-0.077400006 0.031697143 0.77400005 5409535
-0.075925723 0.031697143 0.77400005 5934591
-0.074643806 0.031779047 0.77600002 6000383
-0.073165715 0.031779047 0.77600002 6656255
-0.071687624 0.031779047 0.77600002 6787839
-0.070209526 0.031779047 0.77600002 7050239
-0.068731427 0.031779047 0.77600002 7247615
-0.067253336 0.031779047 0.77600002 7378687
-0.065775238 0.031779047 0.77600002 7839231
-0.06429714 0.031779047 0.77600002 8167935
-0.062819049 0.031779047 0.77600002 8233727
-0.061340958 0.031779047 0.77600002 8168959
-0.05986286 0.031779047 0.77600002 8103167
-0.058384761 0.031779047 0.77600002 7971839
-0.05690667 0.031779047 0.77600002 7379711
-0.05521429 0.031656191 0.77300006 6918911
-0.05374191 0.031656191 0.77300006 5142515
-0.051458098 0.031164765 0.76100004 7376364
-0.049877148 0.031082857 0.75900006 13495039
-0.048431434 0.031082857 0.75900006 16646142
-0.046861906 0.031000955 0.75700003 16646142
-0.045420002 0.031000955 0.75700003 16317434
-0.043978095 0.031000955 0.75700003 15988469
-0.042423811 0.030919051 0.75500005 15856885
-0.040985718 0.030919051 0.75500005 15856885
-0.039547618 0.030919051 0.75500005 15922678
-0.038059048 0.030878095 0.75400001 15988471
-0.036622856 0.030878095 0.75400001 15856885
-0.035186667 0.030878095 0.75400001 16054264
-0.033750474 0.030878095 0.75400001 16054264
-0.032314286 0.030878095 0.75400001 16054264
-0.030878095 0.030878095 0.75400001 16054264
-0.029441904 0.030878095 0.75400001 16054264
-0.028042858 0.030919051 0.75500005 16120057
-0.026675239 0.031000955 0.75700003 16449022
-0.025233334 0.031000955 0.75700003 16580349
-0.023728572 0.030919051 0.75500005 16646142
-0.022290478 0.030919051 0.75500005 16449533
-0.020824762 0.030878095 0.75400001 11778230
-0.019388571 0.030878095 0.75400001 11582456
-0.017952381 0.030878095 0.75400001 13293055
-0.016998095 0.031779047 0.77600002 12832255
-0.015520001 0.031779047 0.77600002 12240120
-0.014041905 0.031779047 0.77600002 10795775
-0.01253143 0.031697143 0.77400005 10598399
-0.011057143 0.031697143 0.77400005 10728959
-0.0095828576 0.031697143 0.77400005 10860543
-0.0081085721 0.031697143 0.77400005 11385599
-0.0066342861 0.031697143 0.77400005 11319807
-0.0051600002 0.031697143 0.77400005 11384831
-0.0036857147 0.031697143 0.77400005 11582207
-0.0022085716 0.031656191 0.77300006 12042495
-0.00073619053 0.031656191 0.77300006 12437247
0.00073619053 0.031656191 0.77300006 12896503
0.0022085716 0.031656191 0.77300006 13357054
0.0036952381 0.031779047 0.77600002 14408433
0.0051733335 0.031779047 0.77600002 14737398
0.0066342861 0.031697143 0.77400005 14934259
0.0081085721 0.031697143 0.77400005 15526396
0.0095828576 0.031697143 0.77400005 15592959
0.011057143 0.031697143 0.77400005 12500688
0.01253143 0.031697143 0.77400005 6579922
-0.087719999 0.03317143 0.77400005 5918533
-0.086245723 0.03317143 0.77400005 6050119
-0.084771432 0.03317143 0.77400005 3233956
-0.083297148 0.03317143 0.77400005 5470918
-0.081822865 0.03317143 0.77400005 5014271
-0.080348574 0.03317143 0.77400005 4685311
-0.07887429 0.03317143 0.77400005 4357375
-0.077300005 0.033128574 0.77300006 5146879
-0.075827621 0.033128574 0.77300006 5539839
-0.074355245 0.033128574 0.77300006 5868799
-0.072882861 0.033128574 0.77300006 6196479
-0.071502857 0.03317143 0.77400005 6328063
-0.070028573 0.03317143 0.77400005 6524415
-0.06855429 0.03317143 0.77400005 6919167
-0.067080006 0.03317143 0.77400005 7050751
-0.065605715 0.03317143 0.77400005 7313919
-0.064131431 0.03317143 0.77400005 7773695
-0.06265714 0.03317143 0.77400005 8300031
-0.06118286 0.03317143 0.77400005 8234751
-0.059631433 0.033128574 0.77300006 7905791
-0.058159053 0.033128574 0.77300006 7642879
-0.05668667 0.033128574 0.77300006 7445503
-0.055071428 0.033042856 0.77100003 7378175
-0.053324763 0.032871429 0.76700002 6062329
-0.051458098 0.032614287 0.76100004 7702756
-0.049745716 0.03244286 0.75700003 13624063
-0.048303809 0.03244286 0.75700003 15726846
-0.046738099 0.032357145 0.75500005 16252927
-0.045300003 0.032357145 0.75500005 16514813
-0.043861907 0.032357145 0.75500005 16054262
-0.042367619 0.032314286 0.75400001 15856885
-0.04093143 0.032314286 0.75400001 15856885
-0.039495237 0.032314286 0.75400001 15988471
-0.038059048 0.032314286 0.75400001 15988471
-0.036525715 0.03222857 0.75200003 15856885
-0.035093337 0.03222857 0.75200003 15988471
-0.033660952 0.03222857 0.75200003 15988471
-0.03222857 0.03222857 0.75200003 15988471
-0.030796193 0.03222857 0.75200003 15988471
-0.029363809 0.03222857 0.75200003 16054264
-0.028005714 0.032314286 0.75400001 16185848
-0.026604762 0.032357145 0.75500005 16580606
-0.025166668 0.032357145 0.75500005 16580606
-0.023728572 0.032357145 0.75500005 16514813
-0.022290478 0.032357145 0.75500005 15595771
-0.020824762 0.032314286 0.75400001 11713984
-0.019388571 0.032314286 0.75400001 12041975
-0.017952381 0.032314286 0.75400001 13884159
-0.016932381 0.033128574 0.77300006 13028350
-0.015460001 0.033128574 0.77300006 11120353
-0.01398762 0.033128574 0.77300006 10924543
-0.012515238 0.033128574 0.77300006 11582463
-0.011042858 0.033128574 0.77300006 11976447
-0.0095704766 0.033128574 0.77300006 12042239
-0.0080771428 0.033042856 0.77100003 12305407
-0.0066085714 0.033042856 0.77100003 12108031
-0.0051533333 0.033128574 0.77300006 11647487
-0.0036714287 0.033042856 0.77100003 11647487
-0.0022028573 0.033042856 0.77100003 12107005
-0.00073428574 0.033042856 0.77100003 12830719
0.00073428574 0.033042856 0.77100003 13290228
0.0022028573 0.033042856 0.77100003 13553400
0.0036714287 0.033042856 0.77100003 14473458
0.0051266667 0.032957144 0.76900005 14868216
0.006591429 0.032957144 0.76900005 15065843
0.0080561908 0.032957144 0.76900005 15460601
0.0095209526 0.032957144 0.76900005 15199482
0.010985715 0.032957144 0.76900005 13554657
0.012450477 0.032957144 0.76900005 7114210
-0.087719999 0.034645718 0.77400005 5459270
-0.086245723 0.034645718 0.77400005 5854028
-0.084771432 0.034645718 0.77400005 3497898
-0.083297148 0.034645718 0.77400005 5800653
-0.081717148 0.034600955 0.77300006 5408511
-0.080244765 0.034600955 0.77300006 4947967
-0.078772388 0.034600955 0.77300006 4686847
-0.077300005 0.034600955 0.77300006 5015807
-0.075631432 0.034511428 0.77100003 5212159
-0.074162856 0.034511428 0.77100003 5541119
-0.072694287 0.034511428 0.77100003 5999871
-0.071410477 0.034600955 0.77300006 6065663
-0.069938101 0.034600955 0.77300006 6328063
-0.068465717 0.034600955 0.77300006 6657023
-0.066993333 0.034600955 0.77300006 6657023
-0.065520957 0.034600955 0.77300006 6722815
-0.064048581 0.034600955 0.77300006 7051263
-0.06257619 0.034600955 0.77300006 8103935
-0.061103813 0.034600955 0.77300006 8168703
-0.059477147 0.034511428 0.77100003 7642367
-0.05800857 0.034511428 0.77100003 7577087
-0.056393337 0.034421906 0.76900005 7774463
-0.054785714 0.03433238 0.76700002 7904511
-0.053255241 0.03428762 0.76600003 6193906
-0.051525716 0.034108575 0.76200002 6324193
-0.049614292 0.033795241 0.75500005 10732287
-0.048112381 0.033750474 0.75400001 14870522
-0.046676192 0.033750474 0.75400001 16252159
-0.04524 0.033750474 0.75400001 16514813
-0.043803807 0.033750474 0.75400001 16580606
-0.042255241 0.033660952 0.75200003 16449020
-0.04082286 0.033660952 0.75200003 16383227
-0.039390475 0.033660952 0.75200003 16448763
-0.037958097 0.033660952 0.75200003 16448763
-0.036525715 0.033660952 0.75200003 16448763
-0.035093337 0.033660952 0.75200003 16514556
-0.033660952 0.033660952 0.75200003 16514556
-0.03222857 0.033660952 0.75200003 16514556
-0.030714288 0.033571433 0.75000006 16514556
-0.029285716 0.033571433 0.75000006 16580349
-0.027931429 0.033660952 0.75200003 16514556
-0.026569525 0.033750474 0.75400001 16646142
-0.025133332 0.033750474 0.75400001 16449020
-0.023697143 0.033750474 0.75400001 15856883
-0.022290478 0.033795241 0.75500005 15398138
-0.020852383 0.033795241 0.75500005 12700625
-0.019414287 0.033795241 0.75500005 13159927
-0.017976193 0.033795241 0.75500005 14015231
-0.016844762 0.034421906 0.76900005 13291261
-0.015380002 0.034421906 0.76900005 10133197
-0.013951428 0.034511428 0.77100003 10005759
-0.012482857 0.034511428 0.77100003 12505855
-0.011014286 0.034511428 0.77100003 13226495
-0.0095457146 0.034511428 0.77100003 12831741
-0.0080561908 0.034421906 0.76900005 13028095
-0.006591429 0.034421906 0.76900005 14080767
-0.0051266667 0.034421906 0.76900005 14145786
-0.0036619049 0.034421906 0.76900005 13816821
-0.0021971429 0.034421906 0.76900005 14736628
-0.00073238101 0.034421906 0.76900005 15855103
0.00073238101 0.034421906 0.76900005 16052218
0.0021971429 0.034421906 0.76900005 15920632
0.0036619049 0.034421906 0.76900005 16447739
0.0051266667 0.034421906 0.76900005 16645118
0.006591429 0.034421906 0.76900005 16711422
0.0080352379 0.03433238 0.76700002 16711422
0.0094961906 0.03433238 0.76700002 16711422
0.010957143 0.03433238 0.76700002 14935011
0.012418096 0.03433238 0.76700002 11119860
-0.08919429 0.036120001 0.77400005 6115401
-0.087719999 0.036120001 0.77400005 5197118
-0.086245723 0.036120001 0.77400005 5855048
-0.084771432 0.036120001 0.77400005 3826611
-0.083189532 0.036073335 0.77300006 5866194
-0.081717148 0.036073335 0.77300006 5212159
-0.080037147 0.035980001 0.77100003 5014783
-0.07856857 0.035980001 0.77100003 5147903
-0.077100001 0.035980001 0.77100003 5082111
-0.075631432 0.035980001 0.77100003 5277951
-0.074162856 0.035980001 0.77100003 5541119
-0.072694287 0.035980001 0.77100003 5737727
-0.071225718 0.035980001 0.77100003 5869311
-0.069757141 0.035980001 0.77100003 6066175
-0.068288572 0.035980001 0.77100003 6329343
-0.066820003 0.035980001 0.77100003 6264063
-0.065520957 0.036073335 0.77300006 6395647
-0.064048581 0.036073335 0.77300006 6723583
-0.062414289 0.035980001 0.77100003 7513087
-0.060945716 0.035980001 0.77100003 7774719
-0.05932286 0.035886671 0.76900005 7643135
-0.057858098 0.035886671 0.76900005 7051263
-0.056393337 0.035886671 0.76900005 7511807
-0.054785714 0.035793334 0.76700002 8561407
-0.053116191 0.035653338 0.76400006 6785007
-0.051458098 0.035513334 0.76100004 5931488
-0.049614292 0.035233337 0.75500005 10142207
-0.048112381 0.035186667 0.75400001 12504319
-0.046676192 0.035186667 0.75400001 15135999
-0.045120001 0.035093337 0.75200003 16252670
-0.043687619 0.035093337 0.75200003 16383999
-0.042255241 0.035093337 0.75200003 16646142
-0.04071429 0.035000004 0.75000006 16580349
-0.039285716 0.035000004 0.75000006 16449020
-0.037857145 0.035000004 0.75000006 16449020
-0.036428574 0.035000004 0.75000006 16514556
-0.034953333 0.034953333 0.74900001 16580349
-0.033526666 0.034953333 0.74900001 16580349
-0.032100003 0.034953333 0.74900001 16580349
-0.030714288 0.035000004 0.75000006 16711422
-0.029285716 0.035000004 0.75000006 16711422
-0.027857145 0.035000004 0.75000006 16711422
-0.026569525 0.035186667 0.75400001 16711422
-0.025133332 0.035186667 0.75400001 16449533
-0.023697143 0.035186667 0.75400001 15067880
-0.022260953 0.035186667 0.75400001 13754871
-0.020852383 0.035233337 0.75500005 12965355
-0.019414287 0.035233337 0.75500005 14869495
-0.018023811 0.035326667 0.75700003 14672116
-0.016779048 0.035746668 0.76600003 13883389
-0.01534 0.035793334 0.76700002 11317462
-0.013879048 0.035793334 0.76700002 10334207
-0.012418096 0.035793334 0.76700002 12373759
-0.010957143 0.035793334 0.76700002 13161727
-0.0094961906 0.035793334 0.76700002 12503801
-0.0080352379 0.035793334 0.76700002 12830463
-0.0065742861 0.035793334 0.76700002 13817343
-0.0051133335 0.035793334 0.76700002 14407934
-0.003652381 0.035793334 0.76700002 14407934
-0.0021914286 0.035793334 0.76700002 15590140
-0.00073047623 0.035793334 0.76700002 16642815
0.00073047623 0.035793334 0.76700002 16645118
0.0021914286 0.035793334 0.76700002 16579325
0.003652381 0.035793334 0.76700002 16645629
0.0051066671 0.035746668 0.76600003 16645629
0.0065657143 0.035746668 0.76600003 16711422
0.0080247624 0.035746668 0.76600003 16711422
