# .PCD v0.7 - Point Cloud Data file format
VERSION 0.7
FIELDS x y z rgba
SIZE 4 4 4 4
TYPE F F F U
COUNT 1 1 1 1
WIDTH 1084
HEIGHT 1
VIEWPOINT 0 0 0 1 0 0 0
POINTS 1084
DATA ascii
-0.083100006 0.011871428 0.83100003 10059105
-0.081320956 0.011842857 0.82900006 9863785
-0.07974191 0.011842857 0.82900006 9666406
-0.078162864 0.011842857 0.82900006 9534299
-0.076399051 0.011814286 0.82700002 9600092
-0.074823812 0.011814286 0.82700002 9665384
-0.073248573 0.011814286 0.82700002 9599591
-0.071673334 0.011814286 0.82700002 9601121
-0.070267625 0.011842857 0.82900006 9535328
-0.068688571 0.011842857 0.82900006 9339216
-0.066947617 0.011814286 0.82700002 9273423
-0.065372378 0.011814286 0.82700002 8548443
-0.063951433 0.011842857 0.82900006 7364169
-0.062221903 0.011814286 0.82700002 7626067
-0.060646668 0.011814286 0.82700002 10520959
-0.058928575 0.011785715 0.82500005 10918288
-0.057357144 0.011785715 0.82500005 11247253
-0.055785719 0.011785715 0.82500005 11577785
-0.054214288 0.011785715 0.82500005 11577785
-0.05264286 0.011785715 0.82500005 11643335
-0.051071431 0.011785715 0.82500005 11709128
-0.049500003 0.011785715 0.82500005 11445714
-0.047928575 0.011785715 0.82500005 10853577
-0.046357144 0.011785715 0.82500005 9997747
-0.044785716 0.011785715 0.82500005 8550301
-0.043214288 0.011785715 0.82500005 8154975
-0.04164286 0.011785715 0.82500005 8154975
-0.040071428 0.011785715 0.82500005 9403761
-0.038500004 0.011785715 0.82500005 10390656
-0.036928572 0.011785715 0.82500005 10521972
-0.035357147 0.011785715 0.82500005 10521972
-0.033785716 0.011785715 0.82500005 10389875
-0.032214288 0.011785715 0.82500005 9863531
-0.03064286 0.011785715 0.82500005 10127475
-0.02907143 0.011785715 0.82500005 10193268
-0.027500002 0.011785715 0.82500005 10126455
-0.025991429 0.011814286 0.82700002 10258041
-0.024357144 0.011785715 0.82500005 10258068
-0.022785716 0.011785715 0.82500005 9534345
-0.021162858 0.011757143 0.82300001 9402193
-0.019595239 0.011757143 0.82300001 9533779
-0.01802762 0.011757143 0.82300001 9599572
-0.016460001 0.011757143 0.82300001 9731158
-0.014892381 0.011757143 0.82300001 9269846
-0.013324762 0.011757143 0.82300001 9072467
-0.011757143 0.011757143 0.82300001 8742735
-0.010189524 0.011757143 0.82300001 8676942
-0.008621905 0.011757143 0.82300001 8414278
-0.0070542856 0.011757143 0.82300001 8414278
-0.0054733334 0.011728572 0.82100004 7890226
-0.0039095236 0.011728572 0.82100004 7824433
-0.0023457143 0.011728572 0.82100004 7758159
-0.00078190479 0.011728572 0.82100004 7758159
-0.10735714 0.013519048 0.83500004 9207177
-0.10551334 0.013486668 0.83300006 9667728
-0.10392667 0.013486668 0.83300006 9601935
-0.10234001 0.013486668 0.83300006 8088696
-0.10051143 0.013454286 0.83100003 8153167
-0.098928571 0.013454286 0.83100003 8350546
-0.097345717 0.013454286 0.83100003 8743745
-0.095762856 0.013454286 0.83100003 8809538
-0.094179995 0.013454286 0.83100003 8809277
-0.092597149 0.013454286 0.83100003 8875070
-0.091014288 0.013454286 0.83100003 8941367
-0.089431427 0.013454286 0.83100003 9072953
-0.087848574 0.013454286 0.83100003 9138755
-0.086265713 0.013454286 0.83100003 9072962
-0.084682859 0.013454286 0.83100003 9269319
-0.083100006 0.013454286 0.83100003 10387800
-0.081320956 0.013421906 0.82900006 10389860
-0.07974191 0.013421906 0.82900006 9863516
-0.078162864 0.013421906 0.82900006 9730908
-0.076399051 0.013389524 0.82700002 9862494
-0.074823812 0.013389524 0.82700002 9928554
-0.073248573 0.013389524 0.82700002 9928554
-0.071673334 0.013389524 0.82700002 10194292
-0.070098102 0.013389524 0.82700002 9470569
-0.068522863 0.013389524 0.82700002 9404746
-0.066947617 0.013389524 0.82700002 9338953
-0.065372378 0.013389524 0.82700002 8351084
-0.063797139 0.013389524 0.82700002 8943221
-0.062221903 0.013389524 0.82700002 9864598
-0.060646668 0.013389524 0.82700002 11312044
-0.058928575 0.013357143 0.82500005 12496857
-0.057218097 0.013324762 0.82300001 13220580
-0.055650476 0.013324762 0.82300001 12764138
-0.054082859 0.013324762 0.82300001 13158896
-0.052515239 0.013324762 0.82300001 13093619
-0.050947621 0.013324762 0.82300001 13027826
-0.049379997 0.013324762 0.82300001 12961524
-0.04781238 0.013324762 0.82300001 12764145
-0.046244759 0.013324762 0.82300001 11974377
-0.044677142 0.013324762 0.82300001 10461138
-0.043214288 0.013357143 0.82500005 9142461
-0.041541904 0.013324762 0.82300001 8813496
-0.039974283 0.013324762 0.82300001 9208914
-0.038406666 0.013324762 0.82300001 10130016
-0.036928572 0.013357143 0.82500005 11509121
-0.035357147 0.013357143 0.82500005 10653812
-0.033785716 0.013357143 0.82500005 10454883
-0.032214288 0.013357143 0.82500005 10586469
-0.03064286 0.013357143 0.82500005 10521974
-0.02907143 0.013357143 0.82500005 10061423
-0.027500002 0.013357143 0.82500005 9994601
-0.025928574 0.013357143 0.82500005 10323566
-0.024357144 0.013357143 0.82500005 11046533
-0.022730477 0.013324762 0.82300001 9533294
-0.021162858 0.013324762 0.82300001 8941115
-0.019595239 0.013324762 0.82300001 8677943
-0.017983811 0.013292382 0.82100004 8939316
-0.016420001 0.013292382 0.82100004 9070902
-0.014856191 0.013292382 0.82100004 9006149
-0.013292382 0.013292382 0.82100004 8742977
-0.011757143 0.013324762 0.82300001 8610885
-0.010189524 0.013324762 0.82300001 8413506
-0.008621905 0.013324762 0.82300001 8479553
-0.0070542856 0.013324762 0.82300001 8413760
-0.0054733334 0.013292382 0.82100004 8020522
-0.0039095236 0.013292382 0.82100004 8283694
-0.0023457143 0.013292382 0.82100004 7889502
-0.00078190479 0.013292382 0.82100004 7626330
-0.10735714 0.015109524 0.83500004 9076615
-0.10526 0.015037144 0.83100003 9339787
-0.10367715 0.015037144 0.83100003 9733260
-0.10209429 0.015037144 0.83100003 8285814
-0.10051143 0.015037144 0.83100003 7955534
-0.098928571 0.015037144 0.83100003 8218706
-0.097345717 0.015037144 0.83100003 8547388
-0.095762856 0.015037144 0.83100003 8613181
-0.094179995 0.015037144 0.83100003 8677941
-0.092597149 0.015037144 0.83100003 8612148
-0.091014288 0.015037144 0.83100003 8810283
-0.089216195 0.015000953 0.82900006 8876076
-0.087637149 0.015000953 0.82900006 8875311
-0.086058103 0.015000953 0.82900006 9006897
-0.084479049 0.015000953 0.82900006 9138487
-0.082900003 0.015000953 0.82900006 9467452
-0.081320956 0.015000953 0.82900006 9664829
-0.079549521 0.014964762 0.82700002 9730622
-0.077974282 0.014964762 0.82700002 9599054
-0.076399051 0.014964762 0.82700002 9664847
-0.074823812 0.014964762 0.82700002 9666135
-0.073248573 0.014964762 0.82700002 9666135
-0.071673334 0.014964762 0.82700002 9666142
-0.070098102 0.014964762 0.82700002 9271384
-0.068522863 0.014964762 0.82700002 8286515
-0.066947617 0.014964762 0.82700002 9141824
-0.065372378 0.014964762 0.82700002 9933460
-0.063642859 0.014928573 0.82500005 12959938
-0.061920948 0.014892381 0.82300001 13552365
-0.059033338 0.014566667 0.80500007 14078709
-0.057500005 0.014566667 0.80500007 13816319
-0.056244761 0.014639048 0.80900002 13816319
-0.054703813 0.014639048 0.80900002 13422588
-0.053162854 0.014639048 0.80900002 13422588
-0.051621906 0.014639048 0.80900002 13356799
-0.050080951 0.014639048 0.80900002 13422591
-0.048540004 0.014639048 0.80900002 13356799
-0.046999045 0.014639048 0.80900002 13685759
-0.045233335 0.014566667 0.80500007 14145535
-0.043700002 0.014566667 0.80500007 14671871
-0.042166673 0.014566667 0.80500007 13355255
-0.041239049 0.01478381 0.81700003 8552366
-0.039780006 0.014820001 0.81900007 7696397
-0.038220003 0.014820001 0.81900007 7893776
-0.036749527 0.014856191 0.82100004 9139275
-0.035185717 0.014856191 0.82100004 9073482
-0.033703808 0.014892381 0.82300001 9007419
-0.032136191 0.014892381 0.82300001 9139005
-0.030568572 0.014892381 0.82300001 9073219
-0.029000953 0.014892381 0.82300001 8875840
-0.027433334 0.014892381 0.82300001 8809529
-0.025928574 0.014928573 0.82500005 8743736
-0.024357144 0.014928573 0.82500005 8677684
-0.022730477 0.014892381 0.82300001 8348719
-0.021162858 0.014892381 0.82300001 8480557
-0.019547621 0.014856191 0.82100004 8546350
-0.017983811 0.014856191 0.82100004 8545580
-0.016420001 0.014856191 0.82100004 8545580
-0.014856191 0.014856191 0.82100004 8480037
-0.013292382 0.014856191 0.82100004 8611623
-0.011728572 0.014856191 0.82100004 8545092
-0.010164762 0.014856191 0.82100004 8347713
-0.0086009521 0.014856191 0.82100004 8478783
-0.0070371432 0.014856191 0.82100004 9136713
-0.0054733334 0.014856191 0.82100004 8743986
-0.0039095236 0.014856191 0.82100004 9204537
-0.0023457143 0.014856191 0.82100004 8746342
-0.00078190479 0.014856191 0.82100004 7364689
0.00078190479 0.014856191 0.82100004 7430473
-0.10526 0.016620001 0.83100003 9142917
-0.10367715 0.016620001 0.83100003 9733262
-0.10209429 0.016620001 0.83100003 8220023
-0.10026953 0.016580001 0.82900006 7428669
-0.098452382 0.01654 0.82700002 7955013
-0.096877143 0.01654 0.82700002 8152903
-0.095301904 0.01654 0.82700002 8152903
-0.093726665 0.01654 0.82700002 8415284
-0.092151433 0.01654 0.82700002 8152112
-0.090576194 0.01654 0.82700002 8282413
-0.089000955 0.01654 0.82700002 8282413
-0.087425716 0.01654 0.82700002 8151068
-0.085850477 0.01654 0.82700002 8414240
-0.084275246 0.01654 0.82700002 8742975
-0.082699999 0.01654 0.82700002 8545596
-0.08112476 0.01654 0.82700002 8611621
-0.079549521 0.01654 0.82700002 8743207
-0.077974282 0.01654 0.82700002 8611889
-0.076399051 0.01654 0.82700002 8611889
-0.074823812 0.01654 0.82700002 9072962
-0.073248573 0.01654 0.82700002 8875583
-0.071673334 0.01654 0.82700002 8743997
-0.070098102 0.01654 0.82700002 8020274
-0.068522863 0.01654 0.82700002 6576178
-0.066947617 0.01654 0.82700002 10721137
-0.065214291 0.0165 0.82500005 10331085
-0.062100001 0.016100001 0.80500007 13291770
-0.060416196 0.01606 0.80300003 13423615
-0.058886666 0.01606 0.80300003 13094650
-0.057357144 0.01606 0.80300003 12963071
-0.056105718 0.016140001 0.80700004 12831487
-0.054568574 0.016140001 0.80700004 12371454
-0.05303143 0.016140001 0.80700004 12568831
-0.051494289 0.016140001 0.80700004 12831487
-0.049957145 0.016140001 0.80700004 12831487
-0.048420005 0.016140001 0.80700004 12634108
-0.046882857 0.016140001 0.80700004 12963071
-0.045233335 0.016100001 0.80500007 13422845
-0.043591432 0.01606 0.80300003 14278143
-0.042061906 0.01606 0.80300003 14869759
-0.040532384 0.01606 0.80300003 12369627
-0.039002858 0.01606 0.80300003 8223917
-0.037940003 0.01626 0.81300002 6315920
-0.036660004 0.016380001 0.81900007 8151590
-0.035100002 0.016380001 0.81900007 8677934
-0.033621907 0.016420001 0.82100004 8480571
-0.032058097 0.016420001 0.82100004 8546364
-0.030568572 0.016460001 0.82300001 8480823
-0.029000953 0.016460001 0.82300001 8480823
-0.027433334 0.016460001 0.82300001 8546616
-0.025865715 0.016460001 0.82300001 8546616
-0.024298096 0.016460001 0.82300001 8415284
-0.022730477 0.016460001 0.82300001 8415284
-0.021111431 0.016420001 0.82100004 8677945
-0.019547621 0.016420001 0.82100004 8677945
-0.017983811 0.016420001 0.82100004 8743227
-0.016380001 0.016380001 0.81900007 8545848
-0.014820001 0.016380001 0.81900007 8414501
-0.013260001 0.016380001 0.81900007 8480294
-0.011700001 0.016380001 0.81900007 8414262
-0.010140001 0.016380001 0.81900007 8019504
-0.0085800011 0.016380001 0.81900007 8872231
-0.0070200008 0.016380001 0.81900007 9924919
-0.0054600001 0.016380001 0.81900007 9137963
-0.0039000001 0.016380001 0.81900007 9927479
-0.0023400001 0.016380001 0.81900007 9404056
-0.00078190479 0.016420001 0.82100004 7232887
0.00078190479 0.016420001 0.82100004 7232844
-0.10367715 0.018202858 0.83100003 9469829
-0.10160286 0.018115237 0.82700002 8153969
-0.10002762 0.018115237 0.82700002 8085071
-0.098452382 0.018115237 0.82700002 8216657
-0.096877143 0.018115237 0.82700002 8414027
-0.095301904 0.018115237 0.82700002 8414027
-0.093726665 0.018115237 0.82700002 8348976
-0.092151433 0.018115237 0.82700002 8151597
-0.090576194 0.018115237 0.82700002 8085052
-0.089000955 0.018115237 0.82700002 7887673
-0.087425716 0.018115237 0.82700002 7952662
-0.085850477 0.018115237 0.82700002 8150041
-0.084275246 0.018115237 0.82700002 8084545
-0.082699999 0.018115237 0.82700002 8018752
-0.08112476 0.018115237 0.82700002 8216870
-0.079357147 0.018071428 0.82500005 8348456
-0.077785715 0.018071428 0.82500005 8348708
-0.076214284 0.018071428 0.82500005 8348708
-0.074642867 0.018071428 0.82500005 8218385
-0.073071435 0.018071428 0.82500005 8284178
-0.071500003 0.018071428 0.82500005 7758374
-0.069928572 0.018071428 0.82500005 6968858
-0.068357147 0.018071428 0.82500005 7367535
-0.066785723 0.018071428 0.82500005 13420491
-0.063475236 0.017589524 0.80300003 13619706
-0.061945714 0.017589524 0.80300003 13488120
-0.060416196 0.017589524 0.80300003 13159934
-0.058886666 0.017589524 0.80300003 13094141
-0.057357144 0.017589524 0.80300003 12503292
-0.055966668 0.017633334 0.80500007 12437499
-0.054433338 0.017633334 0.80500007 12437499
-0.052900005 0.017633334 0.80500007 12437499
-0.051366672 0.017633334 0.80500007 12699901
-0.049833339 0.017633334 0.80500007 12897279
-0.048300002 0.017633334 0.80500007 12765689
-0.046766669 0.017633334 0.80500007 12897275
-0.045120955 0.017589524 0.80300003 12830967
-0.043591432 0.017589524 0.80300003 13291518
-0.042061906 0.017589524 0.80300003 14541055
-0.040532384 0.017589524 0.80300003 15462143
-0.039002858 0.017589524 0.80300003 14407152
-0.037566669 0.017633334 0.80500007 6906750
-0.03639143 0.017808573 0.81300002 7428353
-0.035014287 0.01789619 0.81700003 9073178
-0.033540003 0.017940002 0.81900007 8875088
-0.03198 0.017940002 0.81900007 8875088
-0.030420002 0.017940002 0.81900007 8809295
-0.028930476 0.017983811 0.82100004 8743502
-0.027366666 0.017983811 0.82100004 8940356
-0.025802858 0.017983811 0.82100004 9006149
-0.02423905 0.017983811 0.82100004 8940356
-0.02267524 0.017983811 0.82100004 8940356
-0.021111431 0.017983811 0.82100004 8939843
-0.019500002 0.017940002 0.81900007 9005636
-0.017940002 0.017940002 0.81900007 9070925
-0.016380001 0.017940002 0.81900007 9070925
-0.014820001 0.017940002 0.81900007 9071933
-0.01322762 0.01789619 0.81700003 9269312
-0.011671429 0.01789619 0.81700003 9400133
-0.010115238 0.01789619 0.81700003 9005375
-0.0085590482 0.01789619 0.81700003 9530161
-0.007002857 0.01789619 0.81700003 12227674
-0.0054466669 0.01789619 0.81700003 11180316
-0.0038904762 0.01789619 0.81700003 12035625
-0.0023400001 0.017940002 0.81900007 10655629
-0.00078190479 0.017983811 0.82100004 7102807
-0.10135715 0.019642858 0.82500005 8547961
-0.099785723 0.019642858 0.82500005 9137994
-0.098214291 0.019642858 0.82500005 9006408
-0.096642859 0.019642858 0.82500005 8611149
-0.095071435 0.019642858 0.82500005 8479563
-0.093500003 0.019642858 0.82500005 8348719
-0.091928579 0.019642858 0.82500005 8151340
-0.090357147 0.019642858 0.82500005 8085036
-0.088785723 0.019642858 0.82500005 7953450
-0.087214291 0.019642858 0.82500005 8018439
-0.085435241 0.019595239 0.82300001 8150025
-0.083867624 0.019595239 0.82300001 8018464
-0.082500003 0.019642858 0.82500005 8413222
-0.080928579 0.019642858 0.82500005 8217383
-0.079357147 0.019642858 0.82500005 8348969
-0.077785715 0.019642858 0.82500005 8283685
-0.076214284 0.019642858 0.82500005 8415271
-0.074642867 0.019642858 0.82500005 8349473
-0.073071435 0.019642858 0.82500005 8152094
-0.071500003 0.019642858 0.82500005 6970128
-0.069928572 0.019642858 0.82500005 7562265
-0.068357147 0.019642858 0.82500005 8880549
-0.065166667 0.019166669 0.80500007 13880817
-0.063475236 0.019119048 0.80300003 13818111
-0.061945714 0.019119048 0.80300003 13028598
-0.060416196 0.019119048 0.80300003 12437758
-0.058886666 0.019119048 0.80300003 12635135
-0.057357144 0.019119048 0.80300003 12371967
-0.055827621 0.019119048 0.80300003 12503551
-0.054298095 0.019119048 0.80300003 12634878
-0.052768573 0.019119048 0.80300003 12569085
-0.051366672 0.019166669 0.80500007 12502526
-0.049833339 0.019166669 0.80500007 12699903
-0.048300002 0.019166669 0.80500007 12765435
-0.046650477 0.019119048 0.80300003 12765435
-0.045120955 0.019119048 0.80300003 12436731
-0.043591432 0.019119048 0.80300003 12831487
-0.042061906 0.019119048 0.80300003 13949180
-0.040532384 0.019119048 0.80300003 15265023
-0.039002858 0.019119048 0.80300003 15460351
-0.037473332 0.019119048 0.80300003 7696777
-0.036301903 0.019309524 0.81100005 7033344
-0.035014287 0.019452382 0.81700003 9204510
-0.033458095 0.019452382 0.81700003 8940620
-0.031901907 0.019452382 0.81700003 8940620
-0.030420002 0.019500002 0.81900007 9006919
-0.028860003 0.019500002 0.81900007 8875333
-0.027300002 0.019500002 0.81900007 8939836
-0.025802858 0.019547621 0.82100004 9137215
-0.024180001 0.019500002 0.81900007 9136711
-0.022620002 0.019500002 0.81900007 9136711
-0.021060001 0.019500002 0.81900007 9333817
-0.019500002 0.019500002 0.81900007 9333817
-0.01789619 0.019452382 0.81700003 9333315
-0.016340001 0.019452382 0.81700003 9267522
-0.01474762 0.019404763 0.81500006 9399097
-0.013195239 0.019404763 0.81500006 9530683
-0.011614286 0.019357143 0.81300002 9661760
-0.010065715 0.019357143 0.81300002 9332795
-0.0085380953 0.019404763 0.81500006 9463600
-0.0069685718 0.019357143 0.81300002 10121530
-0.0054199998 0.019357143 0.81300002 9402690
-0.0038714285 0.019357143 0.81300002 11837031
-0.0023457143 0.019547621 0.82100004 10327485
-0.10267905 0.021162858 0.82300001 9337216
-0.10111143 0.021162858 0.82300001 8745079
-0.09954381 0.021162858 0.82300001 9466176
-0.097976193 0.021162858 0.82300001 9729348
-0.096408576 0.021162858 0.82300001 9597020
-0.094840951 0.021162858 0.82300001 9399641
-0.093273334 0.021162858 0.82300001 9333822
-0.091705717 0.021162858 0.82300001 9333822
-0.0901381 0.021162858 0.82300001 9596487
-0.088570476 0.021162858 0.82300001 9596487
-0.086791433 0.021111431 0.82100004 9465644
-0.085227624 0.021111431 0.82100004 9465644
-0.083663814 0.021111431 0.82100004 9465651
-0.082100004 0.021111431 0.82100004 9531444
-0.080536194 0.021111431 0.82100004 9334599
-0.078972384 0.021111431 0.82100004 9137220
-0.077597149 0.021162858 0.82300001 9071420
-0.076029524 0.021162858 0.82300001 9334592
-0.0744619 0.021162858 0.82300001 9203767
-0.072894283 0.021162858 0.82300001 8545837
-0.071326666 0.021162858 0.82300001 7759144
-0.069759049 0.021162858 0.82300001 10983001
-0.066700004 0.020700002 0.80500007 10328807
-0.065004766 0.020648573 0.80300003 13750015
-0.063475236 0.020648573 0.80300003 13489407
-0.061945714 0.020648573 0.80300003 12831482
-0.060416196 0.020648573 0.80300003 12699901
-0.058813337 0.020622859 0.80200005 12897279
-0.057285715 0.020622859 0.80200005 12569085
-0.055827621 0.020648573 0.80300003 12700671
-0.054298095 0.020648573 0.80300003 12897534
-0.052768573 0.020648573 0.80300003 12765948
-0.051239051 0.020648573 0.80300003 12568315
-0.049709525 0.020648573 0.80300003 12568315
-0.048179999 0.020648573 0.80300003 12699642
-0.046650477 0.020648573 0.80300003 12897021
-0.045120955 0.020648573 0.80300003 12568315
-0.043591432 0.020648573 0.80300003 12831487
-0.042061906 0.020648573 0.80300003 13620728
-0.040532384 0.020648573 0.80300003 14673407
-0.039002858 0.020648573 0.80300003 14934015
-0.037473332 0.020648573 0.80300003 8486304
-0.036212385 0.020802857 0.80900002 8018464
-0.03484286 0.020905714 0.81300002 10123840
-0.033376191 0.020957144 0.81500006 9794375
-0.03182381 0.020957144 0.81500006 9465410
-0.03027143 0.020957144 0.81500006 9465149
-0.028719049 0.020957144 0.81500006 9530942
-0.027233334 0.021008572 0.81700003 9464890
-0.025677143 0.021008572 0.81700003 9596476
-0.024061905 0.020957144 0.81500006 9727051
-0.022509526 0.020957144 0.81500006 9595465
-0.021008572 0.021008572 0.81700003 9594932
-0.019452382 0.021008572 0.81700003 9594932
-0.017852381 0.020957144 0.81500006 9529652
-0.016300002 0.020957144 0.81500006 9398066
-0.01474762 0.020957144 0.81500006 9463600
-0.013162857 0.020905714 0.81300002 9463600
-0.011614286 0.020905714 0.81300002 9463600
-0.010065715 0.020905714 0.81300002 9397807
-0.0085171424 0.020905714 0.81300002 9331503
-0.0069514289 0.020854287 0.81100005 9463089
-0.005406667 0.020854287 0.81100005 8941637
-0.0038619051 0.020854287 0.81100005 12033908
-0.10242952 0.02267524 0.82100004 8941940
-0.10086571 0.02267524 0.82100004 8744561
-0.099301912 0.02267524 0.82100004 9465410
-0.097738102 0.02267524 0.82100004 9662789
-0.096174285 0.02267524 0.82100004 9923919
-0.094610475 0.02267524 0.82100004 9792333
-0.093046673 0.02267524 0.82100004 9594943
-0.091482863 0.02267524 0.82100004 9792322
-0.089919046 0.02267524 0.82100004 9989192
-0.088355243 0.02267524 0.82100004 9923399
-0.086580001 0.022620002 0.81900007 9858617
-0.085020006 0.022620002 0.81900007 9858617
-0.083460003 0.022620002 0.81900007 9793337
-0.081900008 0.022620002 0.81900007 9793337
-0.080340005 0.022620002 0.81900007 9727553
-0.07878001 0.022620002 0.81900007 9530174
-0.077408575 0.02267524 0.82100004 9463857
-0.075844765 0.02267524 0.82100004 9727029
-0.074280955 0.02267524 0.82100004 9465912
-0.072894283 0.022730477 0.82300001 8676396
-0.071326666 0.022730477 0.82300001 7824128
-0.069759049 0.022730477 0.82300001 11508522
-0.066534288 0.022178095 0.80300003 11842266
-0.065004766 0.022178095 0.80300003 13750263
-0.063475236 0.022178095 0.80300003 13225983
-0.061945714 0.022178095 0.80300003 12699644
-0.060340952 0.022150477 0.80200005 12502524
-0.058813337 0.022150477 0.80200005 12634110
-0.057285715 0.022150477 0.80200005 12567804
-0.0557581 0.022150477 0.80200005 12699390
-0.054230478 0.022150477 0.80200005 12765435
-0.052702863 0.022150477 0.80200005 12765435
-0.05117524 0.022150477 0.80200005 12699644
-0.049647622 0.022150477 0.80200005 12699644
-0.048119999 0.022150477 0.80200005 12633851
-0.046592385 0.022150477 0.80200005 12765437
-0.045064762 0.022150477 0.80200005 12634108
-0.043537147 0.022150477 0.80200005 13028863
-0.042009525 0.022150477 0.80200005 13292283
-0.04048191 0.022150477 0.80200005 14213375
-0.039002858 0.022178095 0.80300003 14342399
-0.037566669 0.022233333 0.80500007 8684204
-0.036212385 0.022343809 0.80900002 8411189
-0.034757145 0.022399049 0.81100005 10056014
-0.033294287 0.022454288 0.81300002 10252612
-0.031745713 0.022454288 0.81300002 9989440
-0.030197144 0.022454288 0.81300002 9923640
-0.028648572 0.022454288 0.81300002 9923640
-0.027100001 0.022454288 0.81300002 9726007
-0.025614288 0.022509526 0.81500006 9660214
-0.024002858 0.022454288 0.81300002 9659973
-0.022454288 0.022454288 0.81300002 9528387
-0.020957144 0.022509526 0.81500006 9725223
-0.019404763 0.022509526 0.81500006 9922602
-0.017808573 0.022454288 0.81300002 9725491
-0.01626 0.022454288 0.81300002 9659698
-0.014711428 0.022454288 0.81300002 9594409
-0.013130477 0.022399049 0.81100005 9594409
-0.011585715 0.022399049 0.81100005 9593898
-0.010040953 0.022399049 0.81100005 9593898
-0.0084752385 0.022343809 0.80900002 9331503
-0.0069342856 0.022343809 0.80900002 9463089
-0.0053933333 0.022343809 0.80900002 8482885
-0.0038619051 0.022399049 0.81100005 11509363
-0.10242952 0.02423905 0.82100004 8742503
-0.10086571 0.02423905 0.82100004 8545124
-0.099301912 0.02423905 0.82100004 9003830
-0.097738102 0.02423905 0.82100004 9069623
-0.096174285 0.02423905 0.82100004 9199665
-0.094610475 0.02423905 0.82100004 9199665
-0.092820004 0.024180001 0.81900007 9396274
-0.091260001 0.024180001 0.81900007 9527860
-0.089700006 0.024180001 0.81900007 9462069
-0.088140003 0.024180001 0.81900007 9462069
-0.086580001 0.024180001 0.81900007 9396274
-0.085020006 0.024180001 0.81900007 9396274
-0.083460003 0.024180001 0.81900007 9134372
-0.081900008 0.024180001 0.81900007 9200165
-0.080340005 0.024180001 0.81900007 9068065
-0.07878001 0.024180001 0.81900007 8870686
-0.077220008 0.024180001 0.81900007 8935705
-0.075660005 0.024180001 0.81900007 9133084
-0.07410001 0.024180001 0.81900007 8937247
-0.072540008 0.024180001 0.81900007 8345110
-0.070286669 0.02394381 0.81100005 6969349
-0.068233334 0.023766669 0.80500007 10982722
-0.066534288 0.023707621 0.80300003 11055309
-0.065004766 0.023707621 0.80300003 13555443
-0.063396193 0.023678096 0.80200005 13489407
-0.061868574 0.023678096 0.80200005 12963066
-0.060340952 0.023678096 0.80200005 12831482
-0.058813337 0.023678096 0.80200005 12831482
-0.057285715 0.023678096 0.80200005 12567804
-0.0557581 0.023678096 0.80200005 12633597
-0.054095238 0.023619048 0.80000001 12765435
-0.052571427 0.023619048 0.80000001 12765435
-0.051047619 0.023619048 0.80000001 12699642
-0.049523808 0.023619048 0.80000001 12897021
-0.048 0.023619048 0.80000001 12962555
-0.046476189 0.023619048 0.80000001 13159934
-0.044952381 0.023619048 0.80000001 12897784
-0.043428574 0.023619048 0.80000001 13292542
-0.042009525 0.023678096 0.80200005 13884410
-0.04048191 0.023678096 0.80200005 14410751
-0.039002858 0.023707621 0.80300003 14210047
-0.037566669 0.023766669 0.80500007 8946611
-0.036212385 0.023884762 0.80900002 8674380
-0.034757145 0.02394381 0.81100005 9792861
-0.033212382 0.02394381 0.81100005 10120742
-0.031667624 0.02394381 0.81100005 9989156
-0.030122858 0.02394381 0.81100005 9857327
-0.028578097 0.02394381 0.81100005 9725741
-0.027033335 0.02394381 0.81100005 9593907
-0.025551429 0.024002858 0.81300002 9462321
-0.024002858 0.024002858 0.81300002 9528114
-0.022454288 0.024002858 0.81300002 9396528
-0.020905714 0.024002858 0.81300002 9396758
-0.019357143 0.024002858 0.81300002 9528344
-0.017808573 0.024002858 0.81300002 9593896
-0.01622 0.02394381 0.81100005 9528103
-0.014675239 0.02394381 0.81100005 9462058
-0.013098096 0.023884762 0.80900002 9462058
-0.011557143 0.023884762 0.80900002 9462564
-0.010016191 0.023884762 0.80900002 9462564
-0.0084542865 0.023825716 0.80700004 9265458
-0.0069171432 0.023825716 0.80700004 9397044
-0.00538 0.023825716 0.80700004 8416577
-0.10218 0.025740001 0.81900007 8873045
-0.10062001 0.025740001 0.81900007 8741459
-0.099060006 0.025740001 0.81900007 9003047
-0.097500004 0.025740001 0.81900007 9068840
-0.095940009 0.025740001 0.81900007 9133870
-0.094149522 0.025677143 0.81700003 9133870
-0.092593342 0.025677143 0.81700003 9264933
-0.091037147 0.025677143 0.81700003 9067554
-0.089480951 0.025677143 0.81700003 9002245
-0.087924771 0.025677143 0.81700003 8936452
-0.086368576 0.025677143 0.81700003 8806144
-0.08481238 0.025677143 0.81700003 8806144
-0.083256193 0.025677143 0.81700003 8608256
-0.081700005 0.025677143 0.81700003 8805632
-0.080143809 0.025677143 0.81700003 8739840
-0.078587621 0.025677143 0.81700003 8871424
-0.077031434 0.025677143 0.81700003 9266176
-0.075475238 0.025677143 0.81700003 9924096
-0.073738098 0.025614288 0.81500006 10057728
-0.072008573 0.025551429 0.81300002 10452480
-0.069940001 0.025362857 0.80700004 9469966
-0.06806381 0.025237143 0.80300003 10588447
-0.066534288 0.025237143 0.80300003 10594229
-0.065004766 0.025237143 0.80300003 13489121
-0.063396193 0.025205715 0.80200005 13489919
-0.061868574 0.025205715 0.80200005 12897784
-0.060340952 0.025205715 0.80200005 12700669
-0.058666669 0.025142856 0.80000001 12634876
-0.057142857 0.025142856 0.80000001 12567804
-0.05561905 0.025142856 0.80000001 12699390
-0.054095238 0.025142856 0.80000001 12831482
-0.052571427 0.025142856 0.80000001 12831482
-0.050920002 0.025080001 0.79800004 12831228
-0.049400002 0.025080001 0.79800004 12897021
-0.047880001 0.025080001 0.79800004 12831739
-0.046476189 0.025142856 0.80000001 13029118
-0.044840001 0.025080001 0.79800004 12833020
-0.043320004 0.025080001 0.79800004 13425151
-0.041904762 0.025142856 0.80000001 13950973
-0.040380955 0.025142856 0.80000001 14082559
-0.039002858 0.025237143 0.80300003 13422335
-0.037566669 0.025300002 0.80500007 8685240
-0.036122859 0.025362857 0.80700004 8938842
-0.034671426 0.025425715 0.80900002 8741463
-0.033212382 0.025488574 0.81100005 9658662
-0.031667624 0.025488574 0.81100005 9921834
-0.030048572 0.025425715 0.80900002 9725491
-0.02850762 0.025425715 0.80900002 9725491
-0.026966667 0.025425715 0.80900002 9462571
-0.025488574 0.025488574 0.81100005 9396778
-0.02394381 0.025488574 0.81100005 9462319
-0.022399049 0.025488574 0.81100005 9330733
-0.020854287 0.025488574 0.81100005 9396265
-0.019309524 0.025488574 0.81100005 9396265
-0.017764764 0.025488574 0.81100005 9462058
-0.016179999 0.025425715 0.80900002 9396265
-0.014639048 0.025425715 0.80900002 9396258
-0.013065715 0.025362857 0.80700004 9330465
-0.011528572 0.025362857 0.80700004 9330715
-0.0099914288 0.025362857 0.80700004 9396508
-0.0084333336 0.025300002 0.80500007 9199651
-0.0069000009 0.025300002 0.80500007 9068065
-0.0053666667 0.025300002 0.80500007 8284489
-0.0038333337 0.025300002 0.80500007 10916209
-0.10218 0.027300002 0.81900007 7886665
-0.10037429 0.027233334 0.81700003 7820872
-0.098818094 0.027233334 0.81700003 8212484
-0.097261913 0.027233334 0.81700003 8146691
-0.095705718 0.027233334 0.81700003 8409104
-0.093919054 0.027166668 0.81500006 8211725
-0.092366673 0.027166668 0.81500006 8343296
-0.090814285 0.027166668 0.81500006 8343296
-0.089261912 0.027166668 0.81500006 8540958
-0.087709531 0.027166668 0.81500006 9791025
-0.086157143 0.027166668 0.81500006 9796096
-0.08460477 0.027166668 0.81500006 10980352
-0.083052389 0.027166668 0.81500006 11641088
-0.081500001 0.027166668 0.81500006 11772672
-0.079947628 0.027166668 0.81500006 13221120
-0.07839524 0.027166668 0.81500006 13352704
-0.076842859 0.027166668 0.81500006 14010624
-0.075105712 0.027100001 0.81300002 15458057
-0.073376194 0.027033335 0.81100005 14668601
-0.071831435 0.027033335 0.81100005 14734394
-0.069940001 0.026900001 0.80700004 12106301
-0.06806381 0.026766667 0.80300003 9342995
-0.066534288 0.026766667 0.80300003 9478578
-0.065004766 0.026766667 0.80300003 12899814
-0.063396193 0.026733335 0.80200005 13818111
-0.061868574 0.026733335 0.80200005 13423356
-0.060190476 0.026666667 0.80000001 13160443
-0.058666669 0.026666667 0.80000001 12963064
-0.057142857 0.026666667 0.80000001 12831480
-0.05548 0.026600001 0.79800004 12831480
-0.053959999 0.026600001 0.79800004 12699894
-0.052440003 0.026600001 0.79800004 12699894
-0.050920002 0.026600001 0.79800004 12765687
-0.049400002 0.026600001 0.79800004 13160445
-0.047880001 0.026600001 0.79800004 13029622
-0.046360001 0.026600001 0.79800004 13227001
-0.044727623 0.026533335 0.79600006 13753594
-0.043211434 0.026533335 0.79600006 14279935
-0.041800003 0.026600001 0.79800004 14082047
-0.040280003 0.026600001 0.79800004 12700396
-0.038954284 0.026733335 0.80200005 12762866
-0.037473332 0.026766667 0.80300003 9144251
-0.036033336 0.026833337 0.80500007 8872293
-0.034585718 0.026900001 0.80700004 8609121
-0.033130478 0.026966667 0.80900002 9395497
-0.031589523 0.026966667 0.80900002 9592876
-0.030048572 0.026966667 0.80900002 9395497
-0.028437143 0.026900001 0.80700004 9395497
-0.026900001 0.026900001 0.80700004 9132836
-0.025425715 0.026966667 0.80900002 9198629
-0.023884762 0.026966667 0.80900002 9067304
-0.022343809 0.026966667 0.80900002 9133097
-0.020802857 0.026966667 0.80900002 9133104
-0.019261904 0.026966667 0.80900002 9067311
-0.017720953 0.026966667 0.80900002 9067034
-0.016179999 0.026966667 0.80900002 9001241
-0.014602858 0.026900001 0.80700004 8936209
-0.013033334 0.026833337 0.80500007 8804623
-0.011500001 0.026833337 0.80500007 8804612
-0.0099666677 0.026833337 0.80500007 9001991
-0.0084333336 0.026833337 0.80500007 8739854
-0.0068828571 0.026766667 0.80300003 8871440
-0.0053533334 0.026766667 0.80300003 8284751
-0.0038238098 0.026766667 0.80300003 10653299
-0.099391431 0.02850762 0.80900002 7689984
-0.097850479 0.02850762 0.80900002 7949568
-0.096547626 0.028578097 0.81100005 7883776
-0.095237143 0.028648572 0.81300002 7949568
-0.09368857 0.028648572 0.81300002 8212736
-0.092140004 0.028648572 0.81300002 8542208
-0.090591431 0.028648572 0.81300002 9858053
-0.089042857 0.028648572 0.81300002 10454016
-0.087494291 0.028648572 0.81300002 10848768
-0.085945718 0.028648572 0.81300002 11180800
-0.084397145 0.028648572 0.81300002 11641344
-0.082848579 0.028648572 0.81300002 12891411
-0.081300005 0.028648572 0.81300002 14273064
-0.079751432 0.028648572 0.81300002 13880398
-0.078202859 0.028648572 0.81300002 13946191
-0.076465718 0.028578097 0.81100005 14734673
-0.07492096 0.028578097 0.81100005 14932052
-0.073376194 0.028578097 0.81100005 14934369
-0.071654283 0.02850762 0.80900002 15000162
-0.069940001 0.028437143 0.80700004 11910801
-0.06806381 0.028296191 0.80300003 9015909
-0.066534288 0.028296191 0.80300003 8820873
-0.064923815 0.028260954 0.80200005 12702660
-0.063396193 0.028260954 0.80200005 13226749
-0.061714288 0.028190477 0.80000001 13358335
-0.060190476 0.028190477 0.80000001 13620987
-0.05852 0.02812 0.79800004 13357815
-0.057 0.02812 0.79800004 13095163
-0.055340957 0.028049525 0.79600006 12963577
-0.053824764 0.028049525 0.79600006 12831480
-0.052308574 0.028049525 0.79600006 12897273
-0.050792385 0.028049525 0.79600006 12831993
-0.049276195 0.028049525 0.79600006 13226751
-0.047760002 0.028049525 0.79600006 13095929
-0.046243813 0.028049525 0.79600006 13293308
-0.044727623 0.028049525 0.79600006 14213625
-0.043211434 0.028049525 0.79600006 14213625
-0.041695241 0.028049525 0.79600006 13555966
-0.040179051 0.028049525 0.79600006 12108520
-0.038857143 0.028190477 0.80000001 12039911
-0.037473332 0.028296191 0.80300003 8421296
-0.036033336 0.028366668 0.80500007 8806969
-0.034500003 0.028366668 0.80500007 8872762
-0.03304857 0.028437143 0.80700004 9527092
-0.03151143 0.028437143 0.80700004 9527092
-0.029974287 0.028437143 0.80700004 9328950
-0.028437143 0.028437143 0.80700004 9394743
-0.026900001 0.028437143 0.80700004 9132323
-0.025425715 0.02850762 0.80900002 9263909
-0.023825716 0.028437143 0.80700004 9001266
-0.022288572 0.028437143 0.80700004 8869680
-0.02075143 0.028437143 0.80700004 8870164
-0.019214287 0.028437143 0.80700004 9067543
-0.017677143 0.028437143 0.80700004 9001761
-0.016140001 0.028437143 0.80700004 9001761
-0.014566667 0.028366668 0.80500007 9001033
-0.013033334 0.028366668 0.80500007 8803654
-0.011500001 0.028366668 0.80500007 8804121
-0.0099666677 0.028366668 0.80500007 9198879
-0.0084123807 0.028296191 0.80300003 8805420
-0.0068828571 0.028296191 0.80300003 8608041
-0.0053533334 0.028296191 0.80300003 8153902
-0.0038238098 0.028296191 0.80300003 10456657
-0.10093238 0.030048572 0.80900002 8019712
-0.099391431 0.030048572 0.80900002 10125079
-0.097850479 0.030048572 0.80900002 11376896
-0.096547626 0.030122858 0.81100005 11508480
-0.09500286 0.030122858 0.81100005 13221632
-0.093458101 0.030122858 0.81100005 13353216
-0.091913335 0.030122858 0.81100005 13681949
-0.090368576 0.030122858 0.81100005 14537258
-0.088823818 0.030122858 0.81100005 14275584
-0.087279052 0.030122858 0.81100005 14604544
-0.085734285 0.030122858 0.81100005 14210584
-0.084189527 0.030122858 0.81100005 14539549
-0.082644768 0.030122858 0.81100005 14145027
-0.080899999 0.030048572 0.80900002 14605578
-0.079359047 0.030048572 0.80900002 13355078
-0.077818096 0.030048572 0.80900002 13157699
-0.076277144 0.030048572 0.80900002 12370250
-0.074736193 0.030048572 0.80900002 11054390
-0.073195241 0.030048572 0.80900002 12763682
-0.071477145 0.029974287 0.80700004 14671679
-0.06976667 0.029900001 0.80500007 13027644
-0.06806381 0.029825715 0.80300003 9803787
-0.06645143 0.029788572 0.80200005 8821143
-0.064923815 0.029788572 0.80200005 11058105
-0.063238099 0.029714286 0.80000001 12503250
-0.061714288 0.029714286 0.80000001 13358559
-0.060040005 0.029640002 0.79800004 13818366
-0.05852 0.029640002 0.79800004 14278911
-0.056857146 0.029565716 0.79600006 14345211
-0.055340957 0.029565716 0.79600006 14411004
-0.053824764 0.029565716 0.79600006 14476284
-0.052308574 0.029565716 0.79600006 14871039
-0.050792385 0.029565716 0.79600006 14805501
-0.049276195 0.029565716 0.79600006 15002879
-0.047760002 0.029565716 0.79600006 14938111
-0.046243813 0.029565716 0.79600006 14674939
-0.044727623 0.029565716 0.79600006 13950973
-0.043211434 0.029565716 0.79600006 13227250
-0.041695241 0.029565716 0.79600006 13292024
-0.040179051 0.029565716 0.79600006 11910371
-0.038760003 0.029640002 0.79800004 12235484
-0.037426669 0.029788572 0.80200005 8287904
-0.03594381 0.029825715 0.80300003 8147002
-0.034414288 0.029825715 0.80300003 9265483
-0.03296667 0.029900001 0.80500007 9725514
-0.031433333 0.029900001 0.80500007 9922893
-0.029900001 0.029900001 0.80500007 10187360
-0.028296191 0.029825715 0.80300003 10187360
-0.026766667 0.029825715 0.80300003 10122066
-0.025300002 0.029900001 0.80500007 10451031
-0.023766669 0.029900001 0.80500007 10319967
-0.022233333 0.029900001 0.80500007 9727830
-0.020700002 0.029900001 0.80500007 10056507
-0.019166669 0.029900001 0.80500007 10582851
-0.017633334 0.029900001 0.80500007 10187098
-0.016100001 0.029900001 0.80500007 10516063
-0.014566667 0.029900001 0.80500007 10779779
-0.013000953 0.029825715 0.80300003 10516607
-0.011471429 0.029825715 0.80300003 10451302
-0.0099419048 0.029825715 0.80300003 10582888
-0.0084123807 0.029825715 0.80300003 9794639
-0.0068828571 0.029825715 0.80300003 7952435
-0.0053533334 0.029825715 0.80300003 8087372
-0.0038238098 0.029825715 0.80300003 10324334
-0.10043334 0.031433333 0.80500007 9601280
-0.098900005 0.031433333 0.80500007 10588160
-0.097608574 0.03151143 0.80700004 12230944
-0.09630952 0.031589523 0.80900002 12954667
-0.094768576 0.031589523 0.80900002 13747526
-0.093227617 0.031589523 0.80900002 13615940
-0.091686666 0.031589523 0.80900002 13880666
-0.090145715 0.031589523 0.80900002 14538596
-0.088604763 0.031589523 0.80900002 14145375
-0.087063812 0.031589523 0.80900002 14079582
-0.08552286 0.031589523 0.80900002 14145145
-0.083981901 0.031589523 0.80900002 13947766
-0.082237147 0.03151143 0.80700004 12895341
-0.080700003 0.03151143 0.80700004 13158513
-0.079162858 0.03151143 0.80700004 12698500
-0.077625714 0.03151143 0.80700004 12237949
-0.076088578 0.03151143 0.80700004 10993279
-0.074551433 0.03151143 0.80700004 7769422
-0.073014289 0.03151143 0.80700004 8688640
-0.071300007 0.031433333 0.80500007 14017869
-0.06976667 0.031433333 0.80500007 13356669
-0.06806381 0.031355239 0.80300003 9869640
-0.06645143 0.031316195 0.80200005 8556674
-0.064923815 0.031316195 0.80200005 11188394
-0.063238099 0.031238094 0.80000001 10991575
-0.061560001 0.031160003 0.79800004 11846884
-0.060040005 0.031160003 0.79800004 12634879
-0.058373336 0.031081906 0.79600006 13292799
-0.056857146 0.031081906 0.79600006 13556991
-0.055340957 0.031081906 0.79600006 13754367
-0.053824764 0.031081906 0.79600006 13951741
-0.052308574 0.031081906 0.79600006 14214911
-0.050664764 0.03100381 0.79400003 14280956
-0.049152382 0.03100381 0.79400003 14412542
-0.047760002 0.031081906 0.79600006 14675966
-0.046243813 0.031081906 0.79600006 14281208
-0.044727623 0.031081906 0.79600006 13163007
-0.043211434 0.031081906 0.79600006 12570870
-0.041695241 0.031081906 0.79600006 12502011
-0.040179051 0.031081906 0.79600006 11580909
-0.038760003 0.031160003 0.79800004 11774662
-0.037426669 0.031316195 0.80200005 7892875
-0.03594381 0.031355239 0.80300003 8409633
-0.034414288 0.031355239 0.80300003 9462321
-0.03296667 0.031433333 0.80500007 10319697
-0.031355239 0.031355239 0.80300003 10517076
-0.029825715 0.031355239 0.80300003 10453360
-0.028296191 0.031355239 0.80300003 10321774
-0.026766667 0.031355239 0.80300003 10388066
-0.025300002 0.031433333 0.80500007 10585445
-0.023707621 0.031355239 0.80300003 10649967
-0.022178095 0.031355239 0.80300003 9794658
-0.020648573 0.031355239 0.80300003 9991486
-0.019119048 0.031355239 0.80300003 10254658
-0.017589524 0.031355239 0.80300003 9990221
-0.01606 0.031355239 0.80300003 10450772
-0.014530477 0.031355239 0.80300003 11570571
-0.013000953 0.031355239 0.80300003 11373192
-0.011471429 0.031355239 0.80300003 11046267
-0.0099295247 0.031316195 0.80200005 10783095
-0.0084019052 0.031316195 0.80200005 10650478
-0.0068742861 0.031316195 0.80200005 7952965
-0.005346667 0.031316195 0.80200005 8021310
-0.10196667 0.03296667 0.80500007 12431777
-0.10043334 0.03296667 0.80500007 12565553
-0.098900005 0.03296667 0.80500007 13552448
-0.097366676 0.03296667 0.80500007 12630851
-0.095833339 0.03296667 0.80500007 11972921
-0.094534285 0.03304857 0.80700004 10591053
-0.092997141 0.03304857 0.80700004 9669951
-0.091460004 0.03304857 0.80700004 12238336
-0.090145715 0.033130478 0.80900002 13159438
-0.088604763 0.033130478 0.80900002 10002030
-0.086848572 0.03304857 0.80700004 9080928
-0.085311428 0.03304857 0.80700004 9345367
-0.083566673 0.03296667 0.80500007 9608539
-0.082033344 0.03296667 0.80500007 9671763
-0.080500007 0.03296667 0.80500007 9803349
-0.078966677 0.03296667 0.80500007 8490352
-0.07743334 0.03296667 0.80500007 6713941
-0.075900003 0.03296667 0.80500007 6585980
-0.074366674 0.03296667 0.80500007 6125429
-0.072833337 0.03296667 0.80500007 9936246
-0.071300007 0.03296667 0.80500007 14344377
-0.06959334 0.032884765 0.80300003 13226815
-0.06806381 0.032884765 0.80300003 9937165
-0.06645143 0.03284381 0.80200005 8426653
-0.064923815 0.03284381 0.80200005 9808306
-0.063238099 0.032761905 0.80000001 10924747
-0.061560001 0.032680001 0.79800004 11516884
-0.060040005 0.032680001 0.79800004 12041973
-0.058373336 0.032598101 0.79600006 12568317
-0.056857146 0.032598101 0.79600006 12569342
-0.055340957 0.032598101 0.79600006 12766719
-0.053824764 0.032598101 0.79600006 12701691
-0.052308574 0.032598101 0.79600006 12701691
-0.050664764 0.032516193 0.79400003 12833790
-0.049152382 0.032516193 0.79400003 12899583
-0.047760002 0.032598101 0.79600006 12439550
-0.046243813 0.032598101 0.79600006 12307964
-0.044727623 0.032598101 0.79600006 12964095
-0.043211434 0.032598101 0.79600006 12635130
-0.041695241 0.032598101 0.79600006 13159407
-0.040179051 0.032598101 0.79600006 10001343
-0.038760003 0.032680001 0.79800004 9601667
-0.037333332 0.032761905 0.80000001 7627877
-0.035899047 0.03284381 0.80200005 8805705
-0.034371432 0.03284381 0.80200005 8739912
-0.032884765 0.032884765 0.80300003 9398064
-0.031355239 0.032884765 0.80300003 9792822
-0.029825715 0.032884765 0.80300003 9464649
-0.028260954 0.03284381 0.80200005 9333063
-0.026733335 0.03284381 0.80200005 9794125
-0.025237143 0.032884765 0.80300003 9794125
-0.023707621 0.032884765 0.80300003 9859664
-0.022178095 0.032884765 0.80300003 8609597
-0.020648573 0.032884765 0.80300003 9201178
-0.019095238 0.03284381 0.80200005 9727522
-0.01756762 0.03284381 0.80200005 9595463
-0.016040001 0.03284381 0.80200005 9727049
-0.014512382 0.03284381 0.80200005 10124367
-0.012984763 0.03284381 0.80200005 9466437
-0.011457143 0.03284381 0.80200005 9795154
-0.0099047627 0.032761905 0.80000001 10058326
-0.0083809523 0.032761905 0.80000001 9795393
-0.0068571432 0.032761905 0.80000001 7492638
-0.0053200005 0.032680001 0.79800004 8217161
-0.0038000003 0.032680001 0.79800004 11243639
-0.10196667 0.034500003 0.80500007 12760742
-0.10018381 0.034414288 0.80300003 12172656
-0.098654293 0.034414288 0.80300003 12041070
-0.097124763 0.034414288 0.80300003 11779202
-0.095595248 0.034414288 0.80300003 10792307
-0.094300009 0.034500003 0.80500007 7310109
-0.092766672 0.034500003 0.80500007 8954934
-0.091233335 0.034500003 0.80500007 12041574
-0.08992286 0.034585718 0.80700004 11383644
-0.088385724 0.034585718 0.80700004 7837523
-0.08663334 0.034500003 0.80500007 5534768
-0.08510001 0.034500003 0.80500007 4747289
-0.083359048 0.034414288 0.80300003 6984251
-0.081829526 0.034414288 0.80300003 7503705
-0.080300003 0.034414288 0.80300003 7174740
-0.078770474 0.034414288 0.80300003 6915179
-0.077240959 0.034414288 0.80300003 4941389
-0.075711429 0.034414288 0.80300003 4874853
-0.074181907 0.034414288 0.80300003 7572366
-0.072652385 0.034414288 0.80300003 10529378
-0.071122855 0.034414288 0.80300003 14016407
-0.06959334 0.034414288 0.80300003 13293653
-0.06806381 0.034414288 0.80300003 9872417
-0.06645143 0.034371432 0.80200005 8295516
-0.064923815 0.034371432 0.80200005 9742962
-0.063238099 0.034285713 0.80000001 10004161
-0.061560001 0.034199998 0.79800004 10859470
-0.060040005 0.034199998 0.79800004 11712488
-0.058373336 0.03411429 0.79600006 12304625
-0.056857146 0.03411429 0.79600006 12043513
-0.055340957 0.03411429 0.79600006 12175099
-0.053824764 0.03411429 0.79600006 12437758
-0.052308574 0.03411429 0.79600006 12503551
-0.050664764 0.034028571 0.79400003 12504573
-0.049152382 0.034028571 0.79400003 12307194
-0.047760002 0.03411429 0.79600006 12306431
-0.046243813 0.03411429 0.79600006 12372223
-0.044727623 0.03411429 0.79600006 12832255
-0.043211434 0.03411429 0.79600006 12437501
-0.041695241 0.03411429 0.79600006 11712477
-0.040179051 0.03411429 0.79600006 8422827
-0.038760003 0.034199998 0.79800004 7956045
-0.037333332 0.034285713 0.80000001 9008733
-0.035809524 0.034285713 0.80000001 10124415
-0.034285713 0.034285713 0.80000001 9005934
-0.03284381 0.034371432 0.80200005 9070384
-0.031316195 0.034371432 0.80200005 9596728
-0.029788572 0.034371432 0.80200005 9463116
-0.028190477 0.034285713 0.80000001 9463116
-0.026666667 0.034285713 0.80000001 9925474
-0.025205715 0.034371432 0.80200005 10122853
-0.023678096 0.034371432 0.80200005 9992289
-0.022150477 0.034371432 0.80200005 9465945
-0.020622859 0.034371432 0.80200005 9464649
-0.019047618 0.034285713 0.80000001 9793614
-0.017523808 0.034285713 0.80000001 9663055
-0.016000001 0.034285713 0.80000001 9663055
-0.01447619 0.034285713 0.80000001 10123623
-0.012952381 0.034285713 0.80000001 9728865
-0.011428571 0.034285713 0.80000001 9860446
-0.0098800007 0.034199998 0.79800004 10057825
-0.0083600003 0.034199998 0.79800004 9399890
-0.0068399999 0.034199998 0.79800004 7623479
-0.0053200005 0.034199998 0.79800004 8086604
-0.0038000003 0.034199998 0.79800004 11047289
-0.10324286 0.03594381 0.80300003 10722682
-0.10171334 0.03594381 0.80300003 10854268
-0.10018381 0.03594381 0.80300003 7701881
-0.098531432 0.035899047 0.80200005 3754301
-0.09700381 0.035899047 0.80200005 7636615
-0.095595248 0.03594381 0.80300003 9347233
-0.094065718 0.03594381 0.80300003 9014123
-0.092536189 0.03594381 0.80300003 10593155
-0.091006674 0.03594381 0.80300003 10464330
-0.089477144 0.03594381 0.80300003 7832610
-0.087947622 0.03594381 0.80300003 7180416
-0.08663334 0.036033336 0.80500007 7114623
-0.08488857 0.03594381 0.80300003 5928834
-0.083359048 0.03594381 0.80300003 7573659
-0.081829526 0.03594381 0.80300003 7178362
-0.080300003 0.03594381 0.80300003 3099196
-0.078770474 0.03594381 0.80300003 3567229
-0.077240959 0.03594381 0.80300003 3238264
-0.075711429 0.03594381 0.80300003 4877186
-0.074181907 0.03594381 0.80300003 8758973
-0.072652385 0.03594381 0.80300003 12041320
-0.071122855 0.03594381 0.80300003 14146696
-0.06959334 0.03594381 0.80300003 13424190
-0.067979053 0.035899047 0.80200005 12700467
-0.06645143 0.035899047 0.80200005 11320911
-0.064923815 0.035899047 0.80200005 10860360
-0.063238099 0.035809524 0.80000001 10595519
-0.061560001 0.035720002 0.79800004 10529726
-0.060040005 0.035720002 0.79800004 11845075
-0.058373336 0.035630479 0.79600006 12108247
-0.056857146 0.035630479 0.79600006 12503019
-0.055340957 0.035630479 0.79600006 12568812
-0.053824764 0.035630479 0.79600006 12503551
-0.052308574 0.035630479 0.79600006 12437759
-0.050664764 0.035540953 0.79400003 12438271
-0.049152382 0.035540953 0.79400003 12504063
-0.047760002 0.035630479 0.79600006 12832511
-0.046243813 0.035630479 0.79600006 12240379
-0.044727623 0.035630479 0.79600006 12238832
-0.043211434 0.035630479 0.79600006 9343940
-0.041695241 0.035630479 0.79600006 8155027
-0.040179051 0.035630479 0.79600006 6707581
-0.038760003 0.035720002 0.79800004 7953191
-0.037333332 0.035809524 0.80000001 10124360
-0.035809524 0.035809524 0.80000001 10387603
-0.034285713 0.035809524 0.80000001 9795466
-0.032761905 0.035809524 0.80000001 9795915
-0.031238094 0.035809524 0.80000001 10453845
-0.029714286 0.035809524 0.80000001 9595734
-0.028190477 0.035809524 0.80000001 9200976
-0.026666667 0.035809524 0.80000001 9398389
-0.025142856 0.035809524 0.80000001 10056319
-0.023619048 0.035809524 0.80000001 9860714
-0.022095239 0.035809524 0.80000001 9860714
-0.020571429 0.035809524 0.80000001 9530475
-0.019047618 0.035809524 0.80000001 9596268
-0.017523808 0.035809524 0.80000001 9399641
