# .PCD v0.7 - Point Cloud Data file format
VERSION 0.7
FIELDS x y z rgba
SIZE 4 4 4 4
TYPE F F F U
COUNT 1 1 1 1
WIDTH 1085
HEIGHT 1
VIEWPOINT 0 0 0 1 0 0 0
POINTS 1085
DATA ascii
-0.043085717 0.041760001 0.69600004 16448763
-0.041760001 0.041760001 0.69600004 16383227
-0.040434286 0.041760001 0.69600004 16383227
-0.039108574 0.041760001 0.69600004 16448763
-0.037782859 0.041760001 0.69600004 16448763
-0.036457144 0.041760001 0.69600004 16448763
-0.035131428 0.041760001 0.69600004 16448763
-0.033805717 0.041760001 0.69600004 16514043
-0.032526664 0.041820001 0.69700003 16514043
-0.031154288 0.041760001 0.69600004 16579836
-0.029828573 0.041760001 0.69600004 16514043
-0.028502857 0.041760001 0.69600004 16514043
-0.027177144 0.041760001 0.69600004 16711422
-0.025888572 0.041820001 0.69700003 16646142
-0.024560954 0.041820001 0.69700003 13882836
-0.024066668 0.043320004 0.72200006 6200063
-0.022628572 0.043200001 0.72000003 4950010
-0.021227621 0.043140002 0.71900004 4690943
-0.019802855 0.043020003 0.71700001 4822527
-0.018437143 0.043020003 0.71700001 5083647
-0.017047618 0.042960003 0.71600002 5281023
-0.015683809 0.042960003 0.71600002 4754687
-0.01432 0.042960003 0.71600002 4688895
-0.012956191 0.042960003 0.71600002 5147903
-0.011592381 0.042960003 0.71600002 6003199
-0.010228572 0.042960003 0.71600002 6329855
-0.0089019043 0.043140002 0.71900004 6329855
-0.0075323815 0.043140002 0.71900004 6591999
-0.0061457143 0.043020003 0.71700001 6723583
-0.0047800001 0.043020003 0.71700001 6789119
-0.0034142856 0.043020003 0.71700001 6789119
-0.0020485714 0.043020003 0.71700001 7182591
-0.00068285712 0.043020003 0.71700001 8169471
0.00068190478 0.042960003 0.71600002 8627711
0.0020457143 0.042960003 0.71600002 8232959
0.003409524 0.042960003 0.71600002 9349631
0.0047733332 0.042960003 0.71600002 11520767
0.0061371429 0.042960003 0.71600002 13948415
0.0074800006 0.04284 0.71400005 13290489
0.0088400003 0.04284 0.71400005 11773909
-0.089080006 0.044200003 0.71400005 8163490
-0.087719999 0.044200003 0.71400005 5334391
-0.086360008 0.044200003 0.71400005 2456063
-0.085000008 0.044200003 0.71400005 3245567
-0.083640002 0.044200003 0.71400005 3900159
-0.082280003 0.044200003 0.71400005 4097535
-0.081146665 0.044323809 0.71600002 4753663
-0.079782858 0.044323809 0.71600002 4819455
-0.078419052 0.044323809 0.71600002 5147391
-0.077055238 0.044323809 0.71600002 5344767
-0.075797141 0.044385713 0.71700001 5738495
-0.074431427 0.044385713 0.71700001 5804287
-0.073065713 0.044385713 0.71700001 6066943
-0.071699999 0.044385713 0.71700001 6066943
-0.070334285 0.044385713 0.71700001 5936127
-0.068872385 0.044323809 0.71600002 6001919
-0.067508571 0.044323809 0.71600002 5936127
-0.066144764 0.044323809 0.71600002 5870335
-0.064780958 0.044323809 0.71600002 5804799
-0.063417144 0.044323809 0.71600002 5739007
-0.06205333 0.044323809 0.71600002 5411071
-0.060520004 0.044200003 0.71400005 5279487
-0.059160002 0.044200003 0.71400005 4755199
-0.057800002 0.044200003 0.71400005 2452459
-0.056598097 0.044323809 0.71600002 6196991
-0.053845715 0.043209527 0.69800001 13499903
-0.052440956 0.04314762 0.69700003 16646142
-0.051113334 0.04314762 0.69700003 16646142
-0.04971429 0.043085717 0.69600004 16448763
-0.04824952 0.042961907 0.69400001 16448763
-0.04692762 0.042961907 0.69400001 16448763
-0.045605715 0.042961907 0.69400001 16448763
-0.044283811 0.042961907 0.69400001 16448763
-0.0429 0.0429 0.69300002 16448763
-0.041579999 0.0429 0.69300002 16448763
-0.040260002 0.0429 0.69300002 16382970
-0.03899619 0.042961907 0.69400001 16448763
-0.037674285 0.042961907 0.69400001 16448763
-0.036352381 0.042961907 0.69400001 16448763
-0.035030477 0.042961907 0.69400001 16448763
-0.033805717 0.043085717 0.69600004 16514043
-0.032480001 0.043085717 0.69600004 16514043
-0.031154288 0.043085717 0.69600004 16514043
-0.029828573 0.043085717 0.69600004 16514043
-0.028502857 0.043085717 0.69600004 16579836
-0.027177144 0.043085717 0.69600004 16711422
-0.025888572 0.04314762 0.69700003 16646142
-0.024560954 0.04314762 0.69700003 13817043
-0.024 0.044571429 0.72000003 9877759
-0.022597143 0.044509526 0.71900004 9219838
-0.021168573 0.044385713 0.71700001 9024255
-0.019775238 0.044323809 0.71600002 8497919
-0.01841143 0.044323809 0.71600002 7907327
-0.017047618 0.044323809 0.71600002 7446783
-0.015683809 0.044323809 0.71600002 6460671
-0.01432 0.044323809 0.71600002 6263295
-0.012920001 0.044200003 0.71400005 6526207
-0.01156 0.044200003 0.71400005 7052543
-0.010200001 0.044200003 0.71400005 7708415
-0.0088647623 0.044323809 0.71600002 7774207
-0.0075009526 0.044323809 0.71600002 8364543
-0.0061371429 0.044323809 0.71600002 8430335
-0.0047733332 0.044323809 0.71600002 8430335
-0.003409524 0.044323809 0.71600002 8693503
-0.0020457143 0.044323809 0.71600002 9809407
-0.00068190478 0.044323809 0.71600002 10269951
0.00068190478 0.044323809 0.71600002 10859263
0.0020400002 0.044200003 0.71400005 10793471
0.0034 0.044200003 0.71400005 11713022
0.0047599999 0.044200003 0.71400005 14344703
0.0061200005 0.044200003 0.71400005 16185087
0.0074695242 0.0441381 0.71300006 14408676
0.0088276202 0.0441381 0.71300006 11577581
-0.090440005 0.045560002 0.71400005 11642533
-0.088955246 0.045496192 0.71300006 8163756
-0.087597147 0.045496192 0.71300006 5992587
-0.086239055 0.045496192 0.71300006 4162559
-0.084880956 0.045496192 0.71300006 4425727
-0.083522864 0.045496192 0.71300006 4491519
-0.082164772 0.045496192 0.71300006 4754687
-0.080806673 0.045496192 0.71300006 5607423
-0.079448573 0.045496192 0.71300006 5936383
-0.078200005 0.045560002 0.71400005 5936127
-0.076840006 0.045560002 0.71400005 6067711
-0.075691432 0.04568762 0.71600002 6329855
-0.074327618 0.04568762 0.71600002 6921983
-0.072963811 0.04568762 0.71600002 6855679
-0.071599998 0.04568762 0.71600002 6658303
-0.070236191 0.04568762 0.71600002 6396159
-0.068872385 0.04568762 0.71600002 7317247
-0.067320004 0.045560002 0.71400005 8103935
-0.065960005 0.045560002 0.71400005 7972351
-0.064599998 0.045560002 0.71400005 7906815
-0.063240007 0.045560002 0.71400005 7906815
-0.061880007 0.045560002 0.71400005 7579135
-0.060520004 0.045560002 0.71400005 7118591
-0.059077147 0.045496192 0.71300006 6002431
-0.057557143 0.045368571 0.71100003 3502310
-0.056202859 0.045368571 0.71100003 6918655
-0.053768571 0.044475239 0.69700003 13958399
-0.05236572 0.044411432 0.69600004 16646142
-0.051040001 0.044411432 0.69600004 16646142
-0.049571428 0.044283811 0.69400001 16514043
-0.048179999 0.044220001 0.69300002 16514043
-0.046860002 0.044220001 0.69300002 16448763
-0.045540001 0.044220001 0.69300002 16448763
-0.044220001 0.044220001 0.69300002 16448763
-0.0429 0.044220001 0.69300002 16448763
-0.041579999 0.044220001 0.69300002 16448763
-0.040260002 0.044220001 0.69300002 16448763
-0.038940001 0.044220001 0.69300002 16448763
-0.037620001 0.044220001 0.69300002 16448763
-0.0363 0.044220001 0.69300002 16514043
-0.034979999 0.044220001 0.69300002 16514043
-0.033708572 0.044283811 0.69400001 16514043
-0.032386668 0.044283811 0.69400001 16514043
-0.031154288 0.044411432 0.69600004 16579836
-0.029742856 0.044283811 0.69400001 16514043
-0.028420953 0.044283811 0.69400001 16514043
-0.027099047 0.044283811 0.69400001 16711422
-0.025851429 0.044411432 0.69600004 16646142
-0.024560954 0.044475239 0.69700003 14146008
-0.023266668 0.044539049 0.69800001 12569594
-0.022534285 0.04575143 0.71700001 14411775
-0.021139048 0.04568762 0.71600002 14279423
-0.019720001 0.045560002 0.71400005 13753081
-0.018360002 0.045560002 0.71400005 13491967
-0.017000001 0.045560002 0.71400005 12373489
-0.01564 0.045560002 0.71400005 10862591
-0.014280002 0.045560002 0.71400005 10007289
-0.012901906 0.045496192 0.71300006 10467327
-0.01154381 0.045496192 0.71300006 11454207
-0.010185715 0.045496192 0.71300006 12044031
-0.0088400003 0.045560002 0.71400005 11912447
-0.0074695242 0.045496192 0.71300006 12109567
-0.0061114291 0.045496192 0.71300006 12833279
-0.0047533335 0.045496192 0.71300006 13424126
-0.0033952384 0.045496192 0.71300006 13555711
-0.0020371431 0.045496192 0.71300006 14081015
-0.00067904766 0.045496192 0.71300006 14607359
0.00067904766 0.045496192 0.71300006 15527416
0.0020314287 0.045368571 0.71100003 15987967
0.0033857143 0.045368571 0.71100003 16119033
0.0047333334 0.045304764 0.71000004 16447998
0.0060857143 0.045304764 0.71000004 16513791
0.0074485713 0.045368571 0.71100003 14079450
0.0088276202 0.045496192 0.71300006 11643381
-0.090440005 0.046920002 0.71400005 11445152
-0.088705719 0.046722859 0.71100003 7571897
-0.087351426 0.046722859 0.71100003 6321830
-0.085997149 0.046722859 0.71100003 4425471
-0.084523819 0.046657145 0.71000004 4491263
-0.083171427 0.046657145 0.71000004 4622847
-0.08181905 0.046657145 0.71000004 4688639
-0.080580004 0.046722859 0.71100003 5344767
-0.079225719 0.046722859 0.71100003 5476351
-0.078090489 0.046854287 0.71300006 5870591
-0.07673239 0.046854287 0.71300006 5936383
-0.07537429 0.046854287 0.71300006 6264063
-0.074016191 0.046854287 0.71300006 6724607
-0.072760001 0.046920002 0.71400005 6855679
-0.071400002 0.046920002 0.71400005 6592511
-0.07004001 0.046920002 0.71400005 6068223
-0.068680003 0.046920002 0.71400005 6791935
-0.067225717 0.046854287 0.71300006 7841023
-0.065867618 0.046854287 0.71300006 8038399
-0.064509533 0.046854287 0.71300006 8432127
-0.063151434 0.046854287 0.71300006 8103167
-0.061793335 0.046854287 0.71300006 7906815
-0.060435243 0.046854287 0.71300006 7380479
-0.058911432 0.046722859 0.71100003 6789887
-0.057557143 0.046722859 0.71100003 4816110
-0.056202859 0.046722859 0.71100003 7704831
-0.053691432 0.045737144 0.69600004 14481407
-0.052140001 0.045540001 0.69300002 16580606
-0.05082 0.045540001 0.69300002 16580606
-0.049500003 0.045540001 0.69300002 16514043
-0.048179999 0.045540001 0.69300002 16514043
-0.046860002 0.045540001 0.69300002 16448763
-0.045540001 0.045540001 0.69300002 16448763
-0.044220001 0.045540001 0.69300002 16448763
-0.0429 0.045540001 0.69300002 16448763
-0.04146 0.045408577 0.69100004 16448763
-0.04014381 0.045408577 0.69100004 16448763
-0.038940001 0.045540001 0.69300002 16514043
-0.037620001 0.045540001 0.69300002 16514043
-0.0363 0.045540001 0.69300002 16514043
-0.034979999 0.045540001 0.69300002 16514043
-0.033660002 0.045540001 0.69300002 16514043
-0.032386668 0.045605715 0.69400001 16514043
-0.031064762 0.045605715 0.69400001 16514043
-0.029742856 0.045605715 0.69400001 16579836
-0.028420953 0.045605715 0.69400001 16579836
-0.027099047 0.045605715 0.69400001 16711422
-0.025851429 0.045737144 0.69600004 16711422
-0.024525715 0.045737144 0.69600004 13355979
-0.023266668 0.045868572 0.69800001 13224948
-0.022440001 0.046920002 0.71400005 15461887
-0.02108 0.046920002 0.71400005 15329535
-0.019692382 0.046854287 0.71300006 14211054
-0.018334286 0.046854287 0.71300006 13884671
-0.016976191 0.046854287 0.71300006 13160949
-0.015618097 0.046854287 0.71300006 11583231
-0.01422 0.046722859 0.71100003 11254271
-0.012865715 0.046722859 0.71100003 11385599
-0.011511429 0.046722859 0.71100003 12240895
-0.010157143 0.046722859 0.71100003 12569087
-0.0088028572 0.046722859 0.71100003 12371711
-0.0074485713 0.046722859 0.71100003 12633855
-0.0060942858 0.046722859 0.71100003 13686527
-0.0047400002 0.046722859 0.71100003 13949693
-0.0033857143 0.046722859 0.71100003 14212863
-0.0020314287 0.046722859 0.71100003 14606323
-0.00067619048 0.046657145 0.71000004 15659007
0.00067619048 0.046657145 0.71000004 16315901
0.0020285714 0.046657145 0.71000004 16776447
0.0033714285 0.046525717 0.708 16711422
0.0047133337 0.046459999 0.70700002 16711422
0.00606 0.046459999 0.70700002 16185339
0.0074380958 0.046657145 0.71000004 14343135
-0.090440005 0.048280004 0.71400005 11313055
-0.088580951 0.048009526 0.71000004 7440320
-0.087228574 0.048009526 0.71000004 6190253
-0.085634284 0.047874287 0.708 4294655
-0.084285714 0.047874287 0.708 4163071
-0.082937144 0.047874287 0.708 4229375
-0.081588566 0.047874287 0.708 4229375
-0.080466673 0.048009526 0.71000004 4885247
-0.079114296 0.048009526 0.71000004 4885247
-0.077761903 0.048009526 0.71000004 5148671
-0.076409526 0.048009526 0.71000004 5543423
-0.075057149 0.048009526 0.71000004 5870591
-0.073808573 0.048077144 0.71100003 5870591
-0.072454289 0.048077144 0.71100003 5870591
-0.071100004 0.048077144 0.71100003 5870591
-0.069941908 0.048212387 0.71300006 6396159
-0.068583816 0.048212387 0.71300006 7119871
-0.067225717 0.048212387 0.71300006 7513343
-0.065867618 0.048212387 0.71300006 7513343
-0.064328574 0.048077144 0.71100003 7447551
-0.062974289 0.048077144 0.71100003 7315967
-0.061793335 0.048212387 0.71300006 7184639
-0.060435243 0.048212387 0.71300006 6789887
-0.058911432 0.048077144 0.71100003 6724607
-0.057557143 0.048077144 0.71100003 4619244
-0.056202859 0.048077144 0.71100003 5799925
-0.053460002 0.046860002 0.69300002 11852799
-0.052140001 0.046860002 0.69300002 16646142
-0.05082 0.046860002 0.69300002 16646142
-0.049500003 0.046860002 0.69300002 16645629
-0.048040956 0.046724766 0.69100004 16579836
-0.046724766 0.046724766 0.69100004 16514043
-0.045408577 0.046724766 0.69100004 16514043
-0.044092383 0.046724766 0.69100004 16514043
-0.042776193 0.046724766 0.69100004 16514043
-0.04146 0.046724766 0.69100004 16514043
-0.04014381 0.046724766 0.69100004 16514043
-0.03882762 0.046724766 0.69100004 16514043
-0.037511431 0.046724766 0.69100004 16514043
-0.036195237 0.046724766 0.69100004 16514043
-0.034879047 0.046724766 0.69100004 16579836
-0.033562858 0.046724766 0.69100004 16579836
-0.032246668 0.046724766 0.69100004 16579836
-0.031019999 0.046860002 0.69300002 16579836
-0.029700002 0.046860002 0.69300002 16579836
-0.028380001 0.046860002 0.69300002 16579836
-0.02706 0.046860002 0.69300002 16711422
-0.025777142 0.04692762 0.69400001 16383229
-0.024455238 0.04692762 0.69400001 12633028
-0.0232 0.047062859 0.69600004 13027826
-0.021874286 0.047062859 0.69600004 15330559
-0.020961907 0.048009526 0.71000004 14343928
-0.019637143 0.048077144 0.71100003 10856899
-0.018282857 0.048077144 0.71100003 10006783
-0.016904762 0.048009526 0.71000004 11783167
-0.015552383 0.048009526 0.71000004 12963839
-0.014200001 0.048009526 0.71000004 12898047
-0.01284762 0.048009526 0.71000004 13357565
-0.011495238 0.048009526 0.71000004 14015487
-0.010142857 0.048009526 0.71000004 13949433
-0.0087904762 0.048009526 0.71000004 13752054
-0.0074380958 0.048009526 0.71000004 13751801
-0.0060857143 0.048009526 0.71000004 14212351
-0.0047333334 0.048009526 0.71000004 14935540
-0.0033714285 0.047874287 0.708 15264505
-0.0020228571 0.047874287 0.708 15592691
-0.00067428569 0.047874287 0.708 15592691
0.00067333336 0.047806669 0.70700002 15920886
0.00202 0.047806669 0.70700002 16776447
0.0033666666 0.047806669 0.70700002 16711422
0.0047133337 0.047806669 0.70700002 16711422
0.00606 0.047806669 0.70700002 16711422
0.0074171429 0.047874287 0.708 14869218
-0.088580951 0.049361907 0.71000004 7111873
-0.086982854 0.049222857 0.708 6190771
-0.085634284 0.049222857 0.708 4425983
-0.084166668 0.049153332 0.70700002 4228607
-0.082819998 0.049153332 0.70700002 4294655
-0.081473336 0.049153332 0.70700002 4426239
-0.080239996 0.049222857 0.708 4951039
-0.078891426 0.049222857 0.708 4951039
-0.077542856 0.049222857 0.708 4754687
-0.076409526 0.049361907 0.71000004 5149439
-0.075057149 0.049361907 0.71000004 5608703
-0.073704764 0.049361907 0.71000004 5608703
-0.07235238 0.049361907 0.71000004 5608703
-0.071000002 0.049361907 0.71000004 5608703
-0.069745712 0.049431432 0.71100003 6658815
-0.068391435 0.049431432 0.71100003 7382527
-0.066942856 0.049361907 0.71000004 7579647
-0.065590478 0.049361907 0.71000004 7448063
-0.064238101 0.049361907 0.71000004 7185663
-0.062885717 0.049361907 0.71000004 7119871
-0.061533332 0.049361907 0.71000004 6790399
-0.060180955 0.049361907 0.71000004 6790399
-0.058662858 0.049222857 0.708 7314687
-0.057314284 0.049222857 0.708 5669876
-0.055965714 0.049222857 0.708 5405682
-0.053460002 0.048179999 0.69300002 11129599
-0.052140001 0.048179999 0.69300002 15002619
-0.050673336 0.048040956 0.69100004 16252671
-0.049357146 0.048040956 0.69100004 16711422
-0.048040956 0.048040956 0.69100004 16711422
-0.046724766 0.048040956 0.69100004 16579836
-0.045408577 0.048040956 0.69100004 16448250
-0.044092383 0.048040956 0.69100004 16514043
-0.042776193 0.048040956 0.69100004 16514043
-0.04146 0.048040956 0.69100004 16514043
-0.040085718 0.047971431 0.69000006 16514043
-0.038771432 0.047971431 0.69000006 16514043
-0.037457146 0.047971431 0.69000006 16514043
-0.036195237 0.048040956 0.69100004 16579836
-0.034828573 0.047971431 0.69000006 16579836
-0.033514287 0.047971431 0.69000006 16579836
-0.032200001 0.047971431 0.69000006 16579836
-0.030930476 0.048040956 0.69100004 16579836
-0.029614286 0.048040956 0.69100004 16711422
-0.028298097 0.048040956 0.69100004 16579836
-0.026981905 0.048040956 0.69100004 16645629
-0.025739999 0.048179999 0.69300002 15661562
-0.024455238 0.04824952 0.69400001 12700877
-0.023133334 0.04824952 0.69400001 13818356
-0.021874286 0.048388574 0.69600004 15068415
-0.020784764 0.048944768 0.70400006 14081789
-0.019499049 0.04908381 0.70600003 10265795
-0.018205713 0.049222857 0.708 8562431
-0.016857143 0.049222857 0.708 10667775
-0.015508572 0.049222857 0.708 13817855
-0.01416 0.049222857 0.708 13686271
-0.012811428 0.049222857 0.708 13883135
-0.011462857 0.049222857 0.708 14343679
-0.010114285 0.049222857 0.708 14212092
-0.0087657142 0.049222857 0.708 14014713
-0.0074171429 0.049222857 0.708 14014713
-0.0060685715 0.049222857 0.708 14606847
-0.0047133337 0.049153332 0.70700002 15198199
-0.0033666666 0.049153332 0.70700002 15856127
-0.00202 0.049153332 0.70700002 16053242
-0.00067333336 0.049153332 0.70700002 15790070
0.00067238096 0.04908381 0.70600003 15987190
0.0020171429 0.04908381 0.70600003 16776703
0.003361905 0.04908381 0.70600003 16711422
0.0047066668 0.04908381 0.70600003 16711422
0.0060342862 0.048944768 0.70400006 16711422
0.0073752385 0.048944768 0.70400006 15461355
0.0087161912 0.048944768 0.70400006 12237308
-0.089933343 0.050714288 0.71000004 10195337
-0.088331431 0.050571427 0.708 6784709
-0.086982854 0.050571427 0.708 6324158
-0.085634284 0.050571427 0.708 5411583
-0.084166668 0.050500002 0.70700002 5148415
-0.082819998 0.050500002 0.70700002 5017855
-0.081473336 0.050500002 0.70700002 5149439
-0.080126666 0.050500002 0.70700002 5148671
-0.078780003 0.050500002 0.70700002 4951295
-0.077542856 0.050571427 0.708 4624127
-0.076194286 0.050571427 0.708 4887295
-0.074845709 0.050571427 0.708 5674495
-0.073497139 0.050571427 0.708 5608703
-0.072148569 0.050571427 0.708 5346303
-0.070800006 0.050571427 0.708 5412095
-0.069451429 0.050571427 0.708 5937407
-0.068102859 0.050571427 0.708 6200575
-0.066754289 0.050571427 0.708 6857215
-0.065405719 0.050571427 0.708 7120383
-0.064057142 0.050571427 0.708 6923775
-0.062708572 0.050571427 0.708 6792191
-0.061360002 0.050571427 0.708 6594559
-0.060011428 0.050571427 0.708 6594559
-0.058580004 0.050500002 0.70700002 6659327
-0.057233334 0.050500002 0.70700002 4685550
-0.05485905 0.049571428 0.69400001 4749819
-0.053460002 0.049500003 0.69300002 9289471
-0.051989529 0.049357146 0.69100004 14213112
-0.050673336 0.049357146 0.69100004 16055295
-0.049357146 0.049357146 0.69100004 16711422
-0.047971431 0.049285717 0.69000006 16711422
-0.046657149 0.049285717 0.69000006 16579836
-0.045342863 0.049285717 0.69000006 16579836
-0.044028573 0.049285717 0.69000006 16579836
-0.042714287 0.049285717 0.69000006 16579836
-0.041400004 0.049285717 0.69000006 16579836
-0.040085718 0.049285717 0.69000006 16579836
-0.038771432 0.049285717 0.69000006 16579836
-0.037457146 0.049285717 0.69000006 16579836
-0.03614286 0.049285717 0.69000006 16579836
-0.034727618 0.04914286 0.68800002 16514043
-0.033417143 0.04914286 0.68800002 16514043
-0.032200001 0.049285717 0.69000006 16514043
-0.030885719 0.049285717 0.69000006 16514043
-0.029571431 0.049285717 0.69000006 16711422
-0.028298097 0.049357146 0.69100004 16449020
-0.026981905 0.049357146 0.69100004 16317434
-0.025665715 0.049357146 0.69100004 15530235
-0.024455238 0.049571428 0.69400001 12701136
-0.023133334 0.049571428 0.69400001 12570877
-0.021905715 0.049785715 0.69700003 13031423
-0.020784764 0.050285716 0.70400006 12768511
-0.019499049 0.050428573 0.70600003 11123690
-0.018154286 0.050428573 0.70600003 9614847
-0.016809525 0.050428573 0.70600003 9878015
-0.015464762 0.050428573 0.70600003 12110335
-0.01414 0.050500002 0.70700002 12110335
-0.012793333 0.050500002 0.70700002 12306431
-0.011446667 0.050500002 0.70700002 12438015
-0.010100001 0.050500002 0.70700002 12832255
-0.0087533332 0.050500002 0.70700002 12700669
-0.0074066669 0.050500002 0.70700002 13686521
-0.00606 0.050500002 0.70700002 14673407
-0.0047133337 0.050500002 0.70700002 15395321
-0.003361905 0.050428573 0.70600003 15921663
-0.0020171429 0.050428573 0.70600003 15921656
-0.00067238096 0.050428573 0.70600003 15790070
0.00067047623 0.050285716 0.70400006 15987447
0.0020114288 0.050285716 0.70400006 16053240
0.0033523811 0.050285716 0.70400006 16711422
0.0046933335 0.050285716 0.70400006 16711422
0.0060257143 0.050214287 0.70300001 16711422
0.007364762 0.050214287 0.70300001 15329769
0.0087038092 0.050214287 0.70300001 12632575
-0.089933343 0.052066669 0.71000004 9801099
-0.088206671 0.051846668 0.70700002 6522825
-0.086860001 0.051846668 0.70700002 6193860
-0.085513331 0.051846668 0.70700002 4952319
-0.084047616 0.051773336 0.70600003 4689151
-0.08270286 0.051773336 0.70600003 4624639
-0.081358097 0.051773336 0.70600003 4756223
-0.080013335 0.051773336 0.70600003 4755711
-0.078668572 0.051773336 0.70600003 4689919
-0.077323809 0.051773336 0.70600003 4427519
-0.075979047 0.051773336 0.70600003 4756479
-0.074634291 0.051773336 0.70600003 5084671
-0.073393337 0.051846668 0.70700002 5084671
-0.072046667 0.051846668 0.70700002 5084159
-0.070600003 0.051773336 0.70600003 5281535
-0.06925524 0.051773336 0.70600003 5216255
-0.067910478 0.051773336 0.70600003 5150463
-0.066565715 0.051773336 0.70600003 5742079
-0.065220952 0.051773336 0.70600003 6531583
-0.063966669 0.051846668 0.70700002 6858495
-0.062531434 0.051773336 0.70600003 6661119
-0.061186668 0.051773336 0.70600003 6332671
-0.059926666 0.051846668 0.70700002 6332671
-0.058248568 0.051553335 0.70300001 6988031
-0.056423813 0.051113334 0.69700003 5409012
-0.05485905 0.050893333 0.69400001 5536764
-0.053460002 0.05082 0.69300002 9813247
-0.051989529 0.050673336 0.69100004 11979775
-0.050600003 0.050600003 0.69000006 14414079
-0.049285717 0.050600003 0.69000006 16055293
-0.047971431 0.050600003 0.69000006 16383999
-0.046454288 0.050380003 0.68700004 16711422
-0.045145717 0.050380003 0.68700004 16711422
-0.043837145 0.050380003 0.68700004 16645629
-0.042528573 0.050380003 0.68700004 16579836
-0.041280001 0.050453335 0.68800002 16579836
-0.03991143 0.050380003 0.68700004 16579836
-0.038602859 0.050380003 0.68700004 16514043
-0.037294287 0.050380003 0.68700004 16514043
-0.036038093 0.050453335 0.68800002 16514043
-0.034677144 0.050380003 0.68700004 16514043
-0.033368573 0.050380003 0.68700004 16579836
-0.032060001 0.050380003 0.68700004 16645629
-0.030796193 0.050453335 0.68800002 16645629
-0.029485716 0.050453335 0.68800002 16711422
-0.028257145 0.050600003 0.69000006 16383740
-0.02694286 0.050600003 0.69000006 15923189
-0.025665715 0.050673336 0.69100004 14283002
-0.024455238 0.050893333 0.69400001 12375005
-0.0232 0.051040001 0.69600004 11588095
-0.021905715 0.051113334 0.69700003 10930168
-0.020696191 0.051406667 0.70100003 10470399
-0.019443812 0.051626671 0.70400006 10536191
-0.018102858 0.051626671 0.70400006 10009855
-0.016761906 0.051626671 0.70400006 9812479
-0.015420954 0.051626671 0.70400006 10140159
-0.01412 0.051773336 0.70600003 10074367
-0.012775239 0.051773336 0.70600003 10204415
-0.011430477 0.051773336 0.70600003 10533375
-0.010085714 0.051773336 0.70600003 10796543
-0.0087409532 0.051773336 0.70600003 10796543
-0.0073961904 0.051773336 0.70600003 12042239
-0.0060514286 0.051773336 0.70600003 13621247
-0.0047066668 0.051773336 0.70600003 14606073
-0.003361905 0.051773336 0.70600003 15263999
-0.0020114288 0.051626671 0.70400006 15263992
-0.00066952378 0.051553335 0.70300001 15263992
0.00066952378 0.051553335 0.70300001 15330037
0.0020114288 0.051626671 0.70400006 15132658
0.0033476192 0.051553335 0.70300001 15723766
0.0046866667 0.051553335 0.70300001 16776447
0.0060257143 0.051553335 0.70300001 16711422
0.007364762 0.051553335 0.70300001 15329769
0.0087038092 0.051553335 0.70300001 12830719
-0.088206671 0.053193334 0.70700002 6260686
-0.086860001 0.053193334 0.70700002 6063307
-0.085513331 0.053193334 0.70700002 4887039
-0.084047616 0.053118095 0.70600003 4558079
-0.082468584 0.052967623 0.70400006 4034047
-0.081127621 0.052967623 0.70400006 4757759
-0.079786673 0.052967623 0.70400006 4953343
-0.078445718 0.052967623 0.70400006 4690175
-0.07710477 0.052967623 0.70400006 4427775
-0.075763814 0.052967623 0.70400006 4625151
-0.074422859 0.052967623 0.70400006 4952831
-0.073289528 0.053118095 0.70600003 4887039
-0.071944758 0.053118095 0.70600003 4756223
-0.070400007 0.052967623 0.70400006 5348351
-0.069059052 0.052967623 0.70400006 5479167
-0.067718096 0.052967623 0.70400006 5544959
-0.066377148 0.052967623 0.70400006 6201855
-0.065036193 0.052967623 0.70400006 7386111
-0.063604765 0.052892383 0.70300001 7581439
-0.062265713 0.052892383 0.70300001 6857727
-0.060926665 0.052892383 0.70300001 5938943
-0.05958762 0.052892383 0.70300001 5938943
-0.057834286 0.052516192 0.69800001 6529279
-0.056423813 0.052440956 0.69700003 4818674
-0.05485905 0.052215237 0.69400001 5735679
-0.053460002 0.052140001 0.69300002 8827903
-0.051989529 0.051989529 0.69100004 11386367
-0.050600003 0.05191429 0.69000006 13294335
-0.049285717 0.05191429 0.69000006 15397883
-0.047762856 0.051688574 0.68700004 15924223
-0.046454288 0.051688574 0.68700004 16448763
-0.045145717 0.051688574 0.68700004 16514556
-0.043837145 0.051688574 0.68700004 16579836
-0.042528573 0.051688574 0.68700004 16579836
-0.041220002 0.051688574 0.68700004 16514043
-0.03991143 0.051688574 0.68700004 16514043
-0.038602859 0.051688574 0.68700004 16514043
-0.037294287 0.051688574 0.68700004 16514043
-0.035985716 0.051688574 0.68700004 16514043
-0.034677144 0.051688574 0.68700004 16514043
-0.033368573 0.051688574 0.68700004 16579836
-0.032060001 0.051688574 0.68700004 16579836
-0.030796193 0.05176381 0.68800002 16448763
-0.029485716 0.05176381 0.68800002 16580349
-0.028257145 0.05191429 0.69000006 16186877
-0.02694286 0.05191429 0.69000006 15463154
-0.025665715 0.051989529 0.69100004 14413562
-0.024525715 0.05236572 0.69600004 12176600
-0.0232 0.05236572 0.69600004 9486335
-0.021937143 0.052516192 0.69800001 8696828
-0.020666666 0.052666668 0.70000005 8894463
-0.019443812 0.052967623 0.70400006 8960255
-0.018077144 0.052892383 0.70300001 8433919
-0.016690478 0.052741908 0.70100003 8368127
-0.015355239 0.052741908 0.70100003 7382015
-0.014020001 0.052741908 0.70100003 6855679
-0.012684762 0.052741908 0.70100003 7578111
-0.011349524 0.052741908 0.70100003 7841279
-0.010014286 0.052741908 0.70100003 7905791
-0.0086790482 0.052741908 0.70100003 7839999
-0.0073438101 0.052741908 0.70100003 8494591
-0.0060257143 0.052892383 0.70300001 9481471
-0.0046866667 0.052892383 0.70300001 10333183
-0.0033476192 0.052892383 0.70300001 11254271
-0.0020085713 0.052892383 0.70300001 11976959
-0.00066761905 0.052741908 0.70100003 12305919
0.00066761905 0.052741908 0.70100003 12569085
0.0020028574 0.052741908 0.70100003 12503292
0.0033380953 0.052741908 0.70100003 13553652
0.004666667 0.052666668 0.70000005 14803711
0.0060000001 0.052666668 0.70000005 15066111
0.0073333341 0.052666668 0.70000005 14671353
0.0086790482 0.052741908 0.70100003 12896511
-0.087707624 0.054231428 0.70300001 6129618
-0.086368576 0.054231428 0.70300001 6195411
-0.084787622 0.054077145 0.70100003 5215743
-0.083452389 0.054077145 0.70100003 4820991
-0.082117148 0.054077145 0.70100003 4427775
-0.081012383 0.054231428 0.70300001 4625151
-0.079673328 0.054231428 0.70300001 4756223
-0.078334287 0.054231428 0.70300001 4756223
-0.076995239 0.054231428 0.70300001 4690431
-0.075656191 0.054231428 0.70300001 4756223
-0.07431715 0.054231428 0.70300001 4690431
-0.073081911 0.054308575 0.70400006 4822015
-0.071740955 0.054308575 0.70400006 4690431
-0.070299998 0.054231428 0.70300001 5282559
-0.068960957 0.054231428 0.70300001 5872895
-0.067621902 0.054231428 0.70300001 5938687
-0.066282853 0.054231428 0.70300001 5940479
-0.064759046 0.054077145 0.70100003 6532607
-0.063423812 0.054077145 0.70100003 6860799
-0.062000006 0.054000005 0.70000005 6466047
-0.060666669 0.054000005 0.70000005 6464767
-0.059163809 0.053845715 0.69800001 6201599
-0.057751432 0.053768571 0.69700003 6267135
-0.056342859 0.053691432 0.69600004 5082875
-0.05485905 0.053537142 0.69400001 6721535
-0.053460002 0.053460002 0.69300002 8826879
-0.051989529 0.053305719 0.69100004 10663167
-0.050600003 0.053228576 0.69000006 13097471
-0.049285717 0.053228576 0.69000006 14018813
-0.047762856 0.052997146 0.68700004 15005695
-0.046454288 0.052997146 0.68700004 15990011
-0.045145717 0.052997146 0.68700004 16055804
-0.043837145 0.052997146 0.68700004 16448763
-0.042528573 0.052997146 0.68700004 16646142
-0.041220002 0.052997146 0.68700004 16579836
-0.03991143 0.052997146 0.68700004 16579836
-0.038602859 0.052997146 0.68700004 16579836
-0.037294287 0.052997146 0.68700004 16579836
-0.035985716 0.052997146 0.68700004 16579836
-0.034677144 0.052997146 0.68700004 16645629
-0.033368573 0.052997146 0.68700004 16579836
-0.032060001 0.052997146 0.68700004 16579836
-0.030751429 0.052997146 0.68700004 16252154
-0.029485716 0.053074285 0.68800002 16252154
-0.028175239 0.053074285 0.68800002 16121597
-0.026864761 0.053074285 0.68800002 14871530
-0.025665715 0.053305719 0.69100004 13427709
-0.024525715 0.053691432 0.69600004 11190747
-0.0232 0.053691432 0.69600004 9682431
-0.021905715 0.053768571 0.69700003 8498164
-0.020607619 0.053845715 0.69800001 7844607
-0.019333335 0.054000005 0.70000005 7713023
-0.018000001 0.054000005 0.70000005 7646975
-0.016666668 0.054000005 0.70000005 7252223
-0.015355239 0.054077145 0.70100003 6726911
-0.014020001 0.054077145 0.70100003 6332159
-0.012666668 0.054000005 0.70000005 6332671
-0.011333333 0.054000005 0.70000005 6201087
-0.010000001 0.054000005 0.70000005 6200063
-0.0086666672 0.054000005 0.70000005 6265855
-0.0073333341 0.054000005 0.70000005 6527487
-0.0060085719 0.054077145 0.70100003 7119615
-0.0046733334 0.054077145 0.70100003 8628735
-0.0033380953 0.054077145 0.70100003 8628735
-0.0020000001 0.054000005 0.70000005 9942271
-0.00066666672 0.054000005 0.70000005 10008063
0.00066666672 0.054000005 0.70000005 10598911
0.0020000001 0.054000005 0.70000005 10401535
0.0033333334 0.054000005 0.70000005 10925567
0.004666667 0.054000005 0.70000005 11649279
0.0060000001 0.054000005 0.70000005 13619963
0.0073333341 0.054000005 0.70000005 14014719
0.0086666672 0.054000005 0.70000005 11910655
-0.087333336 0.055333335 0.70000005 5801439
-0.086000003 0.055333335 0.70000005 6261990
-0.084424764 0.055175241 0.69800001 5740543
-0.083095238 0.055175241 0.69800001 5345791
-0.081765719 0.055175241 0.69800001 4690431
-0.080666669 0.055333335 0.70000005 4624639
-0.079446673 0.055412382 0.70100003 4690431
-0.078111432 0.055412382 0.70100003 4690431
-0.076776192 0.055412382 0.70100003 4559103
-0.075440958 0.055412382 0.70100003 4559103
-0.074105717 0.055412382 0.70100003 4559615
-0.072978094 0.055570476 0.70300001 4756991
-0.071639046 0.055570476 0.70300001 4887807
-0.070299998 0.055570476 0.70300001 5150975
-0.068764761 0.055412382 0.70100003 5347839
-0.067429528 0.055412382 0.70100003 5479423
-0.066094287 0.055412382 0.70100003 5021695
-0.064759046 0.055412382 0.70100003 5942783
-0.06333334 0.055333335 0.70000005 6992383
-0.062000006 0.055333335 0.70000005 7189759
-0.060493335 0.055175241 0.69800001 6926079
-0.059163809 0.055175241 0.69800001 6728703
-0.057751432 0.05509619 0.69700003 6925567
-0.056342859 0.055017143 0.69600004 6267647
-0.05485905 0.05485905 0.69400001 7052543
-0.053460002 0.054779999 0.69300002 7447295
-0.051989529 0.054621909 0.69100004 8297727
-0.050600003 0.054542862 0.69000006 11587327
-0.049285717 0.054542862 0.69000006 14017791
-0.047832385 0.054384761 0.68800002 14741503
-0.046454288 0.054305717 0.68700004 15727098
-0.045145717 0.054305717 0.68700004 16121855
-0.043837145 0.054305717 0.68700004 16514813
-0.042528573 0.054305717 0.68700004 16449020
-0.041220002 0.054305717 0.68700004 16514043
-0.03991143 0.054305717 0.68700004 16514043
-0.038602859 0.054305717 0.68700004 16579836
-0.037294287 0.054305717 0.68700004 16579836
-0.035985716 0.054305717 0.68700004 16514043
-0.034677144 0.054305717 0.68700004 16579836
-0.033368573 0.054305717 0.68700004 16448763
-0.032060001 0.054305717 0.68700004 16448763
-0.030751429 0.054305717 0.68700004 16055291
-0.029485716 0.054384761 0.68800002 16186877
-0.028175239 0.054384761 0.68800002 15858941
-0.026864761 0.054384761 0.68800002 14148323
-0.025665715 0.054621909 0.69100004 12442879
-0.024525715 0.055017143 0.69600004 10008539
-0.023233334 0.05509619 0.69700003 8042495
-0.021905715 0.05509619 0.69700003 7581951
-0.020607619 0.055175241 0.69800001 7255295
-0.019333335 0.055333335 0.70000005 6992127
-0.018000001 0.055333335 0.70000005 6400511
-0.016666668 0.055333335 0.70000005 6400511
-0.015333334 0.055333335 0.70000005 6662399
-0.014 0.055333335 0.70000005 6596607
-0.012666668 0.055333335 0.70000005 6596351
-0.011333333 0.055333335 0.70000005 6398975
-0.010000001 0.055333335 0.70000005 6332671
-0.0086666672 0.055333335 0.70000005 6332671
-0.0073333341 0.055333335 0.70000005 6397439
-0.0060000001 0.055333335 0.70000005 6989567
-0.004666667 0.055333335 0.70000005 7580159
-0.0033333334 0.055333335 0.70000005 8172287
-0.0020000001 0.055333335 0.70000005 9090815
-0.00066476193 0.055175241 0.69800001 8959231
0.00066476193 0.055175241 0.69800001 8958463
0.0019942857 0.055175241 0.69800001 9090047
0.0033238095 0.055175241 0.69800001 9285631
0.0046466668 0.05509619 0.69700003 9154047
0.0059742858 0.05509619 0.69700003 11254015
0.0073123807 0.055175241 0.69800001 12964607
0.0086419052 0.055175241 0.69800001 12239359
0.010014286 0.055412382 0.70100003 6844340
-0.086959057 0.056423813 0.69700003 5604063
-0.08563143 0.056423813 0.69700003 6196200
-0.084303811 0.056423813 0.69700003 5806335
-0.082976192 0.056423813 0.69700003 5477375
-0.081648573 0.056423813 0.69700003 4887551
-0.080436192 0.056504764 0.69800001 4821759
-0.079106666 0.056504764 0.69800001 4625407
-0.07777714 0.056504764 0.69800001 4625407
-0.076666676 0.056666669 0.70000005 4559615
-0.075118095 0.056504764 0.69800001 4691199
-0.073788576 0.056504764 0.69800001 4626687
-0.072770476 0.056747623 0.70100003 4626687
-0.071435243 0.056747623 0.70100003 4758527
-0.070000008 0.056666669 0.70000005 4824319
-0.068470478 0.056504764 0.69800001 4954623
-0.067140952 0.056504764 0.69800001 5151999
-0.066 0.056666669 0.70000005 4758783
-0.064666666 0.056666669 0.70000005 5745663
-0.06315238 0.056504764 0.69800001 6664447
-0.061822858 0.056504764 0.69800001 6796031
-0.060493335 0.056504764 0.69800001 6336255
-0.059163809 0.056504764 0.69800001 6204671
-0.057751432 0.056423813 0.69700003 6401535
-0.056342859 0.056342859 0.69600004 5875199
-0.05485905 0.056180954 0.69400001 6527999
-0.053460002 0.056100003 0.69300002 7054335
-0.052140001 0.056100003 0.69300002 8298751
-0.050673336 0.055938099 0.69100004 11193599
-0.049285717 0.055857148 0.69000006 12178175
-0.047832385 0.055695239 0.68800002 13362431
-0.046454288 0.055614289 0.68700004 14807034
-0.045145717 0.055614289 0.68700004 15530751
-0.043837145 0.055614289 0.68700004 16449279
-0.042528573 0.055614289 0.68700004 16515071
-0.041220002 0.055614289 0.68700004 16383227
-0.03991143 0.055614289 0.68700004 16383227
-0.038602859 0.055614289 0.68700004 16448763
-0.037294287 0.055614289 0.68700004 16514556
-0.035985716 0.055614289 0.68700004 16514556
-0.034677144 0.055614289 0.68700004 16580349
-0.033368573 0.055614289 0.68700004 16252154
-0.032060001 0.055614289 0.68700004 16186361
-0.030751429 0.055614289 0.68700004 15859195
-0.029485716 0.055695239 0.68800002 15727609
-0.028257145 0.055857148 0.69000006 14940412
-0.026981905 0.055938099 0.69100004 13295587
-0.025777142 0.056180954 0.69400001 10867711
-0.024525715 0.056342859 0.69600004 8696549
-0.023233334 0.056423813 0.69700003 6863103
-0.021937143 0.056504764 0.69800001 6599935
-0.020607619 0.056504764 0.69800001 6665727
-0.019278096 0.056504764 0.69800001 6205183
-0.017948572 0.056504764 0.69800001 5810431
-0.016619049 0.056504764 0.69800001 6007807
-0.015289525 0.056504764 0.69800001 6335231
-0.01396 0.056504764 0.69800001 6269439
-0.012630476 0.056504764 0.69800001 6203391
-0.011300952 0.056504764 0.69800001 6071807
-0.0099714287 0.056504764 0.69800001 5874175
-0.0086419052 0.056504764 0.69800001 5874175
-0.0073123807 0.056504764 0.69800001 5217535
-0.0059828572 0.056504764 0.69800001 5809663
-0.0046533332 0.056504764 0.69800001 6333439
-0.0033238095 0.056504764 0.69800001 7386111
-0.0019942857 0.056504764 0.69800001 8501503
-0.00066476193 0.056504764 0.69800001 7843582
0.00066380954 0.056423813 0.69700003 7514879
0.0019914287 0.056423813 0.69700003 7646463
0.0033190476 0.056423813 0.69700003 7448831
0.0046466668 0.056423813 0.69700003 6856703
0.0059742858 0.056423813 0.69700003 9087999
0.0073019052 0.056423813 0.69700003 11982847
0.0086419052 0.056504764 0.69800001 12174847
0.0099714287 0.056504764 0.69800001 6714035
-0.086959057 0.057751432 0.69700003 4883440
-0.08563143 0.057751432 0.69700003 5672956
-0.084303811 0.057751432 0.69700003 5479167
-0.082976192 0.057751432 0.69700003 5018623
-0.081648573 0.057751432 0.69700003 4363775
-0.080436192 0.057834286 0.69800001 4363775
-0.079106666 0.057834286 0.69800001 4166655
-0.07777714 0.057834286 0.69800001 4166655
-0.076447621 0.057834286 0.69800001 4232959
-0.075118095 0.057834286 0.69800001 4693503
-0.073788576 0.057834286 0.69800001 4627711
-0.07245905 0.057834286 0.69800001 4561919
-0.071129531 0.057834286 0.69800001 4825087
-0.069799997 0.057834286 0.69800001 5154047
-0.068470478 0.057834286 0.69800001 4824831
-0.067140952 0.057834286 0.69800001 4824831
-0.065811433 0.057834286 0.69800001 4825087
-0.064481907 0.057834286 0.69800001 5680383
-0.06315238 0.057834286 0.69800001 6402047
-0.061822858 0.057834286 0.69800001 6796799
-0.060406666 0.057751432 0.69700003 6467839
-0.059079047 0.057751432 0.69700003 6204671
-0.057668574 0.057668574 0.69600004 6204927
-0.056342859 0.057668574 0.69600004 6204927
-0.05485905 0.057502858 0.69400001 6663167
-0.053537142 0.057502858 0.69400001 6334207
-0.052140001 0.05742 0.69300002 8366847
-0.050673336 0.057254288 0.69100004 9945855
-0.049357146 0.057254288 0.69100004 11256573
-0.047832385 0.057005715 0.68800002 12506623
-0.046454288 0.05692286 0.68700004 14083577
-0.045145717 0.05692286 0.68700004 14741503
-0.043837145 0.05692286 0.68700004 15727098
-0.042528573 0.05692286 0.68700004 16056063
-0.041220002 0.05692286 0.68700004 16121082
-0.03991143 0.05692286 0.68700004 16186875
-0.038602859 0.05692286 0.68700004 16252154
-0.037294287 0.05692286 0.68700004 16252154
-0.035985716 0.05692286 0.68700004 16121082
-0.034677144 0.05692286 0.68700004 16121082
-0.033368573 0.05692286 0.68700004 16055804
-0.032106668 0.057005715 0.68800002 16121597
-0.030796193 0.057005715 0.68800002 15727868
-0.029571431 0.057171434 0.69000006 14675180
-0.028298097 0.057254288 0.69100004 13495549
-0.026981905 0.057254288 0.69100004 11719138
-0.025777142 0.057502858 0.69400001 9950207
-0.024525715 0.057668574 0.69600004 8108010
-0.023233334 0.057751432 0.69700003 7388927
-0.021905715 0.057751432 0.69700003 6928383
-0.020578096 0.057751432 0.69700003 6534143
-0.019278096 0.057834286 0.69800001 6139391
-0.017948572 0.057834286 0.69800001 5942015
-0.016619049 0.057834286 0.69800001 6007807
-0.015289525 0.057834286 0.69800001 6138623
-0.01396 0.057834286 0.69800001 6204415
-0.012630476 0.057834286 0.69800001 5744383
-0.011284763 0.057751432 0.69700003 5810175
-0.0099571431 0.057751432 0.69700003 5612799
-0.0086295241 0.057751432 0.69700003 5547007
-0.0073019052 0.057751432 0.69700003 5678079
-0.0059742858 0.057751432 0.69700003 5875455
-0.0046466668 0.057751432 0.69700003 6268927
-0.0033190476 0.057751432 0.69700003 6992639
-0.0019914287 0.057751432 0.69700003 7254527
-0.0006628572 0.057668574 0.69600004 6728191
0.0006628572 0.057668574 0.69600004 6269439
0.0019885714 0.057668574 0.69600004 6335231
0.003314286 0.057668574 0.69600004 6530559
0.0046266662 0.057502858 0.69400001 5938431
0.0059485715 0.057502858 0.69400001 10793471
0.0072704758 0.057502858 0.69400001 15135743
0.0085800001 0.05742 0.69300002 14605821
0.0098999999 0.05742 0.69300002 6776454
0.011284763 0.057751432 0.69700003 8159148
-0.086959057 0.059079047 0.69700003 4227048
-0.08563143 0.059079047 0.69700003 5345529
-0.084182858 0.058994289 0.69600004 5086463
-0.082857147 0.058994289 0.69600004 4691711
-0.081531428 0.058994289 0.69600004 4430847
-0.080320954 0.059079047 0.69700003 4299263
-0.078993335 0.059079047 0.69700003 3314687
-0.077665716 0.059079047 0.69700003 3577855
-0.076338097 0.059079047 0.69700003 4036351
-0.075010478 0.059079047 0.69700003 4431103
-0.07368286 0.059079047 0.69700003 4431359
-0.072355241 0.059079047 0.69700003 4365567
-0.071027622 0.059079047 0.69700003 4169215
-0.069700003 0.059079047 0.69700003 4169215
-0.068372384 0.059079047 0.69700003 4168959
-0.067140952 0.059163809 0.69800001 4432127
-0.065811433 0.059163809 0.69800001 4956671
-0.064481907 0.059163809 0.69800001 5351423
-0.063061908 0.059079047 0.69700003 6139391
-0.061734285 0.059079047 0.69700003 6863103
-0.060406666 0.059079047 0.69700003 7059455
-0.058994289 0.058994289 0.69600004 6664703
-0.057668574 0.058994289 0.69600004 6073599
-0.056180954 0.058824759 0.69400001 6073599
-0.05485905 0.058824759 0.69400001 6139391
-0.053537142 0.058824759 0.69400001 5613055
-0.052140001 0.058740001 0.69300002 7843071
-0.050673336 0.058570478 0.69100004 9290495
-0.049357146 0.058570478 0.69100004 10600191
-0.047832385 0.058316194 0.68800002 11916031
-0.046454288 0.058231428 0.68700004 13491198
-0.045145717 0.058231428 0.68700004 14214911
-0.043837145 0.058231428 0.68700004 14479096
-0.042528573 0.058231428 0.68700004 15202815
-0.041220002 0.058231428 0.68700004 15727868
-0.03991143 0.058231428 0.68700004 15859454
-0.038602859 0.058231428 0.68700004 15924475
-0.037294287 0.058231428 0.68700004 15924475
-0.036038093 0.058316194 0.68800002 15793148
-0.034828573 0.058485717 0.69000006 15793148
-0.033514287 0.058485717 0.69000006 15859454
-0.032246668 0.058570478 0.69100004 15727868
-0.030930476 0.058570478 0.69100004 14744062
-0.029614286 0.058570478 0.69100004 13691374
-0.028298097 0.058570478 0.69100004 11264255
-0.026981905 0.058570478 0.69100004 10079985
-0.025777142 0.058824759 0.69400001 7916543
-0.024525715 0.058994289 0.69600004 7061243
-0.0232 0.058994289 0.69600004 7520511
-0.021874286 0.058994289 0.69600004 6862590
-0.020548573 0.058994289 0.69600004 6337023
-0.019250477 0.059079047 0.69700003 6073855
-0.017922858 0.059079047 0.69700003 5942015
-0.016595239 0.059079047 0.69700003 5942015
-0.015267619 0.059079047 0.69700003 5745663
-0.013940001 0.059079047 0.69700003 5679871
-0.012612381 0.059079047 0.69700003 4957183
-0.011284763 0.059079047 0.69700003 5286143
-0.0099571431 0.059079047 0.69700003 5416959
-0.0086295241 0.059079047 0.69700003 5153791
-0.0072914292 0.058994289 0.69600004 5613311
-0.0059657148 0.058994289 0.69600004 6073855
-0.0046399999 0.058994289 0.69600004 6860799
-0.003314286 0.058994289 0.69600004 6926591
-0.0019828572 0.058824759 0.69400001 6664447
-0.00066095236 0.058824759 0.69400001 6203903
0.00066095236 0.058824759 0.69400001 6007295
0.0019828572 0.058824759 0.69400001 5875711
0.0033047618 0.058824759 0.69400001 5546751
0.0046266662 0.058824759 0.69400001 5349375
0.0059400001 0.058740001 0.69300002 12237055
0.0072599999 0.058740001 0.69300002 16052991
0.0085800001 0.058740001 0.69300002 15065599
0.0098999999 0.058740001 0.69300002 6249340
0.011284763 0.059079047 0.69700003 7631514
-0.086834289 0.060320001 0.69600004 3768319
-0.085508578 0.060320001 0.69600004 5018367
-0.084182858 0.060320001 0.69600004 5283583
-0.082857147 0.060320001 0.69600004 4757247
-0.081531428 0.060320001 0.69600004 4561407
-0.080205716 0.060320001 0.69600004 4495615
-0.078880005 0.060320001 0.69600004 3642623
-0.077554293 0.060320001 0.69600004 3905791
-0.076228574 0.060320001 0.69600004 3774719
-0.074687615 0.060146667 0.69400001 4235263
-0.073365718 0.060146667 0.69400001 4432127
-0.072043814 0.060146667 0.69400001 4300543
-0.07092572 0.060320001 0.69600004 4038143
-0.069600001 0.060320001 0.69600004 4038143
-0.068372384 0.060406666 0.69700003 4169215
-0.067044765 0.060406666 0.69700003 4498175
-0.065717146 0.060406666 0.69700003 4432127
-0.064389527 0.060406666 0.69700003 4695295
-0.063061908 0.060406666 0.69700003 6008319
-0.061645716 0.060320001 0.69600004 6995199
-0.060146667 0.060146667 0.69400001 7059967
-0.058824759 0.060146667 0.69400001 6928383
-0.057502858 0.060146667 0.69400001 6534143
-0.056180954 0.060146667 0.69400001 6139391
-0.05485905 0.060146667 0.69400001 5680639
-0.053460002 0.060060002 0.69300002 5943807
-0.052140001 0.060060002 0.69300002 7057919
-0.05082 0.060060002 0.69300002 7255295
-0.049357146 0.059886672 0.69100004 8631039
-0.047832385 0.059626669 0.68800002 10078463
-0.046454288 0.05954 0.68700004 11718911
-0.045145717 0.05954 0.68700004 12837375
-0.043837145 0.05954 0.68700004 14545402
-0.042528573 0.05954 0.68700004 14874367
-0.041220002 0.05954 0.68700004 15202812
-0.03991143 0.05954 0.68700004 15202812
-0.038602859 0.05954 0.68700004 15531261
-0.037348572 0.059626669 0.68800002 15662847
-0.03614286 0.059800003 0.69000006 15334909
-0.034879047 0.059886672 0.69100004 14940151
-0.033562858 0.059886672 0.69100004 13496573
-0.032246668 0.059886672 0.69100004 13167608
-0.030930476 0.059886672 0.69100004 12380927
-0.029614286 0.059886672 0.69100004 10472933
-0.028298097 0.059886672 0.69100004 8966911
-0.026981905 0.059886672 0.69100004 8901119
-0.025777142 0.060146667 0.69400001 8113663
-0.024525715 0.060320001 0.69600004 7258361
-0.0232 0.060320001 0.69600004 7192575
-0.021874286 0.060320001 0.69600004 6403068
-0.020548573 0.060320001 0.69600004 6271743
-0.019222859 0.060320001 0.69600004 5942783
-0.017897144 0.060320001 0.69600004 5483263
-0.01657143 0.060320001 0.69600004 5549055
-0.015245715 0.060320001 0.69600004 5483263
-0.013920001 0.060320001 0.69600004 5417471
-0.012594286 0.060320001 0.69600004 5417215
-0.011268572 0.060320001 0.69600004 5680383
-0.0099428575 0.060320001 0.69600004 5351423
-0.0086171431 0.060320001 0.69600004 5680383
-0.0072704758 0.060146667 0.69400001 6336255
-0.0059485715 0.060146667 0.69400001 7125759
-0.0046266662 0.060146667 0.69400001 6992383
-0.0033047618 0.060146667 0.69400001 6795007
-0.0019828572 0.060146667 0.69400001 6598655
-0.00066000002 0.060060002 0.69300002 6467071
0.00066000002 0.060060002 0.69300002 5876735
0.0019799999 0.060060002 0.69300002 5087231
0.0033000002 0.060060002 0.69300002 7711999
0.0046200003 0.060060002 0.69300002 11264767
0.0059400001 0.060060002 0.69300002 15395319
0.0072390479 0.059886672 0.69100004 16316415
0.0085552391 0.059886672 0.69100004 15591935
0.0098714288 0.059886672 0.69100004 6512501
-0.086834289 0.061645716 0.69600004 3965439
-0.085508578 0.061645716 0.69600004 5083903
-0.083940953 0.061468571 0.69400001 5217535
-0.082619049 0.061468571 0.69400001 4756991
-0.081297144 0.061468571 0.69400001 3970559
-0.080205716 0.061645716 0.69600004 4102143
-0.078653328 0.061468571 0.69400001 3511807
-0.077331424 0.061468571 0.69400001 3643391
-0.076009519 0.061468571 0.69400001 3971839
-0.074580006 0.061380003 0.69300002 4235007
-0.073260002 0.061380003 0.69300002 4563199
-0.072043814 0.061468571 0.69400001 4563199
-0.070721909 0.061468571 0.69400001 4169215
