# .PCD v0.7 - Point Cloud Data file format
VERSION 0.7
FIELDS x y z rgba
SIZE 4 4 4 4
TYPE F F F U
COUNT 1 1 1 1
WIDTH 1083
HEIGHT 1
VIEWPOINT 0 0 0 1 0 0 0
POINTS 1083
DATA ascii
-0.021780001 0.044220001 0.69300002 10684559
-0.02046 0.044220001 0.69300002 10684809
-0.01914 0.044220001 0.69300002 10553223
-0.017820001 0.044220001 0.69300002 10619522
-0.0165 0.044220001 0.69300002 10685315
-0.01518 0.044220001 0.69300002 10815881
-0.01386 0.044220001 0.69300002 10881674
-0.01254 0.044220001 0.69300002 10947217
-0.01122 0.044220001 0.69300002 10881424
-0.0098999999 0.044220001 0.69300002 10684827
-0.0085800001 0.044220001 0.69300002 10750620
-0.0072599999 0.044220001 0.69300002 10620830
-0.0059400001 0.044220001 0.69300002 11081381
-0.0046200003 0.044220001 0.69300002 10298534
-0.0033000002 0.044220001 0.69300002 9048467
-0.0019799999 0.044220001 0.69300002 10053248
-0.00066000002 0.044220001 0.69300002 12750761
-0.099803805 0.045605715 0.69400001 11504024
-0.098481901 0.045605715 0.69400001 7030100
-0.09702 0.045540001 0.69300002 9504666
-0.095423818 0.045408577 0.69100004 10096803
-0.09410762 0.045408577 0.69100004 10685620
-0.092791438 0.045408577 0.69100004 11211964
-0.091475241 0.045408577 0.69100004 10554032
-0.090159051 0.045408577 0.69100004 10751411
-0.088842861 0.045408577 0.69100004 10619566
-0.087526672 0.045408577 0.69100004 10816945
-0.086210482 0.045408577 0.69100004 10750382
-0.084894292 0.045408577 0.69100004 10750382
-0.083578095 0.045408577 0.69100004 10684587
-0.082261913 0.045408577 0.69100004 10750380
-0.080945715 0.045408577 0.69100004 10684335
-0.079629533 0.045408577 0.69100004 10750128
-0.078313336 0.045408577 0.69100004 10684589
-0.076997146 0.045408577 0.69100004 10750382
-0.075680956 0.045408577 0.69100004 10815662
-0.074580006 0.045540001 0.69300002 10815662
-0.073260002 0.045540001 0.69300002 10815916
-0.071940005 0.045540001 0.69300002 10881709
-0.07062 0.045540001 0.69300002 10946737
-0.069299996 0.045540001 0.69300002 10880944
-0.067980006 0.045540001 0.69300002 9897882
-0.066756189 0.045605715 0.69400001 9832089
-0.065340005 0.045540001 0.69300002 10310298
-0.06402 0.045540001 0.69300002 16764927
-0.062699996 0.045540001 0.69300002 16711422
-0.059697144 0.044291429 0.67400002 16711422
-0.058413334 0.044291429 0.67400002 16645629
-0.057129528 0.044291429 0.67400002 16579836
-0.055845715 0.044291429 0.67400002 16514043
-0.054642856 0.044357143 0.67500001 16514043
-0.053278096 0.044291429 0.67400002 16514043
-0.051994286 0.044291429 0.67400002 16448250
-0.050710477 0.044291429 0.67400002 16514043
-0.049426667 0.044291429 0.67400002 16514043
-0.048142858 0.044291429 0.67400002 16514043
-0.046720002 0.044160005 0.67200005 16514043
-0.04544 0.044160005 0.67200005 16579836
-0.044160005 0.044160005 0.67200005 16514043
-0.042816192 0.044094287 0.671 16514043
-0.041538097 0.044094287 0.671 16579836
-0.040259998 0.044094287 0.671 16711422
-0.040550474 0.045868572 0.69800001 16711422
-0.039164763 0.045802858 0.69700003 16711422
-0.037782859 0.045737144 0.69600004 10855845
-0.036352381 0.045605715 0.69400001 9242297
-0.034979999 0.045540001 0.69300002 10623950
-0.033660002 0.045540001 0.69300002 11804876
-0.032246668 0.045408577 0.69100004 12462806
-0.030930476 0.045408577 0.69100004 12202697
-0.029614286 0.045408577 0.69100004 12202697
-0.028298097 0.045408577 0.69100004 12268241
-0.026981905 0.045408577 0.69100004 12136655
-0.025739999 0.045540001 0.69300002 12201176
-0.024420001 0.045540001 0.69300002 12266969
-0.0231 0.045540001 0.69300002 12267991
-0.021780001 0.045540001 0.69300002 12267991
-0.02046 0.045540001 0.69300002 12005335
-0.01914 0.045540001 0.69300002 12268507
-0.017820001 0.045540001 0.69300002 12336603
-0.0165 0.045540001 0.69300002 12139224
-0.01518 0.045540001 0.69300002 12203738
-0.01386 0.045540001 0.69300002 12269531
-0.01254 0.045540001 0.69300002 12139226
-0.01122 0.045540001 0.69300002 12731363
-0.0098714288 0.045408577 0.69100004 12473320
-0.0085552391 0.045408577 0.69100004 12933871
-0.0072599999 0.045540001 0.69300002 12805372
-0.0059400001 0.045540001 0.69300002 13792255
-0.0046200003 0.045540001 0.69300002 13009663
-0.0033000002 0.045540001 0.69300002 12285951
-0.0019799999 0.045540001 0.69300002 10646987
-0.00066000002 0.045540001 0.69300002 12160226
0.00066000002 0.045540001 0.69300002 11443083
-0.099660002 0.046860002 0.69300002 11112094
-0.098340005 0.046860002 0.69300002 10322578
-0.09674 0.046724766 0.69100004 10972368
-0.095423818 0.046724766 0.69100004 12156642
-0.09410762 0.046724766 0.69100004 12090345
-0.092791438 0.046724766 0.69100004 12485103
-0.091342866 0.046657149 0.69000006 12353260
-0.090028577 0.046657149 0.69000006 12550639
-0.088714294 0.046657149 0.69000006 12156133
-0.087400004 0.046657149 0.69000006 12550891
-0.086085722 0.046657149 0.69000006 12287458
-0.084771439 0.046657149 0.69000006 12682216
-0.083578095 0.046724766 0.69100004 12484837
-0.082261913 0.046724766 0.69100004 12879595
-0.080945715 0.046724766 0.69100004 12418792
-0.079629533 0.046724766 0.69100004 12616171
-0.078313336 0.046724766 0.69100004 12484839
-0.076885715 0.046657149 0.69000006 12484839
-0.075571433 0.046657149 0.69000006 12418533
-0.074364766 0.046724766 0.69100004 12418533
-0.073048577 0.046724766 0.69100004 12550632
-0.071732387 0.046724766 0.69100004 13011183
-0.070416197 0.046724766 0.69100004 12484337
-0.069100007 0.046724766 0.69100004 11168477
-0.067980006 0.046860002 0.69300002 10905051
-0.066756189 0.04692762 0.69400001 15905279
-0.065340005 0.046860002 0.69300002 16577535
-0.06402 0.046860002 0.69300002 16775935
-0.062699996 0.046860002 0.69300002 16711422
-0.059697144 0.045575239 0.67400002 16579836
-0.058240004 0.04544 0.67200005 16514043
-0.056960005 0.04544 0.67200005 16514043
-0.055680003 0.04544 0.67200005 16514043
-0.054561906 0.045575239 0.67400002 16514043
-0.053278096 0.045575239 0.67400002 16514043
-0.051840004 0.04544 0.67200005 16514043
-0.050560005 0.04544 0.67200005 16514043
-0.049280003 0.04544 0.67200005 16514043
-0.048000004 0.04544 0.67200005 16514043
-0.046650477 0.045372378 0.671 16579836
-0.045372378 0.045372378 0.671 16579836
-0.044094287 0.045372378 0.671 16579836
-0.042816192 0.045372378 0.671 16514043
-0.041538097 0.045372378 0.671 16514043
-0.040259998 0.045372378 0.671 16514043
-0.04066667 0.047333337 0.70000005 16711422
-0.039164763 0.04713048 0.69700003 16711422
-0.037782859 0.047062859 0.69600004 15856113
-0.036352381 0.04692762 0.69400001 13682428
-0.034879047 0.046724766 0.69100004 11445466
-0.033562858 0.046724766 0.69100004 12492287
-0.032246668 0.046724766 0.69100004 12821247
-0.030885719 0.046657149 0.69000006 12887807
-0.029571431 0.046657149 0.69000006 12953599
-0.028257145 0.046657149 0.69000006 12755455
-0.02694286 0.046657149 0.69000006 12821247
-0.025665715 0.046724766 0.69100004 12755455
-0.024349526 0.046724766 0.69100004 13215999
-0.023033334 0.046724766 0.69100004 12755967
-0.021717144 0.046724766 0.69100004 13216511
-0.02046 0.046860002 0.69300002 12691199
-0.01914 0.046860002 0.69300002 12954367
-0.017820001 0.046860002 0.69300002 12625407
-0.0165 0.046860002 0.69300002 12954367
-0.015136191 0.046724766 0.69100004 13020415
-0.01382 0.046724766 0.69100004 13283583
-0.01250381 0.046724766 0.69100004 13086207
-0.01118762 0.046724766 0.69100004 13086207
-0.0098714288 0.046724766 0.69100004 12692479
-0.0085552391 0.046724766 0.69100004 12692479
-0.0072390479 0.046724766 0.69100004 12034815
-0.0059228572 0.046724766 0.69100004 11969023
-0.004606667 0.046724766 0.69100004 11115263
-0.0033000002 0.046860002 0.69300002 10654719
-0.0019799999 0.046860002 0.69300002 10324991
-0.00066000002 0.046860002 0.69300002 9667064
0.00066000002 0.046860002 0.69300002 10720650
0.0019799999 0.046860002 0.69300002 11444373
-0.099372379 0.048040956 0.69100004 9797801
-0.098056197 0.048040956 0.69100004 9995180
-0.096600004 0.047971431 0.69000006 9927423
-0.095285721 0.047971431 0.69000006 10256383
-0.093971431 0.047971431 0.69000006 10452735
-0.092657149 0.047971431 0.69000006 10584319
-0.091342866 0.047971431 0.69000006 10584319
-0.090028577 0.047971431 0.69000006 10715903
-0.088457145 0.047832385 0.68800002 10386943
-0.08714667 0.047832385 0.68800002 10781695
-0.086085722 0.047971431 0.69000006 10584575
-0.084771439 0.047971431 0.69000006 11045119
-0.08345715 0.047971431 0.69000006 10782463
-0.082142867 0.047971431 0.69000006 11045631
-0.080828577 0.047971431 0.69000006 10650623
-0.079514287 0.047971431 0.69000006 11111167
-0.078200005 0.047971431 0.69000006 11176959
-0.076885715 0.047971431 0.69000006 11045375
-0.075571433 0.047971431 0.69000006 11111167
-0.07425715 0.047971431 0.69000006 11176959
-0.073048577 0.048040956 0.69100004 11309055
-0.071732387 0.048040956 0.69100004 11243263
-0.070416197 0.048040956 0.69100004 10914559
-0.069100007 0.048040956 0.69100004 9664504
-0.067980006 0.048179999 0.69300002 9009919
-0.066756189 0.04824952 0.69400001 16049663
-0.065434285 0.04824952 0.69400001 16449533
-0.06411238 0.04824952 0.69400001 16515070
-0.06098095 0.046859052 0.67400002 16645629
-0.059431426 0.046650477 0.671 16514043
-0.058153335 0.046650477 0.671 16448763
-0.05687524 0.046650477 0.671 16382970
-0.055680003 0.046720002 0.67200005 16448763
-0.054561906 0.046859052 0.67400002 16448763
-0.053120002 0.046720002 0.67200005 16448763
-0.051840004 0.046720002 0.67200005 16448763
-0.050560005 0.046720002 0.67200005 16448763
-0.049206667 0.046650477 0.671 16448763
-0.047928572 0.046650477 0.671 16514043
-0.046650477 0.046650477 0.671 16514043
-0.045372378 0.046650477 0.671 16579836
-0.044094287 0.046650477 0.671 16579836
-0.042816192 0.046650477 0.671 16579836
-0.04147619 0.046580952 0.67000002 16514043
-0.040200002 0.046580952 0.67000002 16514043
-0.038923811 0.046580952 0.67000002 16711422
-0.03764762 0.046580952 0.67000002 16711422
-0.037620001 0.048179999 0.69300002 16514043
-0.0363 0.048179999 0.69300002 12770559
-0.034879047 0.048040956 0.69100004 8428226
-0.033514287 0.047971431 0.69000006 7906303
-0.032106668 0.047832385 0.68800002 8366847
-0.030796193 0.047832385 0.68800002 8432639
-0.029485716 0.047832385 0.68800002 8235263
-0.028175239 0.047832385 0.68800002 7775743
-0.026864761 0.047832385 0.68800002 7644159
-0.025628572 0.047971431 0.69000006 7447551
-0.024349526 0.048040956 0.69100004 7447551
-0.023033334 0.048040956 0.69100004 6856703
-0.021717144 0.048040956 0.69100004 6922495
-0.020400954 0.048040956 0.69100004 6923007
-0.019084763 0.048040956 0.69100004 6791423
-0.017768573 0.048040956 0.69100004 6332159
-0.016452381 0.048040956 0.69100004 6134783
-0.015136191 0.048040956 0.69100004 6134527
-0.013800002 0.047971431 0.69000006 6134527
-0.012485715 0.047971431 0.69000006 6068735
-0.011171429 0.047971431 0.69000006 6002943
-0.0098571433 0.047971431 0.69000006 5608703
-0.0085428581 0.047971431 0.69000006 5608703
-0.0072076195 0.047832385 0.68800002 4755711
-0.0058971434 0.047832385 0.68800002 4953087
-0.0045866668 0.047832385 0.68800002 5411071
-0.0032904763 0.048040956 0.69100004 5345279
-0.0019742858 0.048040956 0.69100004 7965695
-0.00066000002 0.048179999 0.69300002 7702527
0.00066000002 0.048179999 0.69300002 10194576
0.0019799999 0.048179999 0.69300002 11313057
-0.099372379 0.049357146 0.69100004 7699124
-0.098056197 0.049357146 0.69100004 8028089
-0.096600004 0.049285717 0.69000006 7832575
-0.095009528 0.04914286 0.68800002 7832575
-0.093699045 0.04914286 0.68800002 8093695
-0.09238857 0.04914286 0.68800002 8291071
-0.091078095 0.04914286 0.68800002 8291327
-0.08976762 0.04914286 0.68800002 8422911
-0.08832857 0.049071431 0.68700004 8291327
-0.087020002 0.049071431 0.68700004 8488703
-0.085836194 0.04914286 0.68800002 8488959
-0.084525719 0.04914286 0.68800002 8686335
-0.083215237 0.04914286 0.68800002 8489471
-0.081904761 0.04914286 0.68800002 8884223
-0.080594286 0.04914286 0.68800002 9148159
-0.079283811 0.04914286 0.68800002 9148159
-0.077973336 0.04914286 0.68800002 8949759
-0.076662861 0.04914286 0.68800002 8883967
-0.075352386 0.04914286 0.68800002 8883967
-0.07404191 0.04914286 0.68800002 8949759
-0.072731428 0.04914286 0.68800002 8884735
-0.071628578 0.049285717 0.69000006 8818943
-0.070314296 0.049285717 0.69000006 8489983
-0.069000006 0.049285717 0.69000006 7042551
-0.06778381 0.049357146 0.69100004 9541887
-0.066756189 0.049571428 0.69400001 15528959
-0.065434285 0.049571428 0.69400001 16711422
-0.061895236 0.047857143 0.67000002 16645629
-0.060619049 0.047857143 0.67000002 16514043
-0.059342857 0.047857143 0.67000002 16514043
-0.058066666 0.047857143 0.67000002 16448763
-0.056790475 0.047857143 0.67000002 16382970
-0.055680003 0.048000004 0.67200005 16448763
-0.054400001 0.048000004 0.67200005 16448763
-0.053040951 0.047928572 0.671 16448763
-0.051762857 0.047928572 0.671 16448763
-0.050484762 0.047928572 0.671 16448763
-0.049206667 0.047928572 0.671 16382970
-0.047928572 0.047928572 0.671 16448763
-0.046580952 0.047857143 0.67000002 16448763
-0.04530476 0.047857143 0.67000002 16579836
-0.044028569 0.047857143 0.67000002 16579836
-0.042752381 0.047857143 0.67000002 16579836
-0.04147619 0.047857143 0.67000002 16514043
-0.040200002 0.047857143 0.67000002 16514043
-0.038923811 0.047857143 0.67000002 16645629
-0.03764762 0.047857143 0.67000002 16711422
-0.037620001 0.049500003 0.69300002 16711422
-0.0363 0.049500003 0.69300002 14478335
-0.034879047 0.049357146 0.69100004 6583175
-0.033514287 0.049285717 0.69000006 4034047
-0.032106668 0.04914286 0.68800002 5020927
-0.030796193 0.04914286 0.68800002 5805823
-0.029485716 0.04914286 0.68800002 5411071
-0.028175239 0.04914286 0.68800002 5084159
-0.026864761 0.04914286 0.68800002 5084159
-0.025628572 0.049285717 0.69000006 5411583
-0.024314288 0.049285717 0.69000006 5477375
-0.023033334 0.049357146 0.69100004 5411583
-0.021717144 0.049357146 0.69100004 5477375
-0.020400954 0.049357146 0.69100004 5608703
-0.019001907 0.04914286 0.68800002 5542911
-0.017691428 0.04914286 0.68800002 5084159
-0.016380953 0.04914286 0.68800002 5149951
-0.015070477 0.04914286 0.68800002 5412095
-0.01376 0.04914286 0.68800002 5148927
-0.012449524 0.04914286 0.68800002 4952319
-0.011139047 0.04914286 0.68800002 5083903
-0.0098285722 0.04914286 0.68800002 5279999
-0.0085180951 0.04914286 0.68800002 5082623
-0.0072076195 0.04914286 0.68800002 5279999
-0.0058971434 0.04914286 0.68800002 5872127
-0.0045866668 0.04914286 0.68800002 7314687
-0.0032761905 0.04914286 0.68800002 7775231
-0.0019742858 0.049357146 0.69100004 8691711
-0.00066000002 0.049500003 0.69300002 6125796
-0.09879715 0.050380003 0.68700004 5601723
-0.097488575 0.050380003 0.68700004 4878000
-0.096180007 0.050380003 0.68700004 3704319
-0.094871432 0.050380003 0.68700004 3506943
-0.093562864 0.050380003 0.68700004 3703551
-0.09238857 0.050453335 0.68800002 4032511
-0.090945721 0.050380003 0.68700004 4360191
-0.089637145 0.050380003 0.68700004 4294399
-0.08832857 0.050380003 0.68700004 4032255
-0.087020002 0.050380003 0.68700004 4229631
-0.085711427 0.050380003 0.68700004 4623615
-0.084402859 0.050380003 0.68700004 4623615
-0.083094291 0.050380003 0.68700004 3902207
-0.081785724 0.050380003 0.68700004 4494335
-0.080477148 0.050380003 0.68700004 5347071
-0.07916858 0.050380003 0.68700004 5281279
-0.077860005 0.050380003 0.68700004 4689919
-0.076662861 0.050453335 0.68800002 4755711
-0.075352386 0.050453335 0.68800002 4492799
-0.073934287 0.050380003 0.68700004 4427007
-0.072625719 0.050380003 0.68700004 4624639
-0.071317144 0.050380003 0.68700004 4690431
-0.070008576 0.050380003 0.68700004 4360959
-0.068800002 0.050453335 0.68800002 2518772
-0.067489527 0.050453335 0.68800002 8758783
-0.066179045 0.050453335 0.68800002 14482687
-0.062794283 0.048840001 0.66600001 16646142
-0.06152571 0.048840001 0.66600001 16646142
-0.060347624 0.048913337 0.66700006 16579836
-0.059165716 0.04898667 0.66800004 16514043
-0.057806671 0.048913337 0.66700006 16448763
-0.056536198 0.048913337 0.66700006 16382970
-0.055348575 0.04898667 0.66800004 16448763
-0.054238096 0.049133334 0.67000002 16448763
-0.052961905 0.049133334 0.67000002 16448763
-0.051685713 0.049133334 0.67000002 16448763
-0.050409522 0.049133334 0.67000002 16382970
-0.049133334 0.049133334 0.67000002 16317177
-0.047714286 0.04898667 0.66800004 16382970
-0.046441909 0.04898667 0.66800004 16448763
-0.045169525 0.04898667 0.66800004 16514043
-0.043897144 0.04898667 0.66800004 16579836
-0.042624764 0.04898667 0.66800004 16514043
-0.041352384 0.04898667 0.66800004 16448250
-0.040020004 0.048913337 0.66700006 16579836
-0.038691428 0.048840001 0.66600001 16579836
-0.037422854 0.048840001 0.66600001 16711422
-0.036154289 0.048840001 0.66600001 16711422
-0.0363 0.05082 0.69300002 14215935
-0.034828573 0.050600003 0.69000006 6189189
-0.033417143 0.050453335 0.68800002 3247103
-0.032060001 0.050380003 0.68700004 4036607
-0.030751429 0.050380003 0.68700004 4034815
-0.029400002 0.050306667 0.68600005 3969023
-0.028093336 0.050306667 0.68600005 3969023
-0.026864761 0.050453335 0.68800002 3837439
-0.025517143 0.050380003 0.68700004 4165887
-0.024208572 0.050380003 0.68700004 4297471
-0.022900002 0.050380003 0.68700004 4887039
-0.021591431 0.050380003 0.68700004 5347583
-0.020282857 0.050380003 0.68700004 5871615
-0.018974286 0.050380003 0.68700004 5674239
-0.017665716 0.050380003 0.68700004 4624639
-0.016357144 0.050380003 0.68700004 4690431
-0.015048572 0.050380003 0.68700004 4953599
-0.013740001 0.050380003 0.68700004 4822015
-0.012431429 0.050380003 0.68700004 4624639
-0.011122858 0.050380003 0.68700004 4887807
-0.009800001 0.050306667 0.68600005 5083647
-0.0084933331 0.050306667 0.68600005 4820479
-0.0071866671 0.050306667 0.68600005 4951807
-0.0058800001 0.050306667 0.68600005 6070271
-0.0045799999 0.050380003 0.68700004 10137599
-0.0032714286 0.050380003 0.68700004 10203391
-0.0019799999 0.05082 0.69300002 9414143
-0.00066000002 0.05082 0.69300002 4940230
-0.098221906 0.051387619 0.68300003 6588370
-0.09692096 0.051387619 0.68300003 5798854
-0.09604001 0.051613338 0.68600005 4558079
-0.094733343 0.051613338 0.68600005 4360703
-0.093426675 0.051613338 0.68600005 4492031
-0.092120007 0.051613338 0.68600005 5281535
-0.090813339 0.051613338 0.68600005 4886015
-0.089506678 0.051613338 0.68600005 4820223
-0.08820001 0.051613338 0.68600005 5674239
-0.086893335 0.051613338 0.68600005 5674239
-0.085586667 0.051613338 0.68600005 5674495
-0.084279999 0.051613338 0.68600005 6003455
-0.082973339 0.051613338 0.68600005 5937407
-0.081666671 0.051613338 0.68600005 6003199
-0.080360003 0.051613338 0.68600005 5937919
-0.079053335 0.051613338 0.68600005 6332671
-0.077860005 0.051688574 0.68700004 6266367
-0.07655143 0.051688574 0.68700004 6332159
-0.075242862 0.051688574 0.68700004 6332159
-0.073826671 0.051613338 0.68600005 6332159
-0.072520003 0.051613338 0.68600005 6528767
-0.071213335 0.051613338 0.68600005 6002431
-0.069906674 0.051613338 0.68600005 5280511
-0.068600006 0.051613338 0.68600005 4293631
-0.067489527 0.05176381 0.68800002 9810175
-0.063870475 0.049958095 0.66400003 14810367
-0.062605716 0.049958095 0.66400003 16646142
-0.06152571 0.050108574 0.66600001 16514556
-0.060257144 0.050108574 0.66600001 16514043
-0.059077147 0.050183814 0.66700006 16514043
-0.057806671 0.050183814 0.66700006 16448763
-0.056536198 0.050183814 0.66700006 16382970
-0.055265717 0.050183814 0.66700006 16448763
-0.05399524 0.050183814 0.66700006 16448763
-0.052724764 0.050183814 0.66700006 16448763
-0.051454291 0.050183814 0.66700006 16448763
-0.05025905 0.05025905 0.66800004 16448763
-0.048913337 0.050183814 0.66700006 16448763
-0.047642861 0.050183814 0.66700006 16514043
-0.046372388 0.050183814 0.66700006 16514043
-0.045101907 0.050183814 0.66700006 16514043
-0.04383143 0.050183814 0.66700006 16579836
-0.042497143 0.050108574 0.66600001 16579836
-0.04122857 0.050108574 0.66600001 16514043
-0.039960001 0.050108574 0.66600001 16579836
-0.038691428 0.050108574 0.66600001 16645629
-0.037310477 0.049958095 0.66400003 16711422
-0.036045719 0.049958095 0.66400003 16711422
-0.034780953 0.049958095 0.66400003 14412540
-0.034727618 0.05176381 0.68800002 10004409
-0.033368573 0.051688574 0.68700004 8567039
-0.032013334 0.051613338 0.68600005 9093375
-0.030706666 0.051613338 0.68600005 9682431
-0.029314285 0.051462859 0.68400002 9156095
-0.028011428 0.051462859 0.68400002 8697343
-0.026786668 0.051613338 0.68600005 7644665
-0.025480002 0.051613338 0.68600005 7251455
-0.024173334 0.051613338 0.68600005 7383039
-0.0228 0.051462859 0.68400002 8169727
-0.021497143 0.051462859 0.68400002 8498687
-0.020253334 0.051613338 0.68600005 8497919
-0.018946668 0.051613338 0.68600005 8432127
-0.01764 0.051613338 0.68600005 8367359
-0.016261905 0.051387619 0.68300003 8433151
-0.014960953 0.051387619 0.68300003 8761343
-0.013660001 0.051387619 0.68300003 8958719
-0.012359047 0.051387619 0.68300003 9680639
-0.011058095 0.051387619 0.68300003 10009599
-0.0097571434 0.051387619 0.68300003 10337791
-0.008456191 0.051387619 0.68300003 10535167
-0.0071552387 0.051387619 0.68300003 11125759
-0.0058457148 0.051312383 0.68200004 11717887
-0.004546667 0.051312383 0.68200004 12898815
-0.0032476194 0.051312383 0.68200004 12701439
-0.099377148 0.052611433 0.68200004 9669522
-0.097790472 0.052457143 0.68000001 6523097
-0.096495233 0.052457143 0.68000001 5799374
-0.095480002 0.052611433 0.68200004 4558079
-0.094180956 0.052611433 0.68200004 4229119
-0.092881911 0.052611433 0.68200004 4294655
-0.091717146 0.052688573 0.68300003 4755199
-0.090416193 0.052688573 0.68300003 4558335
-0.089115247 0.052688573 0.68300003 4821503
-0.087814286 0.052688573 0.68300003 5871103
-0.086513333 0.052688573 0.68300003 5673727
-0.085212387 0.052688573 0.68300003 5477887
-0.083911426 0.052688573 0.68300003 5675263
-0.08261048 0.052688573 0.68300003 5741311
-0.08130952 0.052688573 0.68300003 5675519
-0.080008574 0.052688573 0.68300003 5347327
-0.078707621 0.052688573 0.68300003 5939455
-0.077520005 0.052765712 0.68400002 6135551
-0.076440006 0.052920006 0.68600005 6201343
-0.074914292 0.052765712 0.68400002 6529279
-0.073611431 0.052765712 0.68400002 6529279
-0.072308578 0.052765712 0.68400002 6856703
-0.070901908 0.052688573 0.68300003 6461951
-0.069600955 0.052688573 0.68300003 5082879
-0.068600006 0.052920006 0.68600005 3701242
-0.067293338 0.052920006 0.68600005 10466815
-0.063870475 0.051222861 0.66400003 15072255
-0.062605716 0.051222861 0.66400003 16646142
-0.06152571 0.05137714 0.66600001 16514556
-0.060257144 0.05137714 0.66600001 16514043
-0.05881143 0.051222861 0.66400003 16514043
-0.057546668 0.051222861 0.66400003 16448763
-0.056281909 0.051222861 0.66400003 16448763
-0.054934289 0.051145718 0.66300005 16448763
-0.053671431 0.051145718 0.66300005 16448763
-0.052408572 0.051145718 0.66300005 16514043
-0.051145718 0.051145718 0.66300005 16514043
-0.049958095 0.051222861 0.66400003 16514043
-0.048693337 0.051222861 0.66400003 16514043
-0.047428574 0.051222861 0.66400003 16514043
-0.046163812 0.051222861 0.66400003 16514043
-0.044899046 0.051222861 0.66400003 16514043
-0.043765716 0.05137714 0.66600001 16514043
-0.042369526 0.051222861 0.66400003 16579836
-0.041042857 0.051145718 0.66300005 16579836
-0.039780006 0.051145718 0.66300005 16514043
-0.038517147 0.051145718 0.66300005 16711422
-0.037254289 0.051145718 0.66300005 16711422
-0.035937145 0.051068578 0.66200006 16645629
-0.034623809 0.050991427 0.66100001 14347773
-0.033364762 0.050991427 0.66100001 11452881
-0.033320002 0.052920006 0.68600005 10732799
-0.031919997 0.052765712 0.68400002 11061759
-0.030572383 0.052688573 0.68300003 10667007
-0.029271429 0.052688573 0.68300003 10601215
-0.027970478 0.052688573 0.68300003 9682431
-0.026669525 0.052688573 0.68300003 8958715
-0.025368571 0.052688573 0.68300003 8170751
-0.024032382 0.052611433 0.68200004 8368127
-0.022733334 0.052611433 0.68200004 8760575
-0.021434287 0.052611433 0.68200004 8760575
-0.020135241 0.052611433 0.68200004 8957183
-0.018836193 0.052611433 0.68200004 9154559
-0.017537145 0.052611433 0.68200004 9614335
-0.016238095 0.052611433 0.68200004 9943295
-0.014939048 0.052611433 0.68200004 10140159
-0.01364 0.052611433 0.68200004 10337535
-0.012340954 0.052611433 0.68200004 10599423
-0.011041906 0.052611433 0.68200004 10862591
-0.0097428579 0.052611433 0.68200004 11190783
-0.00844381 0.052611433 0.68200004 12243455
-0.0071447622 0.052611433 0.68200004 12767999
-0.0058457148 0.052611433 0.68200004 12965375
-0.0045333337 0.052457143 0.68000001 13489919
-0.0032380952 0.052457143 0.68000001 13226751
-0.0019428571 0.052457143 0.68000001 11255295
-0.099085711 0.053752381 0.68000001 9275278
-0.097790472 0.053752381 0.68000001 6129373
-0.096495233 0.053752381 0.68000001 5668822
-0.095480002 0.053910479 0.68200004 4755199
-0.094180956 0.053910479 0.68200004 4294655
-0.092881911 0.053910479 0.68200004 3770111
-0.091582857 0.053910479 0.68200004 4164863
-0.090283811 0.053910479 0.68200004 4427007
-0.088984765 0.053910479 0.68200004 4690175
-0.08742857 0.053752381 0.68000001 4952831
-0.086133331 0.053752381 0.68000001 4821247
-0.08508762 0.053910479 0.68200004 4559103
-0.083788574 0.053910479 0.68200004 4427519
-0.082489528 0.053910479 0.68200004 5084159
-0.080952384 0.053752381 0.68000001 5084159
-0.079657145 0.053752381 0.68000001 4887807
-0.078592382 0.053910479 0.68200004 5743103
-0.077406667 0.053989526 0.68300003 6333183
-0.076105714 0.053989526 0.68300003 6201599
-0.074804768 0.053989526 0.68300003 6332159
-0.073396191 0.053910479 0.68200004 6332159
-0.072097145 0.053910479 0.68200004 6332159
-0.070798099 0.053910479 0.68200004 6332159
-0.069499053 0.053910479 0.68200004 5280511
-0.0682 0.053910479 0.68200004 2780392
-0.066900954 0.053910479 0.68200004 8560895
-0.064062856 0.052645713 0.66600001 14547967
-0.062794283 0.052645713 0.66600001 16711422
-0.061340958 0.052487623 0.66400003 16711422
-0.060076192 0.052487623 0.66400003 16514043
-0.05881143 0.052487623 0.66400003 16514043
-0.057460003 0.052408572 0.66300005 16448763
-0.056197144 0.052408572 0.66300005 16448763
-0.054934289 0.052408572 0.66300005 16448763
-0.053671431 0.052408572 0.66300005 16448763
-0.052408572 0.052408572 0.66300005 16514043
-0.051145718 0.052408572 0.66300005 16514043
-0.049882859 0.052408572 0.66300005 16514043
-0.04862 0.052408572 0.66300005 16514043
-0.047357146 0.052408572 0.66300005 16579836
-0.046094287 0.052408572 0.66300005 16579836
-0.044831429 0.052408572 0.66300005 16579836
-0.043568574 0.052408572 0.66300005 16579836
-0.042305715 0.052408572 0.66300005 16514043
-0.040980954 0.052329529 0.66200006 16514043
-0.039720006 0.052329529 0.66200006 16514043
-0.038459051 0.052329529 0.66200006 16711422
-0.037198097 0.052329529 0.66200006 16646142
-0.035937145 0.052329529 0.66200006 15461868
-0.034623809 0.052250478 0.66100001 13755384
-0.033364762 0.052250478 0.66100001 11650008
-0.033320002 0.05422667 0.68600005 11257599
-0.031826667 0.053910479 0.68200004 11323391
-0.03052762 0.053910479 0.68200004 10403583
-0.029228574 0.053910479 0.68200004 10271999
-0.027929526 0.053910479 0.68200004 9550591
-0.026630478 0.053910479 0.68200004 9221631
-0.025257142 0.053752381 0.68000001 9090815
-0.023961904 0.053752381 0.68000001 9222399
-0.022666667 0.053752381 0.68000001 9746175
-0.021371428 0.053752381 0.68000001 10272511
-0.020076191 0.053752381 0.68000001 10534399
-0.018780952 0.053752381 0.68000001 10402815
-0.017485715 0.053752381 0.68000001 10732031
-0.016190477 0.053752381 0.68000001 10797823
-0.014895238 0.053752381 0.68000001 10928895
-0.013599999 0.053752381 0.68000001 11192063
-0.012304761 0.053752381 0.68000001 11650303
-0.011009524 0.053752381 0.68000001 11781887
-0.0097142858 0.053752381 0.68000001 12963839
-0.008419048 0.053752381 0.68000001 13819135
-0.0071133338 0.053673334 0.67900002 14146810
-0.0058200001 0.053673334 0.67900002 14278396
-0.0045266668 0.053673334 0.67900002 14213116
-0.0032333334 0.053673334 0.67900002 13226221
-0.0019400001 0.053673334 0.67900002 11058687
-0.00064666668 0.053673334 0.67900002 3229327
-0.09894 0.054966666 0.67900002 9144205
-0.097646669 0.054966666 0.67900002 5143782
-0.096495233 0.055047616 0.68000001 5406954
-0.095199995 0.055047616 0.68000001 4820735
-0.093904756 0.055047616 0.68000001 4689151
-0.092609517 0.055047616 0.68000001 4558335
-0.091180004 0.054966666 0.67900002 4624127
-0.089886673 0.054966666 0.67900002 4558335
-0.088723809 0.055047616 0.68000001 4624127
-0.08742857 0.055047616 0.68000001 4821503
-0.086006664 0.054966666 0.67900002 4821503
-0.08471334 0.054966666 0.67900002 4756223
-0.083420001 0.054966666 0.67900002 4756223
-0.082247622 0.055047616 0.68000001 5215231
-0.080833331 0.054966666 0.67900002 5281023
-0.079540007 0.054966666 0.67900002 4625151
-0.078246668 0.054966666 0.67900002 5480447
-0.077066667 0.055047616 0.68000001 6201343
-0.075771429 0.055047616 0.68000001 6267135
-0.074476197 0.055047616 0.68000001 6332671
-0.073180959 0.055047616 0.68000001 6266879
-0.072097145 0.055209529 0.68200004 6135551
-0.070590481 0.055047616 0.68000001 6135551
-0.069295242 0.055047616 0.68000001 6003455
-0.068000004 0.055047616 0.68000001 3634920
-0.065331429 0.053914286 0.66600001 6917879
-0.063870475 0.053752381 0.66400003 13957631
-0.062605716 0.053752381 0.66400003 16580606
-0.061340958 0.053752381 0.66400003 16580606
-0.05998572 0.053671431 0.66300005 16579836
-0.058722861 0.053671431 0.66300005 16514043
-0.057373337 0.05359048 0.66200006 16514043
-0.056112386 0.05359048 0.66200006 16448250
-0.054851435 0.05359048 0.66200006 16514043
-0.05359048 0.05359048 0.66200006 16514043
-0.052250478 0.053509526 0.66100001 16514043
-0.050991427 0.053509526 0.66100001 16514043
-0.049732383 0.053509526 0.66100001 16514043
-0.048546668 0.05359048 0.66200006 16514043
-0.047285721 0.05359048 0.66200006 16579836
-0.046024766 0.05359048 0.66200006 16579836
-0.044763811 0.05359048 0.66200006 16579836
-0.043502863 0.05359048 0.66200006 16514043
-0.042241909 0.05359048 0.66200006 16514043
-0.040980954 0.05359048 0.66200006 16514043
-0.039720006 0.05359048 0.66200006 16579836
-0.038459051 0.05359048 0.66200006 16711422
-0.037198097 0.05359048 0.66200006 16646142
-0.035937145 0.05359048 0.66200006 14474973
-0.034623809 0.053509526 0.66100001 12243450
-0.033364762 0.053509526 0.66100001 11914485
-0.032105718 0.053509526 0.66100001 12571391
-0.031733334 0.055047616 0.68000001 11518709
-0.030438095 0.055047616 0.68000001 10533631
-0.029100001 0.054966666 0.67900002 10073087
-0.027806668 0.054966666 0.67900002 9353727
-0.026552381 0.055047616 0.68000001 9156351
-0.025220001 0.054966666 0.67900002 9024767
-0.023926668 0.054966666 0.67900002 9024767
-0.022633335 0.054966666 0.67900002 9614847
-0.021340001 0.054966666 0.67900002 10338559
-0.020046666 0.054966666 0.67900002 10928383
-0.018753333 0.054966666 0.67900002 10796799
-0.01746 0.054966666 0.67900002 10797823
-0.016166667 0.054966666 0.67900002 10863615
-0.014873333 0.054966666 0.67900002 10994687
-0.013580001 0.054966666 0.67900002 11389439
-0.012286667 0.054966666 0.67900002 11847935
-0.010993334 0.054966666 0.67900002 11913727
-0.0097000003 0.054966666 0.67900002 13356799
-0.008406667 0.054966666 0.67900002 14212095
-0.0071028573 0.054885715 0.67800003 14803450
-0.0058114287 0.054885715 0.67800003 15132415
-0.0045200004 0.054885715 0.67800003 15133183
-0.0032285715 0.054885715 0.67800003 13554151
-0.001937143 0.054885715 0.67800003 11451391
-0.00064666668 0.054966666 0.67900002 3227274
-0.098794296 0.056177147 0.67800003 8357006
-0.097502865 0.056177147 0.67800003 4882431
-0.096353337 0.056260001 0.67900002 4948223
-0.095060006 0.056260001 0.67900002 4887039
-0.093766667 0.056260001 0.67900002 4689663
-0.092473336 0.056260001 0.67900002 5083647
-0.091180004 0.056260001 0.67900002 5149439
-0.089886673 0.056260001 0.67900002 4689919
-0.088593334 0.056260001 0.67900002 4558335
-0.087171435 0.056177147 0.67800003 4362751
-0.085880004 0.056177147 0.67800003 4428543
-0.084588572 0.056177147 0.67800003 4690431
-0.083420001 0.056260001 0.67900002 4953599
-0.08212667 0.056260001 0.67900002 5281535
-0.080833331 0.056260001 0.67900002 5413119
-0.079540007 0.056260001 0.67900002 4624895
-0.078246668 0.056260001 0.67900002 5282815
-0.076953337 0.056260001 0.67900002 6267135
-0.075771429 0.056342855 0.68000001 6332927
-0.074476197 0.056342855 0.68000001 6267135
-0.073180959 0.056342855 0.68000001 6069759
-0.07188572 0.056342855 0.68000001 5937919
-0.070590481 0.056342855 0.68000001 5937919
-0.069193333 0.056260001 0.67900002 6200063
-0.067900002 0.056260001 0.67900002 2976220
-0.065331429 0.055182859 0.66600001 3832558
-0.063870475 0.055017143 0.66400003 10280191
-0.062605716 0.055017143 0.66400003 16646142
-0.061340958 0.055017143 0.66400003 16646142
-0.05998572 0.054934289 0.66300005 16711422
-0.058634292 0.054851435 0.66200006 16579836
-0.057373337 0.054851435 0.66200006 16579836
-0.056027621 0.05476857 0.66100001 16514043
-0.05476857 0.05476857 0.66100001 16579836
-0.053509526 0.05476857 0.66100001 16579836
-0.052250478 0.05476857 0.66100001 16579836
-0.050837144 0.054602861 0.65900004 16579836
-0.049581908 0.054602861 0.65900004 16579836
-0.048473332 0.05476857 0.66100001 16579836
-0.047071431 0.054602861 0.65900004 16514043
-0.045816191 0.054602861 0.65900004 16514043
-0.044696189 0.05476857 0.66100001 16514043
-0.043437142 0.05476857 0.66100001 16514043
-0.042178098 0.05476857 0.66100001 16514043
-0.040919047 0.05476857 0.66100001 16579836
-0.039659999 0.05476857 0.66100001 16579836
-0.038400952 0.05476857 0.66100001 16711422
-0.037141904 0.05476857 0.66100001 16449533
-0.035937145 0.054851435 0.66200006 14212571
-0.034623809 0.05476857 0.66100001 12112895
-0.033364762 0.05476857 0.66100001 12047102
-0.032834288 0.056011431 0.67600006 12177919
-0.031546671 0.056011431 0.67600006 10533100
-0.03025905 0.056011431 0.67600006 8696063
-0.02897143 0.056011431 0.67600006 7906556
-0.027683811 0.056011431 0.67600006 7973887
-0.026474288 0.056177147 0.67800003 8763391
-0.025182858 0.056177147 0.67800003 9287423
-0.023891428 0.056177147 0.67800003 8958463
-0.022600001 0.056177147 0.67800003 9418239
-0.021308571 0.056177147 0.67800003 9681407
-0.020017143 0.056177147 0.67800003 10271999
-0.018725716 0.056177147 0.67800003 10271999
-0.017434288 0.056177147 0.67800003 10862847
-0.016142858 0.056177147 0.67800003 11126015
-0.014851429 0.056177147 0.67800003 11256575
-0.013560001 0.056177147 0.67800003 11782911
-0.012268572 0.056177147 0.67800003 12110079
-0.010977143 0.056177147 0.67800003 11912703
-0.0096857138 0.056177147 0.67800003 12700669
-0.008394286 0.056177147 0.67800003 13292799
-0.0071028573 0.056177147 0.67800003 13884151
-0.0058114287 0.056177147 0.67800003 14213116
-0.0045066671 0.056011431 0.67600006 14409982
-0.003219048 0.056011431 0.67600006 13620466
-0.0019314287 0.056011431 0.67600006 11714815
-0.00064380956 0.056011431 0.67600006 3951249
-0.098357141 0.057214286 0.67500001 7700618
-0.097071432 0.057214286 0.67500001 4489215
-0.095927626 0.057299051 0.67600006 4949759
-0.094640009 0.057299051 0.67600006 4756223
-0.093628578 0.057468574 0.67800003 4624639
-0.092337146 0.057468574 0.67800003 4887039
-0.091045722 0.057468574 0.67800003 4952831
-0.089754291 0.057468574 0.67800003 4559103
-0.088462859 0.057468574 0.67800003 4361727
-0.086914293 0.057299051 0.67600006 4625407
-0.085626669 0.057299051 0.67600006 4559615
-0.084339052 0.057299051 0.67600006 4296959
-0.083051436 0.057299051 0.67600006 4625919
-0.081763811 0.057299051 0.67600006 5019647
-0.080476195 0.057299051 0.67600006 5085439
-0.079188578 0.057299051 0.67600006 3904255
-0.077900954 0.057299051 0.67600006 4825343
-0.076840006 0.057468574 0.67800003 6201855
-0.075548574 0.057468574 0.67800003 6333439
-0.074366666 0.057553336 0.67900002 6399231
-0.073073335 0.057553336 0.67900002 6136063
-0.071780004 0.057553336 0.67900002 5807103
-0.070486665 0.057553336 0.67900002 5872895
-0.069091432 0.057468574 0.67800003 6462207
-0.067500003 0.057214286 0.67500001 4291051
-0.066214286 0.057214286 0.67500001 3700209
-0.064928576 0.057214286 0.67500001 9818879
-0.062605716 0.056281909 0.66400003 14279420
-0.061340958 0.056281909 0.66400003 16121599
-0.059895243 0.056112386 0.66200006 16711422
-0.058634292 0.056112386 0.66200006 16711422
-0.057286669 0.056027621 0.66100001 16645629
-0.056027621 0.056027621 0.66100001 16579836
-0.05476857 0.056027621 0.66100001 16579836
-0.053347621 0.055858098 0.65900004 16579836
-0.052092385 0.055858098 0.65900004 16579836
-0.050837144 0.055858098 0.65900004 16514043
-0.049581908 0.055858098 0.65900004 16514043
-0.048326671 0.055858098 0.65900004 16514043
-0.047071431 0.055858098 0.65900004 16514043
-0.045816191 0.055858098 0.65900004 16514043
-0.044560954 0.055858098 0.65900004 16514043
-0.043437142 0.056027621 0.66100001 16514043
-0.042178098 0.056027621 0.66100001 16514043
-0.040919047 0.056027621 0.66100001 16711422
-0.039659999 0.056027621 0.66100001 16514043
-0.038400952 0.056027621 0.66100001 16645629
-0.037141904 0.056027621 0.66100001 16121597
-0.035937145 0.056112386 0.66200006 13753049
-0.034623809 0.056027621 0.66100001 12046591
-0.033364762 0.056027621 0.66100001 12309759
-0.032737143 0.057129528 0.67400002 12047615
-0.031500001 0.057214286 0.67500001 10008037
-0.030214285 0.057214286 0.67500001 7975679
-0.02892857 0.057214286 0.67500001 7186172
-0.027642857 0.057214286 0.67500001 7777279
-0.026396191 0.057299051 0.67600006 8566783
-0.025108574 0.057299051 0.67600006 9418239
-0.023820955 0.057299051 0.67600006 9155071
-0.022533335 0.057299051 0.67600006 8892671
-0.021245716 0.057299051 0.67600006 9287423
-0.019958096 0.057299051 0.67600006 9419007
-0.018670477 0.057299051 0.67600006 9550591
-0.017382858 0.057299051 0.67600006 10467839
-0.01609524 0.057299051 0.67600006 10928383
-0.01480762 0.057299051 0.67600006 11322111
-0.013520001 0.057299051 0.67600006 11914239
-0.012232382 0.057299051 0.67600006 12045311
-0.010944762 0.057299051 0.67600006 11913727
-0.0096571436 0.057299051 0.67600006 12044287
-0.008369525 0.057299051 0.67600006 12439039
-0.0070819054 0.057299051 0.67600006 12701950
-0.0057942863 0.057299051 0.67600006 13491455
-0.0045066671 0.057299051 0.67600006 14344959
-0.0032142857 0.057214286 0.67500001 13489650
-0.0019285715 0.057214286 0.67500001 11387391
-0.00064285717 0.057214286 0.67500001 4676512
-0.10077905 0.058413334 0.67400002 11509925
-0.09949524 0.058413334 0.67400002 8623519
-0.098357141 0.058499999 0.67500001 6781315
-0.097071432 0.058499999 0.67500001 4097279
-0.095785715 0.058499999 0.67500001 4689407
-0.094499998 0.058499999 0.67500001 4953343
-0.093352392 0.058586672 0.67600006 4624383
-0.092064768 0.058586672 0.67600006 4427775
-0.090777151 0.058586672 0.67600006 4559359
-0.089489527 0.058586672 0.67600006 4428543
-0.08820191 0.058586672 0.67600006 4231167
-0.086914293 0.058586672 0.67600006 3707135
-0.085626669 0.058586672 0.67600006 4036095
-0.084339052 0.058586672 0.67600006 4690943
-0.083051436 0.058586672 0.67600006 4690943
-0.081763811 0.058586672 0.67600006 4429567
-0.080476195 0.058586672 0.67600006 5021695
-0.079071432 0.058499999 0.67500001 5283071
-0.077785715 0.058499999 0.67500001 5546239
-0.076613337 0.058586672 0.67600006 5940223
-0.07532572 0.058586672 0.67600006 6532351
-0.074038103 0.058586672 0.67600006 6466303
-0.072750486 0.058586672 0.67600006 6137343
-0.071462862 0.058586672 0.67600006 5874175
-0.070175245 0.058586672 0.67600006 5611007
-0.068785712 0.058499999 0.67500001 5937407
-0.067400001 0.058413334 0.67400002 3305701
-0.065920003 0.058240004 0.67200005 4094719
-0.064543813 0.058153335 0.671 8634367
-0.062605716 0.057546668 0.66400003 13423867
-0.061248574 0.057460003 0.66300005 14871295
-0.059895243 0.057373337 0.66200006 16316923
-0.058545712 0.057286669 0.66100001 16645887
-0.057286669 0.057286669 0.66100001 16645629
-0.056027621 0.057286669 0.66100001 16579836
-0.054520003 0.057026673 0.65800005 16514043
-0.053266671 0.057026673 0.65800005 16514043
-0.052013338 0.057026673 0.65800005 16514043
-0.050760005 0.057026673 0.65800005 16514043
-0.049506668 0.057026673 0.65800005 16514043
-0.048253335 0.057026673 0.65800005 16514043
-0.047000002 0.057026673 0.65800005 16514043
-0.045746669 0.057026673 0.65800005 16514043
-0.044560954 0.057113335 0.65900004 16514043
-0.043305717 0.057113335 0.65900004 16514043
-0.042178098 0.057286669 0.66100001 16579836
-0.040919047 0.057286669 0.66100001 16645629
-0.039659999 0.057286669 0.66100001 16383227
-0.038400952 0.057286669 0.66100001 16383227
-0.037141904 0.057286669 0.66100001 15662075
-0.035937145 0.057373337 0.66200006 13490906
-0.034728575 0.057460003 0.66300005 11653119
-0.033465717 0.057460003 0.66300005 11126779
-0.032591429 0.058153335 0.671 10209791
-0.03136 0.058240004 0.67200005 8959730
-0.030169524 0.058413334 0.67400002 7976703
-0.028885717 0.058413334 0.67400002 7318783
-0.027601905 0.058413334 0.67400002 7515647
-0.026357144 0.058499999 0.67500001 7581439
-0.025071429 0.058499999 0.67500001 7055615
-0.023785714 0.058499999 0.67500001 7121407
-0.022499999 0.058499999 0.67500001 7514623
-0.021214286 0.058499999 0.67500001 7580415
-0.019928573 0.058499999 0.67500001 7383551
-0.018670477 0.058586672 0.67600006 7120383
-0.017382858 0.058586672 0.67600006 7841023
-0.01609524 0.058586672 0.67600006 8893695
-0.01480762 0.058586672 0.67600006 9811967
-0.013520001 0.058586672 0.67600006 10140927
-0.012232382 0.058586672 0.67600006 10732543
-0.010944762 0.058586672 0.67600006 10929919
-0.0096428571 0.058499999 0.67500001 11191295
-0.008357143 0.058499999 0.67500001 11059711
-0.0070714285 0.058499999 0.67500001 11913215
-0.0057857144 0.058499999 0.67500001 12571135
-0.0044999998 0.058499999 0.67500001 13227263
-0.0032095239 0.058413334 0.67400002 12174579
-0.0019257143 0.058413334 0.67400002 10926335
-0.00064285717 0.058499999 0.67500001 7044556
0.00064285717 0.058499999 0.67500001 7108550
-0.10077905 0.059697144 0.67400002 11312544
-0.09949524 0.059697144 0.67400002 8492698
-0.09821143 0.059697144 0.67400002 6979459
-0.09692762 0.059697144 0.67400002 4425727
-0.095643811 0.059697144 0.67400002 4886271
-0.094360001 0.059697144 0.67400002 4756735
-0.093214288 0.059785716 0.67500001 4493567
-0.091928571 0.059785716 0.67500001 4034559
-0.090508573 0.059697144 0.67400002 4166143
-0.089224763 0.059697144 0.67400002 4559615
-0.087940954 0.059697144 0.67400002 4362239
-0.086785711 0.059785716 0.67500001 3969535
-0.085500002 0.059785716 0.67500001 4101119
-0.084214285 0.059785716 0.67500001 4822527
-0.082928576 0.059785716 0.67500001 4690943
-0.081642851 0.059785716 0.67500001 3904511
-0.080357142 0.059785716 0.67500001 4496639
-0.079071432 0.059785716 0.67500001 5218047
-0.077785715 0.059785716 0.67500001 5481215
-0.076613337 0.059874289 0.67600006 5677567
-0.07532572 0.059874289 0.67600006 6335487
-0.074038103 0.059874289 0.67600006 6598143
-0.072642855 0.059785716 0.67500001 6269183
-0.071357146 0.059785716 0.67500001 6137599
-0.070071429 0.059785716 0.67500001 5808639
-0.068683811 0.059697144 0.67400002 5544959
-0.067200005 0.059520006 0.67200005 4229113
-0.065920003 0.059520006 0.67200005 5341951
-0.064543813 0.059431426 0.671 8960511
-0.063265711 0.059431426 0.671 10928383
-0.061248574 0.058722861 0.66300005 13165311
-0.059804764 0.058545712 0.66100001 15003641
-0.058545712 0.058545712 0.66100001 15858943
-0.057113335 0.058368575 0.65900004 16711422
-0.055858098 0.058368575 0.65900004 16711422
-0.054520003 0.058280002 0.65800005 16645629
-0.053185716 0.05819143 0.65700001 16579836
-0.051934287 0.05819143 0.65700001 16579834
-0.050682854 0.05819143 0.65700001 16579834
-0.049431428 0.05819143 0.65700001 16579836
-0.048253335 0.058280002 0.65800005 16514043
-0.047000002 0.058280002 0.65800005 16514043
-0.045746669 0.058280002 0.65800005 16514043
-0.044560954 0.058368575 0.65900004 16579836
-0.043305717 0.058368575 0.65900004 16645629
-0.042178098 0.058545712 0.66100001 16579836
-0.040919047 0.058545712 0.66100001 16645629
-0.039659999 0.058545712 0.66100001 16121084
-0.038400952 0.058545712 0.66100001 15792119
-0.037141904 0.058545712 0.66100001 15005692
-0.035937145 0.058634292 0.66200006 13097695
-0.034885716 0.058988571 0.66600001 11522559
-0.033718098 0.059165716 0.66800004 9943532
-0.032591429 0.059431426 0.671 8830463
-0.031313334 0.059431426 0.671 8040956
-0.030080002 0.059520006 0.67200005 7189503
-0.028800001 0.059520006 0.67200005 6860543
-0.027520001 0.059520006 0.67200005 6532351
-0.026318096 0.059697144 0.67400002 6334975
-0.025034286 0.059697144 0.67400002 5349887
-0.023750478 0.059697144 0.67400002 5547263
-0.022466667 0.059697144 0.67400002 6662399
-0.021182857 0.059697144 0.67400002 6267647
-0.019899048 0.059697144 0.67400002 6004735
-0.018642858 0.059785716 0.67500001 6004735
-0.017382858 0.059874289 0.67600006 7054847
-0.016071428 0.059785716 0.67500001 8041727
-0.014785714 0.059785716 0.67500001 8697087
-0.0135 0.059785716 0.67500001 8762879
-0.012214285 0.059785716 0.67500001 9549823
-0.010928571 0.059785716 0.67500001 10010367
-0.0096428571 0.059785716 0.67500001 10206975
-0.008357143 0.059785716 0.67500001 10075391
-0.0070714285 0.059785716 0.67500001 10599423
-0.0057857144 0.059785716 0.67500001 11520511
-0.0044933339 0.059697144 0.67400002 12176383
-0.0032000002 0.059520006 0.67200005 11452666
-0.0019200002 0.059520006 0.67200005 10138111
-0.00064000004 0.059520006 0.67200005 6914262
0.00064190477 0.059697144 0.67400002 7502272
-0.10206286 0.06098095 0.67400002 11049874
-0.10077905 0.06098095 0.67400002 11247253
-0.09949524 0.06098095 0.67400002 7507607
-0.097920008 0.060800005 0.67200005 6257540
-0.096640006 0.060800005 0.67200005 4689919
-0.0952181 0.060709521 0.671 4755711
-0.093939997 0.060709521 0.671 4035839
-0.092800006 0.060800005 0.67200005 3904255
-0.091520004 0.060800005 0.67200005 3838719
-0.090240002 0.060800005 0.67200005 4101887
-0.088960007 0.060800005 0.67200005 4167167
-0.087680012 0.060800005 0.67200005 3838207
-0.086657144 0.06098095 0.67400002 3904511
-0.085373335 0.06098095 0.67400002 4101887
-0.084089532 0.06098095 0.67400002 4232959
-0.082805723 0.06098095 0.67400002 4167167
-0.081521906 0.06098095 0.67400002 4167167
-0.080238096 0.06098095 0.67400002 4496127
-0.078954287 0.06098095 0.67400002 4627711
-0.077670477 0.06098095 0.67400002 5088255
-0.076500006 0.061071429 0.67500001 5547263
-0.075102858 0.06098095 0.67400002 6599935
-0.073819049 0.06098095 0.67400002 7124223
-0.072535239 0.06098095 0.67400002 6597887
-0.07125143 0.06098095 0.67400002 6401023
-0.06996762 0.06098095 0.67400002 6335231
-0.068683811 0.06098095 0.67400002 6137343
-0.067200005 0.060800005 0.67200005 4953081
-0.065821901 0.060709521 0.671 6131455
-0.064447619 0.060619049 0.67000002 7907839
-0.062511429 0.05998572 0.66300005 10072319
-0.061156195 0.059895243 0.66200006 12506623
-0.059804764 0.059804764 0.66100001 15200252
-0.058545712 0.059804764 0.66100001 15595007
-0.057113335 0.059623811 0.65900004 16185850
-0.055773336 0.059533339 0.65800005 16514815
-0.054520003 0.059533339 0.65800005 16514556
-0.053185716 0.059442859 0.65700001 16514556
-0.051934287 0.059442859 0.65700001 16579836
-0.050682854 0.059442859 0.65700001 16579836
-0.049431428 0.059442859 0.65700001 16579836
-0.048253335 0.059533339 0.65800005 16579836
-0.047000002 0.059533339 0.65800005 16579836
-0.045746669 0.059533339 0.65800005 16579836
-0.044560954 0.059623811 0.65900004 16579836
-0.043305717 0.059623811 0.65900004 16645629
-0.042178098 0.059804764 0.66100001 16448763
-0.040919047 0.059804764 0.66100001 16448763
-0.039659999 0.059804764 0.66100001 15990011
-0.038459051 0.059895243 0.66200006 15397874
-0.037198097 0.059895243 0.66200006 14808313
-0.036045719 0.060076192 0.66400003 12637144
-0.034938097 0.060347624 0.66700006 9947647
-0.033718098 0.060438097 0.66800004 8237036
-0.032591429 0.060709521 0.671 7124991
-0.031313334 0.060709521 0.671 6664447
-0.030035239 0.060709521 0.671 6008319
-0.028757142 0.060709521 0.671 5942527
-0.027479049 0.060709521 0.671 5876479
-0.026240002 0.060800005 0.67200005 5942271
-0.024960002 0.060800005 0.67200005 5416447
-0.023680001 0.060800005 0.67200005 5284863
-0.022400003 0.060800005 0.67200005 5809407
