# .PCD v0.7 - Point Cloud Data file format
VERSION 0.7
FIELDS x y z rgb
SIZE 4 4 4 4
TYPE F F F F
COUNT 1 1 1 1
WIDTH 994
HEIGHT 1
VIEWPOINT 0 0 0 1 0 0 0
POINTS 994
DATA ascii
-0.15213333 0.03912 0.65200001 8.6742631e-39
-0.15089144 0.03912 0.65200001 8.3962441e-39
-0.14964953 0.03912 0.65200001 7.7508747e-39
-0.14840762 0.03912 0.65200001 7.9356163e-39
-0.14716572 0.03912 0.65200001 7.9356163e-39
-0.14592381 0.03912 0.65200001 8.0285139e-39
-0.1442381 0.039000001 0.65000004 8.0285139e-39
-0.14278001 0.038940005 0.64900005 8.1207096e-39
-0.14132571 0.038880002 0.648 7.8441227e-39
-0.14009142 0.038880002 0.648 8.2125493e-39
-0.13885714 0.038880002 0.648 9.2267012e-39
-0.13783523 0.038940005 0.64900005 8.5802822e-39
-0.13659906 0.038940005 0.64900005 8.4880866e-39
-0.13557144 0.039000001 0.65000004 8.21185e-39
-0.13474667 0.03912 0.65200001 7.8430675e-39
-0.13350476 0.03912 0.65200001 5.2637857e-39
-0.13246572 0.039180003 0.65300006 4.2496338e-39
-0.13142286 0.039240003 0.65400004 3.8822427e-39
-0.13017714 0.039240003 0.65400004 3.4212646e-39
-0.12912858 0.039300002 0.65500003 3.1414533e-39
-0.12827143 0.039419997 0.65700001 3.1414533e-39
-0.12702 0.039419997 0.65700001 4.798081e-39
-0.12576857 0.039419997 0.65700001 4.2449072e-39
-0.12451714 0.039419997 0.65700001 7.3726796e-39
-0.17941429 0.040919047 0.66100001 1.3640553e-38
-0.17761619 0.040795241 0.65900004 1.2445003e-38
-0.17609334 0.040733337 0.65800005 7.3742435e-39
-0.17457429 0.040671431 0.65700001 3.1453938e-39
-0.17332286 0.040671431 0.65700001 5.1736976e-39
-0.17154764 0.040547621 0.65500003 7.1940841e-39
-0.17004001 0.040485717 0.65400004 8.2082361e-39
-0.1685362 0.040423814 0.65300006 8.0260112e-39
-0.16729239 0.040423814 0.65300006 8.0260112e-39
-0.16579428 0.040361904 0.65200001 8.2107542e-39
-0.16455238 0.040361904 0.65200001 8.763928e-39
-0.16331047 0.040361904 0.65200001 8.5809829e-39
-0.16157143 0.040238097 0.65000004 7.8434178e-39
-0.16033334 0.040238097 0.65000004 7.5671869e-39
-0.15909524 0.040238097 0.65000004 7.3827956e-39
-0.15785715 0.040238097 0.65000004 7.2909755e-39
-0.15637811 0.04017619 0.64900005 7.2909755e-39
-0.15514192 0.04017619 0.64900005 7.4746381e-39
-0.15414286 0.040238097 0.65000004 7.2902469e-39
-0.15290476 0.040238097 0.65000004 7.1980484e-39
-0.15166669 0.040238097 0.65000004 8.2122003e-39
-0.15019716 0.04017619 0.64900005 8.3962441e-39
-0.14896096 0.04017619 0.64900005 7.9352659e-39
-0.14772476 0.04017619 0.64900005 8.1178565e-39
-0.14671429 0.040238097 0.65000004 8.3022478e-39
-0.14547621 0.040238097 0.65000004 8.21185e-39
-0.14401621 0.04017619 0.64900005 8.21185e-39
-0.14256001 0.040114284 0.648 8.3040485e-39
-0.14132571 0.040114284 0.648 8.3040485e-39
-0.14009142 0.040114284 0.648 8.4880866e-39
-0.13885714 0.040114284 0.648 8.395891e-39
-0.13762285 0.040114284 0.648 8.1200327e-39
-0.13638857 0.040114284 0.648 8.304424e-39
-0.13557144 0.040238097 0.65000004 7.9370708e-39
-0.13433333 0.040238097 0.65000004 6.3697451e-39
-0.13350476 0.040361904 0.65200001 2.414328e-39
-0.13246572 0.040423814 0.65300006 1.7689585e-39
-0.13122191 0.040423814 0.65300006 3.6935243e-39
-0.13017714 0.040485717 0.65400004 3.0481549e-39
-0.12893143 0.040485717 0.65400004 3.7821158e-39
-0.12827143 0.040671431 0.65700001 4.3352881e-39
-0.12702 0.040671431 0.65700001 5.7167905e-39
-0.12576857 0.040671431 0.65700001 5.1636167e-39
-0.12451714 0.040671431 0.65700001 7.279405e-39
-0.17529048 0.041795239 0.65500003 9.5847203e-39
-0.17377716 0.041731432 0.65400004 2.4996965e-39
-0.17253143 0.041731432 0.65400004 2.5918921e-39
-0.17128572 0.041731432 0.65400004 4.3388881e-39
-0.16978002 0.041667622 0.65300006 4.7076706e-39
-0.1682781 0.041603811 0.65200001 4.801311e-39
-0.16703619 0.041603811 0.65200001 6.1842454e-39
-0.16528572 0.041476194 0.65000004 6.0934847e-39
-0.16354285 0.041348573 0.648 5.9090935e-39
-0.16230856 0.041348573 0.648 6.9225139e-39
-0.16132286 0.041412383 0.64900005 7.2912964e-39
-0.16008668 0.041412383 0.64900005 7.3831445e-39
-0.15885049 0.041412383 0.64900005 7.5675358e-39
-0.15761429 0.041412383 0.64900005 7.5671799e-39
-0.15613714 0.041348573 0.648 7.6593755e-39
-0.15490285 0.041348573 0.648 7.6590266e-39
-0.15366857 0.041348573 0.648 7.2902441e-39
-0.15219904 0.041284762 0.64700001 7.1987771e-39
-0.15096666 0.041284762 0.64700001 7.5675596e-39
-0.14996572 0.041348573 0.648 7.6590266e-39
-0.14873143 0.041348573 0.648 7.2902441e-39
-0.14749713 0.041348573 0.648 7.5650331e-39
-0.14626285 0.041348573 0.648 7.1040549e-39
-0.14502856 0.041348573 0.648 6.5530448e-39
-0.14379428 0.041348573 0.648 6.5530448e-39
-0.14256001 0.041348573 0.648 5.7251016e-39
-0.14110763 0.041284762 0.64700001 5.356319e-39
-0.13987523 0.041284762 0.64700001 2.8699587e-39
-0.13864285 0.041284762 0.64700001 2.5011762e-39
-0.13762285 0.041348573 0.648 2.5004027e-39
-0.13638857 0.041348573 0.648 1.9472289e-39
-0.13536286 0.041412383 0.64900005 1.5798617e-39
-0.13412668 0.041412383 0.64900005 8.4230369e-40
-0.13309525 0.041476194 0.65000004 2.4056595e-39
-0.13226286 0.041603811 0.65200001 2.7744392e-39
-0.13122191 0.041667622 0.65300006 2.6790458e-39
-0.12997811 0.041667622 0.65300006 2.7712415e-39
-0.12893143 0.041731432 0.65400004 3.9668742e-39
-0.12788096 0.041795239 0.65500003 4.2434611e-39
-0.12663335 0.041795239 0.65500003 4.7962831e-39
-0.12576857 0.041922856 0.65700001 5.1650656e-39
-0.12451714 0.041922856 0.65700001 6.6369195e-39
-0.17599906 0.042911433 0.65300006 1.9452565e-38
-0.17475525 0.042911433 0.65300006 1.0325197e-38
-0.17351143 0.042911433 0.65300006 2.1312699e-39
-0.17226763 0.042911433 0.65300006 1.6702917e-39
-0.17076191 0.042845711 0.65200001 3.2329063e-39
-0.16900001 0.042714287 0.65000004 3.6938844e-39
-0.16750382 0.042648572 0.64900005 4.0637529e-39
-0.16601142 0.042582858 0.648 5.538883e-39
-0.16477714 0.042582858 0.648 5.1737257e-39
-0.16329047 0.042517144 0.64700001 4.6205519e-39
-0.1620581 0.042517144 0.64700001 4.5290331e-39
-0.16082571 0.042517144 0.64700001 5.2665981e-39
-0.15959333 0.042517144 0.64700001 5.9087403e-39
-0.15836096 0.042517144 0.64700001 5.9087403e-39
-0.15712857 0.042517144 0.64700001 5.8165447e-39
-0.1558962 0.042517144 0.64700001 6.3697185e-39
-0.15442477 0.04245143 0.64600003 7.1054997e-39
-0.15319429 0.04245143 0.64600003 6.7367171e-39
-0.15196382 0.04245143 0.64600003 5.6336094e-39
-0.15073334 0.04245143 0.64600003 5.1726312e-39
-0.14950287 0.04245143 0.64600003 5.3559407e-39
-0.1485019 0.042517144 0.64700001 5.8169188e-39
-0.14726953 0.042517144 0.64700001 6.7349221e-39
-0.14603715 0.042517144 0.64700001 6.3661396e-39
-0.14480476 0.042517144 0.64700001 4.3428804e-39
-0.14357239 0.042517144 0.64700001 4.8960542e-39
-0.14234 0.042517144 0.64700001 5.0793692e-39
-0.14110763 0.042517144 0.64700001 4.2496086e-39
-0.13987523 0.042517144 0.64700001 2.2252676e-39
-0.13864285 0.042517144 0.64700001 1.856485e-39
-0.13741048 0.042517144 0.64700001 2.8655853e-39
-0.13617809 0.042517144 0.64700001 1.943629e-39
-0.13515429 0.042582858 0.648 2.6786549e-39
-0.13412668 0.042648572 0.64900005 2.9552404e-39
-0.13309525 0.042714287 0.65000004 3.3236557e-39
-0.13226286 0.042845711 0.65200001 3.2314615e-39
-0.13102096 0.042845711 0.65200001 2.6786549e-39
-0.12997811 0.042911433 0.65300006 3.1396316e-39
-0.12873429 0.042911433 0.65300006 4.0590698e-39
-0.12788096 0.043042861 0.65500003 4.2434611e-39
-0.12663335 0.043042861 0.65500003 4.0605117e-39
-0.12538572 0.043042861 0.65500003 4.8902724e-39
-0.12451714 0.043174285 0.65700001 6.0866324e-39
-0.12326571 0.043174285 0.65700001 8.1149362e-39
-0.12220001 0.043240003 0.65800005 1.6035857e-38
-0.17572953 0.044087619 0.65200001 2.0096814e-38
-0.17448762 0.044087619 0.65200001 1.1522621e-38
-0.17324571 0.044087619 0.65200001 3.9701476e-39
-0.17200381 0.044087619 0.65200001 2.4950175e-39
-0.16997619 0.043884765 0.64900005 2.9559803e-39
-0.16874002 0.043884765 0.64900005 2.771589e-39
-0.16724572 0.04381714 0.648 2.4046296e-39
-0.16575524 0.043749522 0.64700001 2.4046296e-39
-0.16452286 0.043749522 0.64700001 2.3124339e-39
-0.16303809 0.043681905 0.64600003 1.8514558e-39
-0.16180763 0.043681905 0.64600003 1.6691819e-39
-0.16057715 0.043681905 0.64600003 1.7613761e-39
-0.15934667 0.043681905 0.64600003 2.0376001e-39
-0.15811619 0.043681905 0.64600003 2.1297957e-39
-0.15688573 0.043681905 0.64600003 1.1188864e-39
-0.15565524 0.043681905 0.64600003 8.4230369e-40
-0.15394668 0.043546669 0.64400005 1.8535703e-39
-0.15272002 0.043546669 0.64400005 2.4067385e-39
-0.1512581 0.043479048 0.64300001 1.8532116e-39
-0.15003334 0.043479048 0.64300001 1.4844347e-39
-0.14904001 0.043546669 0.64400005 1.8525096e-39
-0.14781334 0.043546669 0.64400005 2.1290965e-39
-0.14658669 0.043546669 0.64400005 1.8525096e-39
-0.14536001 0.043546669 0.64400005 1.5759227e-39
-0.14458096 0.043681905 0.64600003 1.3918915e-39
-0.14335048 0.043681905 0.64600003 1.6684784e-39
-0.14212 0.043681905 0.64600003 1.8525096e-39
-0.14088953 0.043681905 0.64600003 1.8525096e-39
-0.13965906 0.043681905 0.64600003 2.0379588e-39
-0.13864285 0.043749522 0.64700001 2.130153e-39
-0.13741048 0.043749522 0.64700001 2.0369008e-39
-0.13617809 0.043749522 0.64700001 2.0369008e-39
-0.13515429 0.04381714 0.648 2.772647e-39
-0.13412668 0.043884765 0.64900005 2.772647e-39
-0.13309525 0.043952383 0.65000004 3.3236557e-39
-0.13226286 0.044087619 0.65200001 3.2314615e-39
-0.13102096 0.044087619 0.65200001 2.8623455e-39
-0.12997811 0.04415524 0.65300006 3.231128e-39
-0.12873429 0.04415524 0.65300006 3.7835619e-39
-0.12768573 0.044222858 0.65400004 4.2445401e-39
-0.12663335 0.044290476 0.65500003 4.4282391e-39
-0.12538572 0.044290476 0.65500003 5.1658041e-39
-0.12451714 0.044425715 0.65700001 5.0750042e-39
-0.12326571 0.044425715 0.65700001 7.103308e-39
-0.12220001 0.044493336 0.65800005 1.4287024e-38
-0.17572953 0.045329522 0.65200001 2.04656e-38
-0.17448762 0.045329522 0.65200001 1.2536776e-38
-0.17324571 0.045329522 0.65200001 4.8914032e-39
-0.17147619 0.045190476 0.65000004 2.5865125e-39
-0.16997619 0.045120955 0.64900005 3.3229439e-39
-0.16848001 0.045051429 0.648 3.4151395e-39
-0.16698763 0.044981908 0.64700001 3.3218971e-39
-0.16575524 0.044981908 0.64700001 3.1375059e-39
-0.16426858 0.044912383 0.64600003 2.9545411e-39
-0.16303809 0.044912383 0.64600003 2.1247805e-39
-0.16130668 0.044773336 0.64400005 1.6652358e-39
-0.16008002 0.044773336 0.64400005 1.8496243e-39
-0.15885335 0.044773336 0.64400005 2.2198361e-39
-0.15738191 0.044703808 0.64300001 1.6666708e-39
-0.15615714 0.044703808 0.64300001 1.0213112e-39
-0.15493238 0.044703808 0.64300001 1.2056996e-39
-0.15370762 0.044703808 0.64300001 1.6652358e-39
-0.15248285 0.044703808 0.64300001 1.7574301e-39
-0.1512581 0.044703808 0.64300001 2.033654e-39
-0.15003334 0.044703808 0.64300001 2.4024309e-39
-0.14880858 0.044703808 0.64300001 2.2169761e-39
-0.14781334 0.044773336 0.64400005 2.1247805e-39
-0.14658669 0.044773336 0.64400005 1.7588748e-39
-0.14536001 0.044773336 0.64400005 1.7588748e-39
-0.14413334 0.044773336 0.64400005 1.8492656e-39
-0.14290668 0.044773336 0.64400005 2.586825e-39
-0.14168 0.044773336 0.64400005 2.2198361e-39
-0.14088953 0.044912383 0.64600003 2.3120304e-39
-0.13965906 0.044912383 0.64600003 2.4964188e-39
-0.13842857 0.044912383 0.64600003 2.588613e-39
-0.13719809 0.044912383 0.64600003 2.5882557e-39
-0.13617809 0.044981908 0.64700001 2.6804513e-39
-0.13494572 0.044981908 0.64700001 2.6808073e-39
-0.13392 0.045051429 0.648 2.7730015e-39
-0.13289048 0.045120955 0.64900005 3.2314615e-39
-0.13185716 0.045190476 0.65000004 3.1392673e-39
-0.13102096 0.045329522 0.65200001 2.9545411e-39
-0.12997811 0.045399051 0.65300006 3.4155193e-39
-0.12873429 0.045399051 0.65300006 3.7835619e-39
-0.12768573 0.045468576 0.65400004 4.1523444e-39
-0.12663335 0.045538098 0.65500003 4.2438478e-39
-0.12538572 0.045538098 0.65500003 4.704826e-39
-0.12451714 0.04567714 0.65700001 3.8797078e-39
-0.12326571 0.04567714 0.65700001 7.0143592e-39
-0.12220001 0.045746669 0.65800005 1.400794e-38
-0.17324571 0.04657143 0.65200001 5.0758506e-39
-0.17121239 0.046357144 0.64900005 2.3099817e-39
-0.16971429 0.046285711 0.648 3.1392673e-39
-0.16822 0.046214286 0.64700001 3.5080442e-39
-0.16672952 0.046142858 0.64600003 3.5066359e-39
-0.16549905 0.046142858 0.64600003 3.1378534e-39
-0.16426858 0.046142858 0.64600003 3.1385526e-39
-0.16253334 0.046000004 0.64400005 1.9400249e-39
-0.16130668 0.046000004 0.64400005 1.8492656e-39
-0.16008002 0.046000004 0.64400005 2.3102381e-39
-0.15860666 0.045928571 0.64300001 2.4960601e-39
-0.15713714 0.045857143 0.64200002 1.9428947e-39
-0.15591429 0.045857143 0.64200002 1.3890231e-39
-0.15469144 0.045857143 0.64200002 1.66561e-39
-0.15346856 0.045857143 0.64200002 1.849983e-39
-0.15224572 0.045857143 0.64200002 1.7577888e-39
-0.15102287 0.045857143 0.64200002 2.2169761e-39
-0.1498 0.045857143 0.64200002 3.5999105e-39
-0.14857715 0.045857143 0.64200002 2.1269385e-39
-0.14758381 0.045928571 0.64300001 1.8503516e-39
-0.14635904 0.045928571 0.64300001 2.493563e-39
-0.14513429 0.045928571 0.64300001 2.5857586e-39
-0.14390951 0.045928571 0.64300001 2.6790136e-39
-0.14290668 0.046000004 0.64400005 2.8634021e-39
-0.14168 0.046000004 0.64400005 2.588613e-39
-0.14045334 0.046000004 0.64400005 2.588613e-39
-0.13922669 0.046000004 0.64400005 2.8637608e-39
-0.13800001 0.046000004 0.64400005 2.6793723e-39
-0.13719809 0.046142858 0.64600003 2.8630447e-39
-0.13596763 0.046142858 0.64600003 2.8630447e-39
-0.13494572 0.046214286 0.64700001 2.588613e-39
-0.13392 0.046285711 0.648 2.588613e-39
-0.13289048 0.046357144 0.64900005 3.1392673e-39
-0.13185716 0.046428576 0.65000004 3.1392673e-39
-0.13102096 0.04657143 0.65200001 3.2307483e-39
-0.12977906 0.04657143 0.65200001 3.4151395e-39
-0.12873429 0.046642862 0.65300006 3.5066359e-39
-0.12768573 0.046714287 0.65400004 4.0598097e-39
-0.12663335 0.046785716 0.65500003 4.4292943e-39
-0.12538572 0.046785716 0.65500003 4.3370986e-39
-0.12451714 0.046928573 0.65700001 4.6129442e-39
-0.12345334 0.047000002 0.65800005 1.2449573e-38
-0.17121239 0.047593337 0.64900005 2.4921533e-39
-0.16971429 0.04752 0.648 2.9545411e-39
-0.16822 0.047446668 0.64700001 3.4155193e-39
-0.16672952 0.047373332 0.64600003 3.3218971e-39
-0.16549905 0.047373332 0.64600003 3.0453102e-39
-0.16426858 0.047373332 0.64600003 2.8623455e-39
-0.16253334 0.047226671 0.64400005 2.3091717e-39
-0.16130668 0.047226671 0.64400005 2.0340127e-39
-0.15983142 0.047153335 0.64300001 2.126207e-39
-0.15836 0.047080003 0.64200002 2.1269385e-39
-0.15713714 0.047080003 0.64200002 1.8503516e-39
-0.15591429 0.047080003 0.64200002 1.4822879e-39
-0.15469144 0.047080003 0.64200002 1.6666792e-39
-0.15346856 0.047080003 0.64200002 1.9414598e-39
-0.15224572 0.047080003 0.64200002 2.033654e-39
-0.15102287 0.047080003 0.64200002 2.1247805e-39
-0.1498 0.047080003 0.64200002 2.2169761e-39
-0.14857715 0.047080003 0.64200002 1.8510704e-39
-0.14758381 0.047153335 0.64300001 1.6666792e-39
-0.14635904 0.047153335 0.64300001 2.4006583e-39
-0.14513429 0.047153335 0.64300001 2.4928539e-39
-0.14390951 0.047153335 0.64300001 3.0456381e-39
-0.14268476 0.047153335 0.64300001 2.9534439e-39
-0.14168 0.047226671 0.64400005 2.6786549e-39
-0.14045334 0.047226671 0.64400005 2.6786549e-39
-0.13922669 0.047226671 0.64400005 2.8634021e-39
-0.13800001 0.047226671 0.64400005 2.6790136e-39
-0.13719809 0.047373332 0.64600003 2.8634021e-39
-0.13596763 0.047373332 0.64600003 2.8634021e-39
-0.13494572 0.047446668 0.64700001 2.8634021e-39
-0.13392 0.04752 0.648 2.7712078e-39
-0.13289048 0.047593337 0.64900005 3.1392673e-39
-0.13185716 0.047666669 0.65000004 3.1392673e-39
-0.13061905 0.047666669 0.65000004 3.3229439e-39
-0.12977906 0.047813334 0.65200001 3.2307483e-39
-0.12873429 0.047886673 0.65300006 2.9545411e-39
-0.12768573 0.047960002 0.65400004 4.1530843e-39
-0.12644 0.047960002 0.65400004 4.7058713e-39
-0.1251943 0.047960002 0.65400004 4.4292844e-39
-0.12451714 0.048179999 0.65700001 5.071777e-39
-0.17121239 0.048829526 0.64900005 1.6642003e-39
-0.16971429 0.048754286 0.648 2.4953706e-39
-0.16822 0.04867905 0.64700001 3.2329357e-39
-0.16672952 0.04860381 0.64600003 3.69103e-39
-0.16549905 0.04860381 0.64600003 2.7690737e-39
-0.16376001 0.048453335 0.64400005 2.6779514e-39
-0.16253334 0.048453335 0.64400005 2.5857558e-39
-0.16130668 0.048453335 0.64400005 2.0354477e-39
-0.15983142 0.048378095 0.64300001 1.9432534e-39
-0.15836 0.048302859 0.64200002 2.2191341e-39
-0.15713714 0.048302859 0.64200002 2.1269385e-39
-0.15591429 0.048302859 0.64200002 2.4942664e-39
-0.15469144 0.048302859 0.64200002 2.2176837e-39
-0.15346856 0.048302859 0.64200002 2.1258482e-39
-0.15200858 0.048227623 0.64100003 2.1258482e-39
-0.15078762 0.048227623 0.64100003 2.0318758e-39
-0.14956668 0.048227623 0.64100003 2.216267e-39
-0.14834571 0.048227623 0.64100003 2.493563e-39
-0.14735429 0.048302859 0.64200002 2.493563e-39
-0.14635904 0.048378095 0.64300001 2.5850495e-39
-0.14513429 0.048378095 0.64300001 2.6772452e-39
-0.14390951 0.048378095 0.64300001 2.5864607e-39
-0.14268476 0.048378095 0.64300001 2.5864607e-39
-0.14146 0.048378095 0.64300001 2.6779514e-39
-0.14045334 0.048453335 0.64400005 2.8623427e-39
-0.13922669 0.048453335 0.64400005 2.6790136e-39
-0.13800001 0.048453335 0.64400005 2.8634021e-39
-0.13719809 0.04860381 0.64600003 2.6790136e-39
-0.13596763 0.04860381 0.64600003 2.8634021e-39
-0.13494572 0.04867905 0.64700001 2.8634021e-39
-0.13392 0.048754286 0.648 2.6790136e-39
-0.13289048 0.048829526 0.64900005 2.6790136e-39
-0.13185716 0.048904765 0.65000004 3.0477905e-39
-0.13061905 0.048904765 0.65000004 3.2314615e-39
-0.12977906 0.049055237 0.65200001 3.2314615e-39
-0.12873429 0.049130481 0.65300006 3.0460305e-39
-0.12768573 0.049205717 0.65400004 4.0601824e-39
-0.12644 0.049205717 0.65400004 4.0601488e-39
-0.1251943 0.049205717 0.65400004 4.4289313e-39
-0.12394858 0.049205717 0.65400004 6.7295523e-39
-0.12270287 0.049205717 0.65400004 1.5119355e-38
-0.17121239 0.050065719 0.64900005 1.8496579e-39
-0.16945238 0.049911428 0.64700001 2.7712415e-39
-0.16822 0.049911428 0.64700001 3.3244153e-39
-0.16672952 0.049834289 0.64600003 3.7828753e-39
-0.16549905 0.049834289 0.64600003 2.9531146e-39
-0.16376001 0.049680006 0.64400005 2.3109794e-39
-0.16253334 0.049680006 0.64400005 2.2187838e-39
-0.16130668 0.049680006 0.64400005 2.3105954e-39
-0.15983142 0.049602855 0.64300001 2.2184012e-39
-0.15836 0.049525715 0.64200002 2.4013673e-39
-0.15713714 0.049525715 0.64200002 2.4013673e-39
-0.15591429 0.049525715 0.64200002 2.4942664e-39
-0.15469144 0.049525715 0.64200002 2.309878e-39
-0.15346856 0.049525715 0.64200002 2.2169761e-39
-0.15200858 0.049448572 0.64100003 2.2169761e-39
-0.15078762 0.049448572 0.64100003 2.2169761e-39
-0.14956668 0.049448572 0.64100003 2.2169761e-39
-0.14834571 0.049448572 0.64100003 2.493563e-39
-0.14735429 0.049525715 0.64200002 2.5857586e-39
-0.14635904 0.049602855 0.64300001 2.6779514e-39
-0.14513429 0.049602855 0.64300001 2.4935602e-39
-0.14390951 0.049602855 0.64300001 2.6790136e-39
-0.14268476 0.049602855 0.64300001 2.6790136e-39
-0.14146 0.049602855 0.64300001 2.8630447e-39
-0.14045334 0.049680006 0.64400005 2.8630447e-39
-0.13922669 0.049680006 0.64400005 2.8634021e-39
-0.13842857 0.049834289 0.64600003 2.6790136e-39
-0.13719809 0.049834289 0.64600003 2.955955e-39
-0.13617809 0.049911428 0.64700001 2.955955e-39
-0.13515429 0.049988572 0.648 3.1392673e-39
-0.13392 0.049988572 0.648 3.1392673e-39
-0.13289048 0.050065719 0.64900005 3.1392673e-39
-0.13185716 0.050142858 0.65000004 3.2314615e-39
-0.13102096 0.050297141 0.65200001 3.3229439e-39
-0.12977906 0.050297141 0.65200001 3.3229439e-39
-0.12873429 0.050374292 0.65300006 2.8623455e-39
-0.12768573 0.050451431 0.65400004 3.6921062e-39
-0.12644 0.050451431 0.65400004 3.69103e-39
-0.1251943 0.050451431 0.65400004 4.5207906e-39
-0.12394858 0.050451431 0.65400004 8.0199086e-39
-0.16945238 0.05114381 0.64700001 7.490711e-40
-0.16822 0.05114381 0.64700001 2.0398099e-39
-0.16698763 0.05114381 0.64700001 3.323709e-39
-0.16549905 0.051064763 0.64600003 2.6783396e-39
-0.16426858 0.051064763 0.64600003 2.2187838e-39
-0.16253334 0.050906669 0.64400005 2.1265881e-39
-0.16130668 0.050906669 0.64400005 1.9414598e-39
-0.15983142 0.050827619 0.64300001 2.033654e-39
-0.15836 0.050748575 0.64200002 2.0325848e-39
-0.15713714 0.050748575 0.64200002 2.0325848e-39
-0.15591429 0.050748575 0.64200002 2.033654e-39
-0.15469144 0.050748575 0.64200002 2.1258482e-39
-0.15346856 0.050748575 0.64200002 2.4013673e-39
-0.15200858 0.050669525 0.64100003 2.493563e-39
-0.15078762 0.050669525 0.64100003 2.493563e-39
-0.14956668 0.050669525 0.64100003 2.493563e-39
-0.14834571 0.050669525 0.64100003 2.493563e-39
-0.14735429 0.050748575 0.64200002 2.6779542e-39
-0.14635904 0.050827619 0.64300001 2.6786549e-39
-0.14513429 0.050827619 0.64300001 2.4020722e-39
-0.14390951 0.050827619 0.64300001 2.4027897e-39
-0.14268476 0.050827619 0.64300001 2.8637608e-39
-0.14168 0.050906669 0.64400005 2.8630447e-39
-0.14045334 0.050906669 0.64400005 2.6786549e-39
-0.13922669 0.050906669 0.64400005 2.6786549e-39
-0.13842857 0.051064763 0.64600003 2.5864607e-39
-0.13741048 0.05114381 0.64700001 2.5875369e-39
-0.13617809 0.05114381 0.64700001 3.048508e-39
-0.13515429 0.051222857 0.648 3.1392673e-39
-0.13392 0.051222857 0.648 3.1392673e-39
-0.13289048 0.051301908 0.64900005 3.1385526e-39
-0.13185716 0.051380955 0.65000004 3.1385526e-39
-0.13102096 0.051539049 0.65200001 3.0467368e-39
-0.12997811 0.051618099 0.65300006 2.8623455e-39
-0.12873429 0.051618099 0.65300006 2.9538321e-39
-0.12788096 0.051776193 0.65500003 6.3650704e-39
-0.12663335 0.051776193 0.65500003 7.929515e-39
-0.12538572 0.051776193 0.65500003 8.3904932e-39
-0.1256543 0.052408572 0.66300005 9.9535001e-39
-0.12457906 0.052487623 0.66400003 1.7144759e-38
-0.12442858 0.052961905 0.67000002 1.8710633e-38
-0.1233362 0.053040951 0.671 2.0185763e-38
-0.12224001 0.053120002 0.67200005 2.1383188e-38
-0.12132 0.053278096 0.67400002 2.1475384e-38
-0.12003619 0.053278096 0.67400002 2.1198469e-38
-0.11892857 0.053357143 0.67500001 2.1106273e-38
-0.11764286 0.053357143 0.67500001 2.1015176e-38
-0.16971429 0.052457143 0.648 3.9654687e-39
-0.16822 0.052376192 0.64700001 3.6888818e-39
-0.16698763 0.052376192 0.64700001 3.3222446e-39
-0.16549905 0.052295242 0.64600003 2.6768752e-39
-0.16426858 0.052295242 0.64600003 2.493563e-39
-0.16253334 0.052133337 0.64400005 2.493563e-39
-0.16130668 0.052133337 0.64400005 2.1258482e-39
-0.15983142 0.052052379 0.64300001 2.033654e-39
-0.15836 0.051971432 0.64200002 2.2169761e-39
-0.15713714 0.051971432 0.64200002 2.1247805e-39
-0.15591429 0.051971432 0.64200002 2.1247805e-39
-0.15469144 0.051971432 0.64200002 2.2169761e-39
-0.15346856 0.051971432 0.64200002 2.216267e-39
-0.15224572 0.051971432 0.64200002 2.4928539e-39
-0.15102287 0.051971432 0.64200002 2.4942664e-39
-0.14956668 0.051890481 0.64100003 2.4942664e-39
-0.14834571 0.051890481 0.64100003 2.6779514e-39
-0.14758381 0.052052379 0.64300001 2.6779514e-39
-0.14635904 0.052052379 0.64300001 2.6779514e-39
-0.14513429 0.052052379 0.64300001 2.5857558e-39
-0.14390951 0.052052379 0.64300001 2.6790136e-39
-0.14290668 0.052133337 0.64400005 2.6790136e-39
-0.14168 0.052133337 0.64400005 2.3113297e-39
-0.14088953 0.052295242 0.64600003 2.2191341e-39
-0.13965906 0.052295242 0.64600003 2.493563e-39
-0.13842857 0.052295242 0.64600003 2.493563e-39
-0.13741048 0.052376192 0.64700001 3.0467143e-39
-0.13617809 0.052376192 0.64700001 3.323297e-39
-0.13515429 0.052457143 0.648 3.3229439e-39
-0.13392 0.052457143 0.648 3.2307483e-39
-0.13289048 0.052538101 0.64900005 2.6790136e-39
-0.13185716 0.052619051 0.65000004 2.6790136e-39
-0.13102096 0.052780952 0.65200001 2.6790136e-39
-0.12997811 0.05286191 0.65300006 3.1399848e-39
-0.12873429 0.05286191 0.65300006 4.4282026e-39
-0.12788096 0.053023811 0.65500003 7.5628541e-39
-0.12702 0.053185716 0.65700001 8.297922e-39
-0.1265343 0.053509526 0.66100001 8.5745089e-39
-0.12546477 0.05359048 0.66200006 1.124242e-38
-0.12457906 0.053752381 0.66400003 1.8525875e-38
-0.12442858 0.054238096 0.67000002 1.9263793e-38
-0.12315238 0.054238096 0.67000002 2.0093554e-38
-0.12224001 0.054400001 0.67200005 2.0184658e-38
-0.12132 0.054561906 0.67400002 2.0645636e-38
-0.12003619 0.054561906 0.67400002 2.0462339e-38
-0.11875238 0.054561906 0.67400002 2.0277948e-38
-0.11746857 0.054561906 0.67400002 2.0460908e-38
-0.11635715 0.054642856 0.67500001 2.0645299e-38
-0.11558286 0.054885715 0.67800003 2.1014078e-38
-0.16971429 0.053691428 0.648 5.7219388e-39
-0.16822 0.053608574 0.64700001 3.4170481e-39
-0.16698763 0.053608574 0.64700001 1.4862606e-39
-0.16549905 0.053525716 0.64600003 3.7991303e-40
-0.16426858 0.053525716 0.64600003 1.3911937e-39
-0.16253334 0.053360004 0.64400005 2.7741281e-39
-0.16130668 0.053360004 0.64400005 2.6808073e-39
-0.16008002 0.053360004 0.64400005 1.6666708e-39
-0.15885335 0.053360004 0.64400005 1.7578056e-39
-0.15738191 0.053277142 0.64300001 2.0343925e-39
-0.15615714 0.053277142 0.64300001 2.1240714e-39
-0.15469144 0.053194284 0.64200002 2.1240714e-39
-0.15346856 0.053194284 0.64200002 2.2169761e-39
-0.15224572 0.053194284 0.64200002 2.493563e-39
-0.15102287 0.053194284 0.64200002 2.2180425e-39
-0.1498 0.053194284 0.64200002 2.4024309e-39
-0.14857715 0.053194284 0.64200002 2.493563e-39
-0.14758381 0.053277142 0.64300001 2.6779542e-39
-0.14635904 0.053277142 0.64300001 2.6786549e-39
-0.14513429 0.053277142 0.64300001 2.6786549e-39
-0.14413334 0.053360004 0.64400005 2.6786549e-39
-0.14290668 0.053360004 0.64400005 2.6786549e-39
-0.14168 0.053360004 0.64400005 2.3109794e-39
-0.14088953 0.053525716 0.64600003 2.3109794e-39
-0.13987523 0.053608574 0.64700001 2.2191341e-39
-0.13864285 0.053608574 0.64700001 2.1269385e-39
-0.13741048 0.053608574 0.64700001 2.493563e-39
-0.13638857 0.053691428 0.648 3.231128e-39
-0.13515429 0.053691428 0.648 3.4144403e-39
-0.13392 0.053691428 0.648 3.230049e-39
-0.13289048 0.05377429 0.64900005 4.5207486e-39
-0.13185716 0.053857144 0.65000004 5.5349005e-39
-0.13102096 0.054022856 0.65200001 6.6408599e-39
-0.12997811 0.054105718 0.65300006 7.5628162e-39
-0.12912858 0.054271434 0.65500003 7.9284122e-39
-0.12846668 0.054520003 0.65800005 8.7581729e-39
-0.12721334 0.054520003 0.65800005 9.5850412e-39
-0.1265343 0.05476857 0.66100001 1.382604e-38
-0.12546477 0.054851435 0.66200006 1.5022124e-38
-0.12532952 0.055348575 0.66800004 1.9355319e-38
-0.12405715 0.055348575 0.66800004 2.0000992e-38
-0.12315238 0.055514287 0.67000002 2.0554166e-38
-0.12224001 0.055680003 0.67200005 2.0185737e-38
-0.12096001 0.055680003 0.67200005 2.0185737e-38
-0.11968001 0.055680003 0.67200005 2.0277216e-38
-0.11875238 0.055845715 0.67400002 2.0369412e-38
-0.11746857 0.055845715 0.67400002 1.9631523e-38
-0.11618476 0.055845715 0.67400002 1.9447132e-38
-0.11490095 0.055845715 0.67400002 1.9632242e-38
-0.11361714 0.055845715 0.67400002 2.1015176e-38
-0.17716382 0.056112386 0.66200006 1.7052191e-38
-0.17563714 0.056027621 0.66100001 1.613166e-38
-0.1743781 0.056027621 0.66100001 1.2997008e-38
-0.17311905 0.056027621 0.66100001 1.1801031e-38
-0.17030001 0.055519048 0.65500003 8.6663794e-39
-0.16698763 0.054840952 0.64700001 2.965376e-39
-0.16575524 0.054840952 0.64700001 2.917027e-40
-0.16426858 0.054756194 0.64600003 1.1145942e-39
-0.16303809 0.054756194 0.64600003 2.3131374e-39
-0.16180763 0.054756194 0.64600003 2.4982125e-39
-0.16057715 0.054756194 0.64600003 1.484076e-39
-0.15934667 0.054756194 0.64600003 1.66561e-39
-0.15762667 0.054586671 0.64400005 2.0343925e-39
-0.15640001 0.054586671 0.64400005 1.7578056e-39
-0.15493238 0.054501906 0.64300001 1.66561e-39
-0.15370762 0.054501906 0.64300001 2.0347428e-39
-0.15224572 0.054417145 0.64200002 2.0347428e-39
-0.15102287 0.054417145 0.64200002 2.3105954e-39
-0.1498 0.054417145 0.64200002 2.3105954e-39
-0.14857715 0.054417145 0.64200002 2.5857558e-39
-0.14758381 0.054501906 0.64300001 2.5857558e-39
-0.14635904 0.054501906 0.64300001 2.5857558e-39
-0.14536001 0.054586671 0.64400005 2.6779514e-39
-0.14458096 0.054756194 0.64600003 2.6786549e-39
-0.14335048 0.054756194 0.64600003 2.8630447e-39
-0.14212 0.054756194 0.64600003 2.3109794e-39
-0.14110763 0.054840952 0.64700001 2.2187838e-39
-0.13987523 0.054840952 0.64700001 2.2191341e-39
-0.13864285 0.054840952 0.64700001 2.1269385e-39
-0.13741048 0.054840952 0.64700001 2.033654e-39
-0.13638857 0.054925714 0.648 3.0477989e-39
-0.13536286 0.055010479 0.64900005 3.7828332e-39
-0.13412668 0.055010479 0.64900005 3.9672245e-39
-0.13309525 0.05509524 0.65000004 6.2685279e-39
-0.13226286 0.05526476 0.65200001 6.7295061e-39
-0.13122191 0.055349529 0.65300006 7.283749e-39
-0.13017714 0.05543429 0.65400004 7.8369228e-39
-0.12952286 0.055688571 0.65700001 7.8362011e-39
-0.12846668 0.055773336 0.65800005 8.9425487e-39
-0.12721334 0.055773336 0.65800005 1.0413703e-38
-0.1265343 0.056027621 0.66100001 1.659081e-38
-0.12546477 0.056112386 0.66200006 1.7972705e-38
-0.12495428 0.056451429 0.66600001 1.9724422e-38
-0.12368571 0.056451429 0.66600001 2.0001358e-38
-0.12278477 0.056620955 0.66800004 1.9909162e-38
-0.12205809 0.05687524 0.671 1.963402e-38
-0.12096001 0.056960005 0.67200005 1.9357433e-38
-0.11968001 0.056960005 0.67200005 1.9539664e-38
-0.11875238 0.057129528 0.67400002 1.9539664e-38
-0.11746857 0.057129528 0.67400002 1.9354921e-38
-0.11618476 0.057129528 0.67400002 1.917053e-38
-0.11456001 0.056960005 0.67200005 1.9355626e-38
-0.11328001 0.056960005 0.67200005 2.0185386e-38
-0.17995715 0.057460003 0.66300005 1.5578126e-38
-0.17842478 0.057373337 0.66200006 1.5669968e-38
-0.17716382 0.057373337 0.66200006 1.5577773e-38
-0.17563714 0.057286669 0.66100001 1.5485915e-38
-0.17385049 0.057113335 0.65900004 1.4471763e-38
-0.17233334 0.057026673 0.65800005 1.290701e-38
-0.17030001 0.05676667 0.65500003 1.1800662e-38
-0.16879429 0.056680001 0.65400004 9.0373521e-39
-0.16601142 0.056159999 0.648 7.1012439e-39
-0.16452286 0.056073334 0.64700001 5.7222177e-39
-0.16329047 0.056073334 0.64700001 4.154892e-39
-0.1620581 0.056073334 0.64700001 2.497858e-39
-0.16057715 0.055986669 0.64600003 1.0227461e-39
-0.15934667 0.055986669 0.64600003 1.2989953e-39
-0.15811619 0.055986669 0.64600003 2.6819297e-39
-0.15688573 0.055986669 0.64600003 2.2180775e-39
-0.15517333 0.055813335 0.64400005 2.1258819e-39
-0.15370762 0.055726666 0.64300001 2.493563e-39
-0.15248285 0.055726666 0.64300001 2.493563e-39
-0.15102287 0.055640001 0.64200002 1.6666792e-39
-0.1498 0.055640001 0.64200002 2.2198529e-39
-0.14857715 0.055640001 0.64200002 2.3109794e-39
-0.14758381 0.055726666 0.64300001 2.1265881e-39
-0.14635904 0.055726666 0.64300001 2.4013673e-39
-0.14536001 0.055813335 0.64400005 2.493563e-39
-0.14458096 0.055986669 0.64600003 2.6790136e-39
-0.14357239 0.056073334 0.64700001 3.1399848e-39
-0.14234 0.056073334 0.64700001 2.8630868e-39
-0.14132571 0.056159999 0.648 2.8630868e-39
-0.14009142 0.056159999 0.648 4.7033868e-39
-0.13885714 0.056159999 0.648 5.7175388e-39
-0.13762285 0.056159999 0.648 6.2710362e-39
-0.13680953 0.056333333 0.65000004 6.9164056e-39
-0.13557144 0.056333333 0.65000004 7.4667026e-39
-0.13474667 0.056506667 0.65200001 7.6510938e-39
-0.13350476 0.056506667 0.65200001 8.1120888e-39
-0.13246572 0.056593336 0.65300006 8.4808713e-39
-0.1316238 0.05676667 0.65500003 8.6645563e-39
-0.13037619 0.05676667 0.65500003 8.9411432e-39
-0.12972 0.057026673 0.65800005 9.4935799e-39
-0.12846668 0.057026673 0.65800005 1.2536036e-38
-0.12721334 0.057026673 0.65800005 1.4838789e-38
-0.12615144 0.057113335 0.65900004 1.9356375e-38
-0.12527524 0.057286669 0.66100001 1.9632945e-38
-0.12439144 0.057460003 0.66300005 1.9632945e-38
-0.12312857 0.057460003 0.66300005 1.9448903e-38
-0.12186572 0.057460003 0.66300005 1.9172316e-38
-0.12187619 0.058066666 0.67000002 1.898722e-38
-0.1206 0.058066666 0.67000002 1.898722e-38
-0.11968001 0.058240004 0.67200005 1.8894674e-38
-0.11840001 0.058240004 0.67200005 1.8894674e-38
-0.11746857 0.058413334 0.67400002 1.9079056e-38
-0.11618476 0.058413334 0.67400002 1.9171251e-38
-0.11456001 0.058240004 0.67200005 1.926378e-38
-0.11328001 0.058240004 0.67200005 1.9448172e-38
-0.112 0.058240004 0.67200005 1.9632236e-38
-0.17995715 0.058722861 0.66300005 1.5485915e-38
-0.17842478 0.058634292 0.66200006 1.5485588e-38
-0.17716382 0.058634292 0.66200006 1.502461e-38
-0.17563714 0.058545712 0.66100001 1.4472144e-38
-0.17385049 0.058368575 0.65900004 1.4287753e-38
-0.17233334 0.058280002 0.65800005 1.4379975e-38
-0.17082001 0.05819143 0.65700001 1.2536062e-38
-0.16905238 0.058014289 0.65500003 1.1431527e-38
-0.16754858 0.057925716 0.65400004 1.0325179e-38
-0.16503145 0.057482861 0.64900005 8.0242442e-39
-0.16354285 0.057394285 0.648 6.4569185e-39
-0.16230856 0.057394285 0.648 4.5236745e-39
-0.16082571 0.057305716 0.64700001 4.0626964e-39
-0.15959333 0.057305716 0.64700001 4.2467443e-39
-0.15811619 0.057217143 0.64600003 3.0482011e-39
-0.15688573 0.057217143 0.64600003 2.8630447e-39
-0.15565524 0.057217143 0.64600003 2.9552404e-39
-0.15442477 0.057217143 0.64600003 2.771589e-39
-0.15272002 0.057040006 0.64400005 2.3106108e-39
-0.1512581 0.056951426 0.64300001 1.2971778e-39
-0.15003334 0.056951426 0.64300001 2.2191341e-39
-0.14880858 0.056951426 0.64300001 4.0605117e-39
-0.14758381 0.056951426 0.64300001 3.5995336e-39
-0.14635904 0.056951426 0.64300001 2.6804513e-39
-0.14581144 0.057217143 0.64600003 2.9570382e-39
-0.14480476 0.057305716 0.64700001 4.7058853e-39
-0.14379428 0.057394285 0.648 4.7058853e-39
-0.14256001 0.057394285 0.648 4.9810625e-39
-0.14154382 0.057482861 0.64900005 5.1654538e-39
-0.14030764 0.057482861 0.64900005 6.3621767e-39
-0.13907143 0.057482861 0.64900005 6.8231548e-39
-0.13783523 0.057482861 0.64900005 7.3748727e-39
-0.13723047 0.057748571 0.65200001 7.4670683e-39
-0.13598858 0.057748571 0.65200001 8.0184218e-39
-0.13474667 0.057748571 0.65200001 8.2950087e-39
-0.13370954 0.057837147 0.65300006 9.0307941e-39
-0.13266857 0.057925716 0.65400004 9.1229897e-39
-0.13142286 0.057925716 0.65400004 9.308474e-39
-0.13037619 0.058014289 0.65500003 9.4006696e-39
-0.12952286 0.05819143 0.65700001 1.087541e-38
-0.12846668 0.058280002 0.65800005 1.5392996e-38
-0.12721334 0.058280002 0.65800005 1.7236595e-38
-0.12615144 0.058368575 0.65900004 1.9541485e-38
-0.12527524 0.058545712 0.66100001 1.981806e-38
-0.12420382 0.058634292 0.66200006 1.9264886e-38
-0.12294286 0.058634292 0.66200006 1.9356354e-38
-0.12168191 0.058634292 0.66200006 1.8895376e-38
-0.12078477 0.05881143 0.66400003 1.8894294e-38
-0.12024 0.059165716 0.66800004 1.898649e-38
-0.11932381 0.059342857 0.67000002 1.8802829e-38
-0.11840001 0.059520006 0.67200005 1.8526242e-38
-0.11712001 0.059520006 0.67200005 1.8801383e-38
-0.11618476 0.059697144 0.67400002 1.8801383e-38
-0.11456001 0.059520006 0.67200005 1.8894285e-38
-0.11328001 0.059520006 0.67200005 1.8894285e-38
-0.112 0.059520006 0.67200005 1.9723677e-38
-0.18275811 0.060076192 0.66400003 1.705254e-38
-0.18122002 0.05998572 0.66300005 1.6592968e-38
-0.17968573 0.059895243 0.66200006 1.5486621e-38
-0.17842478 0.059895243 0.66200006 1.4563644e-38
-0.17689618 0.059804764 0.66100001 1.4287058e-38
-0.17510572 0.059623811 0.65900004 1.3918628e-38
-0.17385049 0.059623811 0.65900004 1.3273259e-38
-0.17233334 0.059533339 0.65800005 1.3457287e-38
-0.17030001 0.059261907 0.65500003 1.2535331e-38
-0.16905238 0.059261907 0.65500003 1.1431867e-38
-0.16754858 0.059171431 0.65400004 1.1524063e-38
-0.16579428 0.058990479 0.65200001 1.0049311e-38
-0.16455238 0.058990479 0.65200001 9.311746e-39
-0.16280954 0.058809526 0.65000004 8.5745467e-39
-0.1610743 0.05862857 0.648 7.8369817e-39
-0.15959333 0.058538094 0.64700001 7.8380382e-39
-0.15836096 0.058538094 0.64700001 6.7316907e-39
-0.15712857 0.058538094 0.64700001 6.7316585e-39
-0.1558962 0.058538094 0.64700001 6.9160497e-39
-0.15442477 0.058447622 0.64600003 6.914647e-39
-0.15319429 0.058447622 0.64600003 6.6380601e-39
-0.15196382 0.058447622 0.64600003 6.8224514e-39
-0.15026668 0.05826667 0.64400005 6.914647e-39
-0.14904001 0.05826667 0.64400005 6.8238443e-39
-0.1485019 0.058538094 0.64700001 7.1004312e-39
-0.14726953 0.058538094 0.64700001 6.9164295e-39
-0.14626285 0.05862857 0.648 6.9164295e-39
-0.14502856 0.05862857 0.648 7.1919402e-39
-0.14401621 0.058719054 0.64900005 7.3763314e-39
-0.14278001 0.058719054 0.64900005 7.0075461e-39
-0.14176191 0.058809526 0.65000004 6.9153505e-39
-0.14052381 0.058809526 0.65000004 7.7433091e-39
-0.13928573 0.058809526 0.65000004 8.2964828e-39
-0.13804764 0.058809526 0.65000004 8.7549331e-39
-0.13723047 0.058990479 0.65200001 8.8471287e-39
-0.13598858 0.058990479 0.65200001 9.3999269e-39
-0.13495335 0.059080955 0.65300006 9.5843182e-39
-0.13370954 0.059080955 0.65300006 1.0414082e-38
-0.13266857 0.059171431 0.65400004 1.0690669e-38
-0.13142286 0.059171431 0.65400004 1.0874005e-38
-0.13037619 0.059261907 0.65500003 1.3271091e-38
-0.12952286 0.059442859 0.65700001 1.5298668e-38
-0.12827143 0.059442859 0.65700001 1.9816253e-38
-0.12721334 0.059533339 0.65800005 1.9633681e-38
-0.12596001 0.059533339 0.65800005 1.9725877e-38
-0.1248962 0.059623811 0.65900004 1.9173392e-38
-0.12401619 0.059804764 0.66100001 1.8620219e-38
-0.12275714 0.059804764 0.66100001 1.852767e-38
-0.1214981 0.059804764 0.66100001 1.8343279e-38
-0.12042096 0.059895243 0.66200006 1.8526591e-38
-0.12006001 0.060347624 0.66700006 1.8710982e-38
-0.11878953 0.060347624 0.66700006 1.8710622e-38
-0.11769524 0.060438097 0.66800004 1.8157448e-38
-0.11712001 0.060800005 0.67200005 1.8248573e-38
-0.11584001 0.060800005 0.67200005 1.8340769e-38
-0.11490095 0.06098095 0.67400002 1.8342202e-38
-0.11361714 0.06098095 0.67400002 1.8526594e-38
-0.11233333 0.06098095 0.67400002 1.8893916e-38
-0.18319142 0.061063815 0.66100001 1.8894294e-38
-0.18193239 0.061063815 0.66100001 1.6958186e-38
-0.18094668 0.061156195 0.66200006 1.6406795e-38
-0.17968573 0.061156195 0.66200006 1.4931665e-38
-0.17815524 0.061063815 0.66100001 1.4010797e-38
-0.17689618 0.061063815 0.66100001 1.4102993e-38
-0.17510572 0.060879052 0.65900004 1.3918981e-38
-0.17358668 0.060786668 0.65800005 1.3550199e-38
-0.17207143 0.060694285 0.65700001 1.3733864e-38
-0.17030001 0.060509525 0.65500003 1.3272886e-38
-0.16905238 0.060509525 0.65500003 1.253641e-38
-0.16754858 0.060417145 0.65400004 1.1706649e-38
-0.16604859 0.060324769 0.65300006 1.1337516e-38
-0.16455238 0.060232379 0.65200001 1.1153125e-38
-0.16331047 0.060232379 0.65200001 1.1152409e-38
-0.16157143 0.060047623 0.65000004 1.0046061e-38
-0.16008668 0.059955239 0.64900005 8.482665e-39
-0.15860571 0.059862856 0.648 7.2841218e-39
-0.15737143 0.059862856 0.648 7.8333271e-39
-0.1558962 0.05977048 0.64700001 8.109914e-39
-0.15466382 0.05977048 0.64700001 7.8354977e-39
-0.15343143 0.05977048 0.64700001 7.8354977e-39
-0.15196382 0.059678096 0.64600003 7.6511134e-39
-0.15073334 0.059678096 0.64600003 7.6511134e-39
-0.14950287 0.059678096 0.64600003 7.558915e-39
-0.14873143 0.059862856 0.648 7.558915e-39
-0.14749713 0.059862856 0.648 7.3752426e-39
-0.14626285 0.059862856 0.648 7.4674382e-39
-0.14525239 0.059955239 0.64900005 7.558915e-39
-0.1442381 0.060047623 0.65000004 7.6511106e-39
-0.14300001 0.060047623 0.65000004 7.8340558e-39
-0.14176191 0.060047623 0.65000004 7.8340558e-39
-0.14052381 0.060047623 0.65000004 8.8467587e-39
-0.13971429 0.060232379 0.65200001 9.03115e-39
-0.13847238 0.060232379 0.65200001 9.2141063e-39
-0.13723047 0.060232379 0.65200001 9.6750845e-39
-0.13619716 0.060324769 0.65300006 1.0228268e-38
-0.13495335 0.060324769 0.65300006 1.0320464e-38
-0.13370954 0.060324769 0.65300006 1.0598848e-38
-0.13266857 0.060417145 0.65400004 1.0506653e-38
-0.13142286 0.060417145 0.65400004 1.1517562e-38
-0.13017714 0.060417145 0.65400004 1.5850757e-38
-0.12912858 0.060509525 0.65500003 1.7786149e-38
-0.12827143 0.060694285 0.65700001 2.0275431e-38
-0.12721334 0.060786668 0.65800005 2.0185766e-38
-0.12596001 0.060786668 0.65800005 1.9540397e-38
-0.12470668 0.060786668 0.65800005 1.8528044e-38
-0.12364096 0.060879052 0.65900004 1.8343653e-38
-0.12275714 0.061063815 0.66100001 1.8435491e-38
-0.1214981 0.061063815 0.66100001 1.82511e-38
-0.12042096 0.061156195 0.66200006 1.834293e-38
-0.11934 0.061248574 0.66300005 1.8250734e-38
-0.11878953 0.061618101 0.66700006 1.8434035e-38
-0.11751906 0.061618101 0.66700006 1.8065253e-38
-0.11642287 0.061710481 0.66800004 1.7880145e-38
-0.11566762 0.061987616 0.671 1.8064536e-38
-0.11456001 0.062080003 0.67200005 1.7881221e-38
-0.11328001 0.062080003 0.67200005 1.769683e-38
-0.112 0.062080003 0.67200005 1.8618045e-38
-0.11104953 0.062264767 0.67400002 2.0738545e-38
-0.18319142 0.062322859 0.66100001 1.6499733e-38
-0.18193239 0.062322859 0.66100001 1.5854364e-38
-0.18094668 0.06241715 0.66200006 1.5854697e-38
-0.17941429 0.062322859 0.66100001 1.4195176e-38
-0.17815524 0.062322859 0.66100001 1.4195551e-38
-0.17689618 0.062322859 0.66100001 1.4748725e-38
-0.17510572 0.062134288 0.65900004 1.4379948e-38
-0.17358668 0.062040005 0.65800005 1.4195557e-38
-0.17207143 0.061945714 0.65700001 1.401116e-38
-0.17004001 0.06166286 0.65400004 1.3734573e-38
-0.1685362 0.061568573 0.65300006 1.2812271e-38
-0.16729239 0.061568573 0.65300006 1.2074706e-38
-0.16579428 0.06147429 0.65200001 1.1982876e-38
-0.16455238 0.06147429 0.65200001 1.2167267e-38
-0.16280954 0.061285719 0.65000004 1.1982883e-38
-0.16157143 0.061285719 0.65000004 1.16141e-38
-0.16008668 0.061191436 0.64900005 1.0877556e-38
-0.15860571 0.061097141 0.648 1.013999e-38
-0.15737143 0.061097141 0.648 1.0230426e-38
-0.15613714 0.061097141 0.648 9.5850567e-39
-0.15490285 0.061097141 0.648 9.2159084e-39
-0.15343143 0.061002858 0.64700001 8.8471259e-39
-0.15219904 0.061002858 0.64700001 8.6634647e-39
-0.15096666 0.061002858 0.64700001 8.7556603e-39
-0.14973429 0.061002858 0.64700001 8.6627767e-39
-0.14873143 0.061097141 0.648 8.570581e-39
-0.14749713 0.061097141 0.648 8.5709187e-39
-0.14648859 0.061191436 0.64900005 8.6631144e-39
-0.14525239 0.061191436 0.64900005 8.9396985e-39
-0.1442381 0.061285719 0.65000004 9.1240897e-39
-0.14300001 0.061285719 0.65000004 9.2166385e-39
-0.14176191 0.061285719 0.65000004 9.585421e-39
-0.14095619 0.06147429 0.65200001 1.0046032e-38
-0.13971429 0.06147429 0.65200001 1.0046032e-38
-0.13847238 0.06147429 0.65200001 1.032227e-38
-0.13744096 0.061568573 0.65300006 1.0598857e-38
-0.13598858 0.06147429 0.65200001 1.0692134e-38
-0.13474667 0.06147429 0.65200001 1.0599939e-38
-0.13370954 0.061568573 0.65300006 1.0875807e-38
-0.13246572 0.061568573 0.65300006 1.2811915e-38
-0.13122191 0.061568573 0.65300006 1.5943671e-38
-0.13017714 0.06166286 0.65400004 2.0092475e-38
-0.12893143 0.06166286 0.65400004 1.9816265e-38
-0.12827143 0.061945714 0.65700001 1.9447482e-38
-0.12702 0.061945714 0.65700001 1.9264149e-38
-0.12576857 0.061945714 0.65700001 1.8342193e-38
-0.12470668 0.062040005 0.65800005 1.7974157e-38
-0.12345334 0.062040005 0.65800005 1.7881961e-38
-0.12238572 0.062134288 0.65900004 1.7605377e-38
-0.12113048 0.062134288 0.65900004 1.7236595e-38
-0.12023905 0.062322859 0.66100001 1.7604642e-38
-0.11916001 0.06241715 0.66200006 1.7604642e-38
-0.11807715 0.062511429 0.66300005 1.7880133e-38
-0.11751906 0.062888578 0.66700006 1.7972328e-38
-0.11624859 0.062888578 0.66700006 1.7787947e-38
-0.11549524 0.063171431 0.67000002 1.751136e-38
-0.11438952 0.063265711 0.671 1.7419883e-38
-0.11311143 0.063265711 0.671 1.7235492e-38
-0.11183333 0.063265711 0.671 1.7603204e-38
-0.11072001 0.063360006 0.67200005 2.0092486e-38
-0.18346858 0.063678101 0.66200006 1.6497208e-38
-0.18220764 0.063678101 0.66200006 1.5944034e-38
-0.18067333 0.063581906 0.66100001 1.5026034e-38
-0.17941429 0.063581906 0.66100001 1.4565056e-38
-0.17761619 0.063389532 0.65900004 1.4748725e-38
-0.17636096 0.063389532 0.65900004 1.4933116e-38
-0.17484002 0.063293338 0.65800005 1.4563621e-38
-0.17358668 0.063293338 0.65800005 1.4379229e-38
-0.17154764 0.063004769 0.65500003 1.4010814e-38
-0.16978002 0.06281238 0.65300006 1.3826423e-38
-0.1685362 0.06281238 0.65300006 1.3179984e-38
-0.16729239 0.06281238 0.65300006 1.2903397e-38
-0.16579428 0.062716186 0.65200001 1.2903397e-38
-0.16455238 0.062716186 0.65200001 1.2350224e-38
-0.16280954 0.062523812 0.65000004 1.2166914e-38
-0.16157143 0.062523812 0.65000004 1.2074718e-38
-0.16008668 0.062427621 0.64900005 1.1430764e-38
-0.15860571 0.062331427 0.648 1.152296e-38
-0.15737143 0.062331427 0.648 1.1246024e-38
-0.15613714 0.062331427 0.648 1.0508459e-38
-0.15490285 0.062331427 0.648 9.9538434e-39
-0.15343143 0.062235236 0.64700001 9.8616478e-39
-0.15219904 0.062235236 0.64700001 9.8598527e-39
-0.15096666 0.062235236 0.64700001 1.0044244e-38
-0.14973429 0.062235236 0.64700001 9.8605912e-39
-0.14873143 0.062331427 0.648 9.3074174e-39
-0.14749713 0.062331427 0.648 9.3988773e-39
-0.14626285 0.062331427 0.648 9.6754642e-39
-0.14525239 0.062427621 0.64900005 9.8602044e-39
-0.1442381 0.062523812 0.65000004 9.8602044e-39
-0.14300001 0.062523812 0.65000004 9.4932114e-39
-0.14176191 0.062523812 0.65000004 1.0046385e-38
-0.14095619 0.062716186 0.65200001 1.0600292e-38
-0.13971429 0.062716186 0.65200001 1.0508096e-38
-0.13847238 0.062716186 0.65200001 1.004856e-38
-0.13723047 0.062716186 0.65200001 1.0786125e-38
-0.13598858 0.062716186 0.65200001 1.0787204e-38
-0.13474667 0.062716186 0.65200001 1.0418421e-38
-0.13350476 0.062716186 0.65200001 1.1244928e-38
-0.13246572 0.06281238 0.65300006 1.4748362e-38
-0.13122191 0.06281238 0.65300006 1.7326983e-38
-0.12997811 0.06281238 0.65300006 1.990846e-38
-0.12873429 0.06281238 0.65300006 1.9541846e-38
-0.12788096 0.063004769 0.65500003 1.8804281e-38
-0.12702 0.063197143 0.65700001 1.8803908e-38
-0.12576857 0.063197143 0.65700001 1.7881951e-38
-0.12451714 0.063197143 0.65700001 1.7421336e-38
-0.12326571 0.063197143 0.65700001 1.7329141e-38
-0.12220001 0.063293338 0.65800005 1.7328071e-38
-0.12094668 0.063293338 0.65800005 1.7235876e-38
-0.11987524 0.063389532 0.65900004 1.7511021e-38
-0.11898 0.063581906 0.66100001 1.7511021e-38
-0.11789906 0.063678101 0.66200006 1.7510997e-38
-0.11734285 0.064062856 0.66600001 1.7510997e-38
-0.11624859 0.064159051 0.66700006 1.7327322e-38
-0.11515048 0.064255238 0.66800004 1.7419517e-38
-0.11421905 0.064447619 0.67000002 1.751136e-38
-0.11311143 0.064543813 0.671 1.7326969e-38
-0.11183333 0.064543813 0.671 1.7603177e-38
-0.11072001 0.06464 0.67200005 1.9908068e-38
-0.18500859 0.065037146 0.66300005 1.5854344e-38
-0.18346858 0.064939052 0.66200006 1.5485591e-38
-0.18220764 0.064939052 0.66200006 1.5116808e-38
-0.18067333 0.06484095 0.66100001 1.5209004e-38
-0.17887144 0.064644769 0.65900004 1.5209004e-38
-0.17734668 0.064546667 0.65800005 1.5393016e-38
-0.17609334 0.064546667 0.65800005 1.5485211e-38
-0.17457429 0.064448565 0.65700001 1.5025318e-38
-0.17332286 0.064448565 0.65700001 1.456434e-38
-0.17128572 0.06415429 0.65400004 1.4656532e-38
-0.16952001 0.063958094 0.65200001 1.4011163e-38
-0.1682781 0.063958094 0.65200001 1.3271827e-38
-0.16729239 0.064056195 0.65300006 1.3087435e-38
-0.16579428 0.063958094 0.65200001 1.2904113e-38
-0.16455238 0.063958094 0.65200001 1.2166548e-38
-0.16280954 0.063761905 0.65000004 1.2258391e-38
-0.16157143 0.063761905 0.65000004 1.2258391e-38
-0.16008668 0.063663818 0.64900005 1.2258741e-38
-0.15885049 0.063663818 0.64900005 1.207435e-38
-0.15761429 0.063663818 0.64900005 1.2074703e-38
-0.15637811 0.063663818 0.64900005 1.1890312e-38
-0.15514192 0.063663818 0.64900005 1.1890315e-38
-0.15366857 0.063565716 0.648 1.1890315e-38
-0.15243429 0.063565716 0.648 1.1798468e-38
-0.15096666 0.063467614 0.64700001 1.1245294e-38
-0.14973429 0.063467614 0.64700001 1.1335718e-38
-0.14873143 0.063565716 0.648 1.0966936e-38
-0.14749713 0.063565716 0.648 1.0966929e-38
-0.14626285 0.063565716 0.648 1.0874733e-38
-0.14525239 0.063663818 0.64900005 1.1152373e-38
-0.1442381 0.063761905 0.65000004 1.1889938e-38
-0.14300001 0.063761905 0.65000004 1.1060177e-38
-0.14176191 0.063761905 0.65000004 1.1060177e-38
-0.14095619 0.063958094 0.65200001 1.1245647e-38
-0.13971429 0.063958094 0.65200001 1.1153452e-38
-0.13847238 0.063958094 0.65200001 1.1060917e-38
-0.13680953 0.063761905 0.65000004 1.1614091e-38
