# .PCD v0.7 - Point Cloud Data file format
VERSION 0.7
FIELDS x y z rgb
SIZE 4 4 4 4
TYPE F F F F
COUNT 1 1 1 1
WIDTH 964
HEIGHT 1
VIEWPOINT 0 0 0 1 0 0 0
POINTS 964
DATA ascii
-0.07268858 0.044460002 0.74100006 1.5299021e-38
-0.07108476 0.044340003 0.73900002 1.5299021e-38
-0.069677144 0.044340003 0.73900002 1.5115708e-38
-0.068177149 0.044280004 0.73800004 1.5207904e-38
-0.066590481 0.044160005 0.73600006 1.5391216e-38
-0.065188579 0.044160005 0.73600006 1.5391216e-38
-0.063613333 0.044040002 0.73400003 1.548268e-38
-0.062215243 0.044040002 0.73400003 1.5759267e-38
-0.060817145 0.044040002 0.73400003 1.5390495e-38
-0.059419051 0.044040002 0.73400003 1.5298299e-38
-0.058020953 0.044040002 0.73400003 1.5390161e-38
-0.056622859 0.044040002 0.73400003 1.520577e-38
-0.055224765 0.044040002 0.73400003 1.5206447e-38
-0.053826667 0.044040002 0.73400003 1.5390838e-38
-0.052428573 0.044040002 0.73400003 1.5298319e-38
-0.051030476 0.044040002 0.73400003 1.5574906e-38
-0.049632382 0.044040002 0.73400003 1.5299021e-38
-0.048234288 0.044040002 0.73400003 1.5114629e-38
-0.04683619 0.044040002 0.73400003 1.5022458e-38
-0.045438096 0.044040002 0.73400003 1.4838066e-38
-0.044040002 0.044040002 0.73400003 1.5021718e-38
-0.042641908 0.044040002 0.73400003 1.5113913e-38
-0.041356195 0.044160005 0.73600006 1.4745125e-38
-0.03995429 0.044160005 0.73600006 1.4468538e-38
-0.038657144 0.044280004 0.73800004 1.4191971e-38
-0.037251431 0.044280004 0.73800004 1.400758e-38
-0.03589429 0.044340003 0.73900002 1.3823878e-38
-0.03448667 0.044340003 0.73900002 1.3547291e-38
-0.03307905 0.044340003 0.73900002 1.2810452e-38
-0.031757142 0.044460002 0.74100006 1.2718256e-38
-0.030345717 0.044460002 0.74100006 1.2443827e-38
-0.028934287 0.044460002 0.74100006 1.2351632e-38
-0.027560001 0.044520002 0.74200004 1.244384e-38
-0.026217142 0.044640001 0.74400002 1.2536036e-38
-0.024866669 0.044760004 0.74600005 1.2628219e-38
-0.023477143 0.044819999 0.74700004 1.3089197e-38
-0.022113333 0.044939999 0.74900001 1.3088841e-38
-0.020714287 0.045000002 0.75000006 1.3365428e-38
-0.019337144 0.045120001 0.75200003 1.3548757e-38
-0.017952381 0.04524 0.75400001 1.5116083e-38
-0.016516192 0.04524 0.75400001 1.5206807e-38
-0.01514 0.045420002 0.75700003 1.6589741e-38
-0.013770477 0.04566 0.76100004 1.9538925e-38
-0.012320952 0.04566 0.76100004 2.3505138e-38
-0.010871429 0.04566 0.76100004 2.2860878e-38
-0.091560952 0.046861906 0.75700003 2.2401705e-38
-0.089880958 0.046738099 0.75500005 1.9359249e-38
-0.088442862 0.046738099 0.75500005 1.7238e-38
-0.086659051 0.046552382 0.75200003 1.1798458e-38
-0.085000008 0.046428576 0.75000006 1.1613714e-38
-0.083125718 0.046180952 0.74600005 1.1890301e-38
-0.081704766 0.046180952 0.74600005 1.115418e-38
-0.080068566 0.046057142 0.74400002 1.1430767e-38
-0.078651428 0.046057142 0.74400002 1.2628203e-38
-0.077026673 0.045933336 0.74200004 1.3181377e-38
-0.075613335 0.045933336 0.74200004 1.3916797e-38
-0.074200004 0.045933336 0.74200004 1.4008992e-38
-0.07268858 0.045871433 0.74100006 1.4654011e-38
-0.071277149 0.045871433 0.74100006 1.4746207e-38
-0.069677144 0.045747619 0.73900002 1.4929872e-38
-0.068269521 0.045747619 0.73900002 1.5022068e-38
-0.066771425 0.045685716 0.73800004 1.4653283e-38
-0.065188579 0.04556191 0.73600006 1.4745478e-38
-0.063786671 0.04556191 0.73600006 1.4654011e-38
-0.062384766 0.04556191 0.73600006 1.4838403e-38
-0.060817145 0.045438096 0.73400003 1.4838405e-38
-0.059419051 0.045438096 0.73400003 1.5022797e-38
-0.058020953 0.045438096 0.73400003 1.5851137e-38
-0.056622859 0.045438096 0.73400003 1.5482354e-38
-0.055224765 0.045438096 0.73400003 1.5666721e-38
-0.053826667 0.045438096 0.73400003 1.548233e-38
-0.052428573 0.045438096 0.73400003 1.4652935e-38
-0.051030476 0.045438096 0.73400003 1.5482696e-38
-0.049632382 0.045438096 0.73400003 1.5024239e-38
-0.048234288 0.045438096 0.73400003 1.4839847e-38
-0.04683619 0.045438096 0.73400003 1.5115004e-38
-0.045438096 0.045438096 0.73400003 1.4746221e-38
-0.044040002 0.045438096 0.73400003 1.4654011e-38
-0.0427581 0.04556191 0.73600006 1.446962e-38
-0.041356195 0.04556191 0.73600006 1.4193389e-38
-0.04006286 0.045685716 0.73800004 1.4101194e-38
-0.038657144 0.045685716 0.73800004 1.3272882e-38
-0.037301905 0.045747619 0.73900002 1.2719708e-38
-0.03589429 0.045747619 0.73900002 1.2536739e-38
-0.03448667 0.045747619 0.73900002 1.2444544e-38
-0.03307905 0.045747619 0.73900002 1.2075758e-38
-0.031757142 0.045871433 0.74100006 1.2075758e-38
-0.030345717 0.045871433 0.74100006 1.2167248e-38
-0.028934287 0.045871433 0.74100006 1.2167248e-38
-0.027560001 0.045933336 0.74200004 1.2351642e-38
-0.026217142 0.046057142 0.74400002 1.2536033e-38
-0.024866669 0.046180952 0.74600005 1.2628216e-38
-0.023477143 0.046242859 0.74700004 1.2720412e-38
-0.022113333 0.046366669 0.74900001 1.2996998e-38
-0.020714287 0.046428576 0.75000006 1.2904803e-38
-0.019337144 0.046552382 0.75200003 1.3456205e-38
-0.017952381 0.046676192 0.75400001 1.4285966e-38
-0.016516192 0.046676192 0.75400001 1.4376323e-38
-0.01514 0.046861906 0.75700003 1.6773409e-38
-0.013788572 0.047171429 0.76200002 1.9538925e-38
-0.012337144 0.047171429 0.76200002 2.3504418e-38
-0.010885715 0.047171429 0.76200002 2.2767964e-38
-0.091560952 0.048303809 0.75700003 2.2493175e-38
-0.090119049 0.048303809 0.75700003 1.9819502e-38
-0.088442862 0.048176192 0.75500005 1.7883016e-38
-0.08688952 0.048112381 0.75400001 1.106054e-38
-0.085000008 0.047857147 0.75000006 1.1338571e-38
-0.083125718 0.047601905 0.74600005 1.2352723e-38
-0.081704766 0.047601905 0.74600005 1.2076134e-38
-0.080068566 0.047474284 0.74400002 1.1246373e-38
-0.078651428 0.047474284 0.74400002 1.0509486e-38
-0.077234283 0.047474284 0.74400002 8.3889868e-39
-0.075817145 0.047474284 0.74400002 1.1060177e-38
-0.074200004 0.04734667 0.74200004 1.290409e-38
-0.07268858 0.04728286 0.74100006 1.3179251e-38
-0.071277149 0.04728286 0.74100006 1.3455838e-38
-0.069677144 0.047155239 0.73900002 1.3456528e-38
-0.068269521 0.047155239 0.73900002 1.3364332e-38
-0.066771425 0.047091432 0.73800004 1.299484e-38
-0.065188579 0.046963815 0.73600006 1.2718254e-38
-0.063786671 0.046963815 0.73600006 1.3363989e-38
-0.062384766 0.046963815 0.73600006 1.3456184e-38
-0.060982861 0.046963815 0.73600006 1.2627152e-38
-0.059580956 0.046963815 0.73600006 1.2627152e-38
-0.058020953 0.04683619 0.73400003 1.308632e-38
-0.056622859 0.04683619 0.73400003 1.3178516e-38
-0.055224765 0.04683619 0.73400003 1.3270714e-38
-0.053826667 0.04683619 0.73400003 1.3270714e-38
-0.052428573 0.04683619 0.73400003 1.3087049e-38
-0.051030476 0.04683619 0.73400003 1.327144e-38
-0.049632382 0.04683619 0.73400003 1.3087036e-38
-0.048234288 0.04683619 0.73400003 1.2718254e-38
-0.04683619 0.04683619 0.73400003 1.2902998e-38
-0.045438096 0.04683619 0.73400003 1.327178e-38
-0.044160005 0.046963815 0.73600006 1.2533512e-38
-0.0427581 0.046963815 0.73600006 1.2441316e-38
-0.041468576 0.047091432 0.73800004 1.2718607e-38
-0.04006286 0.047091432 0.73800004 1.2995194e-38
-0.038709525 0.047155239 0.73900002 1.2166887e-38
-0.037301905 0.047155239 0.73900002 1.2074692e-38
-0.03589429 0.047155239 0.73900002 1.2444538e-38
-0.03448667 0.047155239 0.73900002 1.2444538e-38
-0.033168573 0.04728286 0.74100006 1.2167954e-38
-0.031757142 0.04728286 0.74100006 1.2167954e-38
-0.030345717 0.04728286 0.74100006 1.2075761e-38
-0.028973334 0.04734667 0.74200004 1.1799174e-38
-0.027560001 0.04734667 0.74200004 1.1707351e-38
-0.026287619 0.047601905 0.74600005 1.2076134e-38
-0.024900001 0.047665719 0.74700004 1.1707692e-38
-0.023540001 0.047793336 0.74900001 1.1707692e-38
-0.022113333 0.047793336 0.74900001 1.281296e-38
-0.020714287 0.047857147 0.75000006 1.2905156e-38
-0.019388571 0.048112381 0.75400001 1.3548769e-38
-0.017976193 0.048176192 0.75500005 1.5116095e-38
-0.016538097 0.048176192 0.75500005 1.4930951e-38
-0.015180001 0.048431434 0.75900006 1.6590473e-38
-0.013788572 0.048622858 0.76200002 1.9263417e-38
-0.012337144 0.048622858 0.76200002 2.3506577e-38
-0.093248583 0.049877148 0.75900006 2.2583929e-38
-0.091560952 0.049745716 0.75700003 2.240026e-38
-0.090119049 0.049745716 0.75700003 2.0003174e-38
-0.088442862 0.049614292 0.75500005 1.8252865e-38
-0.087004766 0.049614292 0.75500005 1.1430389e-38
-0.08522667 0.049417142 0.75200003 1.115311e-38
-0.083460003 0.049219999 0.74900001 1.2167262e-38
-0.081704766 0.049022861 0.74600005 1.1801335e-38
-0.080283813 0.049022861 0.74600005 1.0602792e-38
-0.078651428 0.048891429 0.74400002 1.0142537e-38
-0.077234283 0.048891429 0.74400002 9.2205803e-39
-0.075817145 0.048891429 0.74400002 1.1152373e-38
-0.0744 0.048891429 0.74400002 1.2811894e-38
-0.072786666 0.048760001 0.74200004 1.2628219e-38
-0.071373336 0.048760001 0.74200004 1.2904806e-38
-0.069865718 0.04869429 0.74100006 1.2813326e-38
-0.068269521 0.048562858 0.73900002 1.272113e-38
-0.066861905 0.048562858 0.73900002 1.2351992e-38
-0.065365717 0.048497144 0.73800004 1.2351992e-38
-0.063960001 0.048497144 0.73800004 1.2904818e-38
-0.062384766 0.04836572 0.73600006 1.2167253e-38
-0.060982861 0.04836572 0.73600006 1.2166519e-38
-0.059580956 0.04836572 0.73600006 1.2166519e-38
-0.058179051 0.04836572 0.73600006 1.2259083e-38
-0.056622859 0.048234288 0.73400003 1.2443474e-38
-0.055224765 0.048234288 0.73400003 1.2351992e-38
-0.053826667 0.048234288 0.73400003 1.2351992e-38
-0.052428573 0.048234288 0.73400003 1.1798465e-38
-0.051030476 0.048234288 0.73400003 1.2075052e-38
-0.049632382 0.048234288 0.73400003 1.2351992e-38
-0.048234288 0.048234288 0.73400003 1.2167601e-38
-0.04683619 0.048234288 0.73400003 1.1613345e-38
-0.045438096 0.048234288 0.73400003 1.2166519e-38
-0.044160005 0.04836572 0.73600006 1.2258347e-38
-0.0427581 0.04836572 0.73600006 1.2258347e-38
-0.041468576 0.048497144 0.73800004 1.2166875e-38
-0.04006286 0.048497144 0.73800004 1.2166875e-38
-0.038709525 0.048562858 0.73900002 1.1982496e-38
-0.037301905 0.048562858 0.73900002 1.1982496e-38
-0.03589429 0.048562858 0.73900002 1.2536017e-38
-0.03448667 0.048562858 0.73900002 1.2167235e-38
-0.033168573 0.04869429 0.74100006 1.1614064e-38
-0.031757142 0.04869429 0.74100006 1.1890651e-38
-0.030345717 0.04869429 0.74100006 1.1706978e-38
-0.028973334 0.048760001 0.74200004 1.1799174e-38
-0.027560001 0.048760001 0.74200004 1.1340354e-38
-0.026287619 0.049022861 0.74600005 1.1248158e-38
-0.024900001 0.049088575 0.74700004 1.1431818e-38
-0.023540001 0.049219999 0.74900001 1.1800601e-38
-0.022142859 0.049285717 0.75000006 1.3272134e-38
-0.020769523 0.049417142 0.75200003 1.3364329e-38
-0.019414287 0.049614292 0.75500005 1.3456924e-38
-0.017976193 0.049614292 0.75500005 1.4563272e-38
-0.016581906 0.049745716 0.75700003 1.4563235e-38
-0.015180001 0.049877148 0.75900006 1.6499344e-38
-0.013788572 0.050074287 0.76200002 1.9171222e-38
-0.012337144 0.050074287 0.76200002 2.3504416e-38
-0.093248583 0.051322859 0.75900006 2.2583573e-38
-0.091802858 0.051322859 0.75900006 2.2492093e-38
-0.090119049 0.05118762 0.75700003 2.0279398e-38
-0.088677146 0.05118762 0.75700003 1.8713478e-38
-0.087004766 0.051052384 0.75500005 1.2167588e-38
-0.085453331 0.050984763 0.75400001 1.1246756e-38
-0.083571434 0.050714288 0.75000006 1.1523343e-38
-0.082033336 0.050646666 0.74900001 1.1616565e-38
-0.080283813 0.050443813 0.74600005 9.9570439e-39
-0.078862861 0.050443813 0.74600005 9.5897398e-39
-0.077234283 0.050308574 0.74400002 9.4975442e-39
-0.075817145 0.050308574 0.74400002 1.0968718e-38
-0.0744 0.050308574 0.74400002 1.1521892e-38
-0.072786666 0.050173335 0.74200004 1.2167225e-38
-0.071373336 0.050173335 0.74200004 1.2259421e-38
-0.069865718 0.050105717 0.74100006 1.2167601e-38
-0.068269521 0.049970478 0.73900002 1.2167601e-38
-0.066861905 0.049970478 0.73900002 1.2167248e-38
-0.065365717 0.04990286 0.73800004 1.2351639e-38
-0.063960001 0.04990286 0.73800004 1.2444188e-38
-0.062554292 0.04990286 0.73800004 1.1983209e-38
-0.061148573 0.04990286 0.73800004 1.2167248e-38
-0.059580956 0.049767621 0.73600006 1.2259443e-38
-0.058179051 0.049767621 0.73600006 1.2259446e-38
-0.056777146 0.049767621 0.73600006 1.2351642e-38
-0.055375241 0.049767621 0.73600006 1.2443822e-38
-0.053973336 0.049767621 0.73600006 1.2536017e-38
-0.052428573 0.049632382 0.73400003 1.2167248e-38
-0.051030476 0.049632382 0.73400003 1.2167248e-38
-0.049632382 0.049632382 0.73400003 1.2260149e-38
-0.048234288 0.049632382 0.73400003 1.2352345e-38
-0.04683619 0.049632382 0.73400003 1.262713e-38
-0.045438096 0.049632382 0.73400003 1.2442739e-38
-0.044160005 0.049767621 0.73600006 1.2166519e-38
-0.0427581 0.049767621 0.73600006 1.2535301e-38
-0.041468576 0.04990286 0.73800004 1.2075758e-38
-0.04006286 0.04990286 0.73800004 1.1983563e-38
-0.038709525 0.049970478 0.73900002 1.198214e-38
-0.037301905 0.049970478 0.73900002 1.1797749e-38
-0.03589429 0.049970478 0.73900002 1.1429322e-38
-0.03448667 0.049970478 0.73900002 1.1337127e-38
-0.033168573 0.050105717 0.74100006 1.1428966e-38
-0.031757142 0.050105717 0.74100006 1.1613358e-38
-0.030345717 0.050105717 0.74100006 1.1705909e-38
-0.028973334 0.050173335 0.74200004 1.2074692e-38
-0.027560001 0.050173335 0.74200004 1.189173e-38
-0.026287619 0.050443813 0.74600005 1.2629295e-38
-0.024966666 0.050646666 0.74900001 1.2905872e-38
-0.02357143 0.050714288 0.75000006 1.3643437e-38
-0.022201905 0.050849527 0.75200003 1.419408e-38
-0.020824762 0.050984763 0.75400001 1.4562863e-38
-0.019414287 0.051052384 0.75500005 1.5021016e-38
-0.018023811 0.05118762 0.75700003 1.6035168e-38
-0.016581906 0.05118762 0.75700003 1.5668507e-38
-0.015180001 0.051322859 0.75900006 1.7604615e-38
-0.013788572 0.051525716 0.76200002 1.9355616e-38
-0.012337144 0.051525716 0.76200002 2.3412224e-38
-0.093248583 0.052768577 0.75900006 2.2675774e-38
-0.091802858 0.052768577 0.75900006 2.2492096e-38
-0.090357147 0.052768577 0.75900006 2.0463792e-38
-0.088677146 0.052629523 0.75700003 1.9174837e-38
-0.087235235 0.052629523 0.75700003 1.2536752e-38
-0.085566677 0.05249048 0.75500005 1.2810839e-38
-0.084017143 0.052420951 0.75400001 1.2534252e-38
-0.082142867 0.052142859 0.75000006 1.1984995e-38
-0.080606669 0.052073333 0.74900001 1.0141082e-38
-0.078862861 0.051864766 0.74600005 9.8645204e-39
-0.077234283 0.051725715 0.74400002 9.8645204e-39
-0.075817145 0.051725715 0.74400002 9.7726961e-39
-0.074600004 0.051864766 0.74600005 9.8648918e-39
-0.072982863 0.051725715 0.74400002 1.0600288e-38
-0.071373336 0.051586669 0.74200004 1.0508092e-38
-0.069865718 0.051517144 0.74100006 1.0875407e-38
-0.068454288 0.051517144 0.74100006 1.1705168e-38
-0.066861905 0.051378097 0.73900002 1.2350913e-38
-0.065454289 0.051378097 0.73900002 1.2535304e-38
-0.064046666 0.051378097 0.73900002 1.2351642e-38
-0.062554292 0.051308576 0.73800004 1.216725e-38
-0.061148573 0.051308576 0.73800004 1.2167601e-38
-0.05974286 0.051308576 0.73800004 1.2167601e-38
-0.058337145 0.051308576 0.73800004 1.2259446e-38
-0.056777146 0.051169526 0.73600006 1.2351642e-38
-0.055375241 0.051169526 0.73600006 1.2260149e-38
-0.053973336 0.051169526 0.73600006 1.2167954e-38
-0.052571431 0.051169526 0.73600006 1.2075058e-38
-0.051169526 0.051169526 0.73600006 1.1982862e-38
-0.049767621 0.051169526 0.73600006 1.1614064e-38
-0.04836572 0.051169526 0.73600006 1.1890651e-38
-0.046963815 0.051169526 0.73600006 1.262713e-38
-0.04556191 0.051169526 0.73600006 1.2166152e-38
-0.044280004 0.051308576 0.73800004 1.1520799e-38
-0.042874288 0.051308576 0.73800004 1.1520799e-38
-0.041524764 0.051378097 0.73900002 1.1430401e-38
-0.040117145 0.051378097 0.73900002 1.1614793e-38
-0.038709525 0.051378097 0.73900002 1.1427883e-38
-0.037301905 0.051378097 0.73900002 1.1520079e-38
-0.035991434 0.051517144 0.74100006 1.1152022e-38
-0.03458 0.051517144 0.74100006 1.1336413e-38
-0.033168573 0.051517144 0.74100006 1.1245294e-38
-0.031800002 0.051586669 0.74200004 1.1706272e-38
-0.030386668 0.051586669 0.74200004 1.1982481e-38
-0.028973334 0.051586669 0.74200004 1.2443459e-38
-0.027634285 0.051725715 0.74400002 1.2720412e-38
-0.026322858 0.051934287 0.74700004 1.318139e-38
-0.024966666 0.052073333 0.74900001 1.3365418e-38
-0.02357143 0.052142859 0.75000006 1.3918592e-38
-0.022201905 0.052281909 0.75200003 1.4745103e-38
-0.020824762 0.052420951 0.75400001 1.5390472e-38
-0.019414287 0.05249048 0.75500005 1.630993e-38
-0.018023811 0.052629523 0.75700003 1.6586517e-38
-0.016581906 0.052629523 0.75700003 1.6035857e-38
-0.01522 0.05290762 0.76100004 1.6865618e-38
-0.013788572 0.052977145 0.76200002 1.9723326e-38
-0.012337144 0.052977145 0.76200002 2.3411152e-38
-0.010957143 0.053324763 0.76700002 2.2582487e-38
-0.093248583 0.054214288 0.75900006 2.1846739e-38
-0.091802858 0.054214288 0.75900006 2.2215143e-38
-0.090357147 0.054214288 0.75900006 2.0924404e-38
-0.088677146 0.05407143 0.75700003 1.9542199e-38
-0.087235235 0.05407143 0.75700003 1.5485591e-38
-0.085566677 0.053928573 0.75500005 1.3548432e-38
-0.084017143 0.05385714 0.75400001 1.3640627e-38
-0.082361907 0.053714287 0.75200003 1.3918958e-38
-0.080714293 0.053571433 0.75000006 1.4656523e-38
-0.079180002 0.0535 0.74900001 1.3550891e-38
-0.077441908 0.053285718 0.74600005 1.2167957e-38
-0.076020956 0.053285718 0.74600005 1.1706639e-38
-0.074600004 0.053285718 0.74600005 1.0600292e-38
-0.072982863 0.053142861 0.74400002 1.0875447e-38
-0.071373336 0.052999999 0.74200004 1.059886e-38
-0.069865718 0.052928574 0.74100006 1.0691392e-38
-0.068454288 0.052928574 0.74100006 1.1336761e-38
-0.066861905 0.052785717 0.73900002 1.225907e-38
-0.065454289 0.052785717 0.73900002 1.2443462e-38
-0.064046666 0.052785717 0.73900002 1.2167248e-38
-0.06263905 0.052785717 0.73900002 1.2075052e-38
-0.061231427 0.052785717 0.73900002 1.1983563e-38
-0.05974286 0.052714288 0.73800004 1.1983563e-38
-0.058337145 0.052714288 0.73800004 1.1982856e-38
-0.056931432 0.052714288 0.73800004 1.1982856e-38
-0.055525716 0.052714288 0.73800004 1.1799168e-38
-0.053973336 0.052571431 0.73600006 1.0692821e-38
-0.052571431 0.052571431 0.73600006 1.1244945e-38
-0.051169526 0.052571431 0.73600006 1.1429336e-38
-0.049767621 0.052571431 0.73600006 1.1154177e-38
-0.04836572 0.052571431 0.73600006 1.1154177e-38
-0.046963815 0.052571431 0.73600006 1.1613345e-38
-0.045685716 0.052714288 0.73800004 1.1797736e-38
-0.044280004 0.052714288 0.73800004 1.1704841e-38
-0.042874288 0.052714288 0.73800004 1.152045e-38
-0.041524764 0.052785717 0.73900002 1.1889236e-38
-0.040117145 0.052785717 0.73900002 1.2903387e-38
-0.038709525 0.052785717 0.73900002 1.225873e-38
-0.037402861 0.052928574 0.74100006 1.2350926e-38
-0.035991434 0.052928574 0.74100006 1.3179268e-38
-0.03458 0.052928574 0.74100006 1.3455855e-38
-0.033168573 0.052928574 0.74100006 1.4655434e-38
-0.031800002 0.052999999 0.74200004 1.4839825e-38
-0.030386668 0.052999999 0.74200004 1.4470339e-38
-0.029051431 0.053142861 0.74400002 1.4746926e-38
-0.027634285 0.053142861 0.74400002 1.4838766e-38
-0.026322858 0.053357143 0.74700004 1.5207548e-38
-0.024966666 0.0535 0.74900001 1.4932043e-38
-0.02357143 0.053571433 0.75000006 1.5393021e-38
-0.022201905 0.053714287 0.75200003 1.5851473e-38
-0.020824762 0.05385714 0.75400001 1.6312451e-38
-0.019414287 0.053928573 0.75500005 1.6680858e-38
-0.018023811 0.05407143 0.75700003 1.6865249e-38
-0.016625715 0.054214288 0.75900006 1.6312817e-38
-0.01522 0.054357145 0.76100004 1.6589404e-38
-0.013788572 0.054428574 0.76200002 1.9446379e-38
-0.012418096 0.054785714 0.76700002 2.3504788e-38
-0.010957143 0.054785714 0.76700002 2.286016e-38
-0.094694294 0.055660002 0.75900006 2.2031484e-38
-0.091802858 0.055660002 0.75900006 2.2492809e-38
-0.090357147 0.055660002 0.75900006 2.1386462e-38
-0.088911436 0.055660002 0.75900006 1.972623e-38
-0.087235235 0.055513334 0.75700003 1.6038405e-38
-0.085566677 0.055366673 0.75500005 1.5207199e-38
-0.084017143 0.055293337 0.75400001 1.4377439e-38
-0.082361907 0.055146668 0.75200003 1.446962e-38
-0.080714293 0.055000003 0.75000006 1.4838403e-38
-0.079180002 0.054926667 0.74900001 1.4102296e-38
-0.077441908 0.05470667 0.74600005 1.2627166e-38
-0.076020956 0.05470667 0.74600005 1.2443118e-38
-0.074600004 0.05470667 0.74600005 1.2074336e-38
-0.073179051 0.05470667 0.74600005 1.1705553e-38
-0.071565717 0.054560002 0.74400002 1.1060184e-38
-0.069960006 0.054413334 0.74200004 1.1243136e-38
-0.068454288 0.054340001 0.74100006 1.1704114e-38
-0.067042857 0.054340001 0.74100006 1.2259083e-38
-0.065454289 0.054193333 0.73900002 1.2166887e-38
-0.064046666 0.054193333 0.73900002 1.1982856e-38
-0.06263905 0.054193333 0.73900002 1.1982856e-38
-0.061231427 0.054193333 0.73900002 1.1615496e-38
-0.059823811 0.054193333 0.73900002 1.1707692e-38
-0.058416191 0.054193333 0.73900002 1.15233e-38
-0.057008572 0.054193333 0.73900002 1.1615496e-38
-0.055525716 0.054120004 0.73800004 1.1522947e-38
-0.054120004 0.054120004 0.73800004 1.124636e-38
-0.052714288 0.054120004 0.73800004 1.096907e-38
-0.051308576 0.054120004 0.73800004 1.096907e-38
-0.04990286 0.054120004 0.73800004 1.0233653e-38
-0.048497144 0.054120004 0.73800004 1.0971218e-38
-0.047091432 0.054120004 0.73800004 1.2628216e-38
-0.045685716 0.054120004 0.73800004 1.2720412e-38
-0.044280004 0.054120004 0.73800004 1.299486e-38
-0.042932384 0.054193333 0.73900002 1.3087056e-38
-0.041524764 0.054193333 0.73900002 1.3087056e-38
-0.040117145 0.054193333 0.73900002 1.3455838e-38
-0.038709525 0.054193333 0.73900002 1.3548401e-38
-0.037402861 0.054340001 0.74100006 1.4285966e-38
-0.035991434 0.054340001 0.74100006 1.4470375e-38
-0.03458 0.054340001 0.74100006 1.4470375e-38
-0.033168573 0.054340001 0.74100006 1.5390514e-38
-0.031800002 0.054413334 0.74200004 1.5298319e-38
-0.030386668 0.054413334 0.74200004 1.4652935e-38
-0.029051431 0.054560002 0.74400002 1.5206109e-38
-0.027708573 0.05470667 0.74600005 1.5390144e-38
-0.026393333 0.054926667 0.74900001 1.548234e-38
-0.025000002 0.055000003 0.75000006 1.5298668e-38
-0.023634287 0.055146668 0.75200003 1.566745e-38
-0.022260953 0.055293337 0.75400001 1.5575608e-38
-0.020852383 0.055366673 0.75500005 1.6128781e-38
-0.019465715 0.055513334 0.75700003 1.6497561e-38
-0.018023811 0.055513334 0.75700003 1.6589757e-38
-0.016625715 0.055660002 0.75900006 1.6404647e-38
-0.01522 0.05580667 0.76100004 1.6496842e-38
-0.013788572 0.055880003 0.76200002 1.9077597e-38
-0.012418096 0.056246668 0.76700002 2.3503707e-38
-0.010957143 0.056246668 0.76700002 2.2768698e-38
-0.092044763 0.057256192 0.76100004 2.2492085e-38
-0.090357147 0.05710572 0.75900006 2.1662324e-38
-0.088677146 0.056955241 0.75700003 1.9818788e-38
-0.087235235 0.056955241 0.75700003 1.5854376e-38
-0.085566677 0.056804765 0.75500005 1.4103356e-38
-0.084017143 0.056729525 0.75400001 1.3734573e-38
-0.082361907 0.05657905 0.75200003 1.3733871e-38
-0.080714293 0.056428574 0.75000006 1.3918262e-38
-0.079180002 0.056353334 0.74900001 1.2628265e-38
-0.077441908 0.056127623 0.74600005 1.1798504e-38
-0.076020956 0.056127623 0.74600005 1.1707339e-38
-0.074700005 0.056202862 0.74700004 1.2076121e-38
-0.073179051 0.056127623 0.74600005 1.1799534e-38
-0.071565717 0.055977143 0.74400002 1.189173e-38
-0.069960006 0.055826671 0.74200004 1.1798485e-38
-0.068546675 0.055826671 0.74200004 1.1706289e-38
-0.067042857 0.055751432 0.74100006 1.1890315e-38
-0.065631427 0.055751432 0.74100006 1.1798119e-38
-0.064220004 0.055751432 0.74100006 1.2166538e-38
-0.06263905 0.055600952 0.73900002 1.2535321e-38
-0.061231427 0.055600952 0.73900002 1.2628216e-38
-0.059823811 0.055600952 0.73900002 1.2904803e-38
-0.058416191 0.055600952 0.73900002 1.354872e-38
-0.057008572 0.055600952 0.73900002 1.3733112e-38
-0.055600952 0.055600952 0.73900002 1.382497e-38
-0.054120004 0.055525716 0.73800004 1.382497e-38
-0.052714288 0.055525716 0.73800004 1.3917537e-38
-0.051308576 0.055525716 0.73800004 1.4194123e-38
-0.04990286 0.055525716 0.73800004 1.4010084e-38
-0.048497144 0.055525716 0.73800004 1.4010084e-38
-0.047091432 0.055525716 0.73800004 1.4286674e-38
-0.045747619 0.055600952 0.73900002 1.4655456e-38
-0.044340003 0.055600952 0.73900002 1.4838057e-38
-0.042932384 0.055600952 0.73900002 1.5022448e-38
-0.041524764 0.055600952 0.73900002 1.5205401e-38
-0.040225718 0.055751432 0.74100006 1.566638e-38
-0.038814291 0.055751432 0.74100006 1.4654751e-38
-0.037402861 0.055751432 0.74100006 1.4562556e-38
-0.035991434 0.055751432 0.74100006 1.4470726e-38
-0.03458 0.055751432 0.74100006 1.3733161e-38
-0.033213332 0.055826671 0.74200004 1.4100138e-38
-0.031800002 0.055826671 0.74200004 1.4100138e-38
-0.030468572 0.055977143 0.74400002 1.4100499e-38
-0.029051431 0.055977143 0.74400002 1.4192694e-38
-0.027708573 0.056127623 0.74600005 1.5206106e-38
-0.026393333 0.056353334 0.74900001 1.5390497e-38
-0.025000002 0.056428574 0.75000006 1.5298668e-38
-0.023634287 0.05657905 0.75200003 1.5575254e-38
-0.022260953 0.056729525 0.75400001 1.5759283e-38
-0.020852383 0.056804765 0.75500005 1.6128065e-38
-0.019465715 0.056955241 0.75700003 1.6128425e-38
-0.018023811 0.056955241 0.75700003 1.6681599e-38
-0.016669523 0.057256192 0.76100004 1.6404647e-38
-0.015240001 0.057331428 0.76200002 1.6312451e-38
-0.013788572 0.057331428 0.76200002 1.8800654e-38
-0.012401905 0.057632383 0.76600003 2.3502991e-38
-0.010942858 0.057632383 0.76600003 2.2676875e-38
-0.093494289 0.058705717 0.76100004 2.2123311e-38
-0.092044763 0.058705717 0.76100004 2.2307693e-38
-0.090357147 0.058551431 0.75900006 2.1662324e-38
-0.088677146 0.058397144 0.75700003 1.9635476e-38
-0.087235235 0.058397144 0.75700003 1.5671064e-38
-0.085566677 0.058242857 0.75500005 1.3000628e-38
-0.084017143 0.058165714 0.75400001 1.2724041e-38
-0.082361907 0.058011431 0.75200003 1.2631819e-38
-0.080929525 0.058011431 0.75200003 1.2631819e-38
-0.079285719 0.057857145 0.75000006 1.1249613e-38
-0.077545717 0.057625718 0.74700004 1.088083e-38
-0.076122858 0.057625718 0.74700004 1.023506e-38
-0.074700005 0.057625718 0.74700004 1.171019e-38
-0.073179051 0.057548571 0.74600005 1.2261228e-38
-0.071565717 0.057394285 0.74400002 1.2261228e-38
-0.070148572 0.057394285 0.74400002 1.2351653e-38
-0.068546675 0.057240006 0.74200004 1.2075066e-38
-0.067042857 0.057162859 0.74100006 1.2166534e-38
-0.065631427 0.057162859 0.74100006 1.2350926e-38
-0.064220004 0.057162859 0.74100006 1.2994853e-38
-0.06263905 0.057008572 0.73900002 1.3087049e-38
-0.061231427 0.057008572 0.73900002 1.4008632e-38
-0.059823811 0.057008572 0.73900002 1.4285219e-38
-0.058416191 0.057008572 0.73900002 1.4929517e-38
-0.057008572 0.057008572 0.73900002 1.4929517e-38
-0.055600952 0.057008572 0.73900002 1.4652207e-38
-0.054193333 0.057008572 0.73900002 1.520538e-38
-0.052714288 0.056931432 0.73800004 1.502101e-38
-0.051308576 0.056931432 0.73800004 1.502101e-38
-0.04990286 0.056931432 0.73800004 1.5206459e-38
-0.048497144 0.056931432 0.73800004 1.5114264e-38
-0.047155239 0.057008572 0.73900002 1.5113913e-38
-0.045747619 0.057008572 0.73900002 1.5113913e-38
-0.044340003 0.057008572 0.73900002 1.5205407e-38
-0.042932384 0.057008572 0.73900002 1.492882e-38
-0.041524764 0.057008572 0.73900002 1.4743693e-38
-0.040225718 0.057162859 0.74100006 1.502028e-38
-0.038814291 0.057162859 0.74100006 1.4561482e-38
-0.037402861 0.057162859 0.74100006 1.4008309e-38
-0.035991434 0.057162859 0.74100006 1.3364741e-38
-0.034626666 0.057240006 0.74200004 1.2995959e-38
-0.033213332 0.057240006 0.74200004 1.2719006e-38
-0.031885713 0.057394285 0.74400002 1.2903397e-38
-0.030468572 0.057394285 0.74400002 1.3271467e-38
-0.029129526 0.057548571 0.74600005 1.3087075e-38
-0.027708573 0.057548571 0.74600005 1.299488e-38
-0.026393333 0.057780001 0.74900001 1.3363662e-38
-0.025000002 0.057857145 0.75000006 1.437598e-38
-0.023634287 0.058011431 0.75200003 1.520574e-38
-0.022260953 0.058165714 0.75400001 1.5851122e-38
-0.020852383 0.058242857 0.75500005 1.6127709e-38
-0.019465715 0.058397144 0.75700003 1.5761075e-38
-0.01807143 0.058551431 0.75900006 1.6314249e-38
-0.016669523 0.058705717 0.76100004 1.6405363e-38
-0.015240001 0.058782857 0.76200002 1.6405363e-38
-0.013788572 0.058782857 0.76200002 1.8524067e-38
-0.012401905 0.05909143 0.76600003 2.3226044e-38
-0.010942858 0.05909143 0.76600003 2.23992e-38
-0.093494289 0.060155239 0.76100004 2.1570137e-38
-0.092044763 0.060155239 0.76100004 2.2031464e-38
-0.090357147 0.059997149 0.75900006 2.147829e-38
-0.088677146 0.059839047 0.75700003 1.9819502e-38
-0.087235235 0.059839047 0.75700003 1.6316068e-38
-0.085566677 0.059680957 0.75500005 1.4380367e-38
-0.084017143 0.059601903 0.75400001 1.4288172e-38
-0.082580954 0.059601903 0.75400001 1.4195907e-38
-0.080929525 0.059443813 0.75200003 1.4380299e-38
-0.079285719 0.059285719 0.75000006 1.4749078e-38
-0.077545717 0.059048574 0.74700004 1.5025665e-38
-0.076122858 0.059048574 0.74700004 1.5117861e-38
-0.074700005 0.059048574 0.74700004 1.5394448e-38
-0.073179051 0.058969527 0.74600005 1.5394097e-38
-0.071758099 0.058969527 0.74600005 1.5578489e-38
-0.070148572 0.05881143 0.74400002 1.5485588e-38
-0.068546675 0.058653336 0.74200004 1.5669979e-38
-0.067133337 0.058653336 0.74200004 1.493277e-38
-0.065631427 0.058574289 0.74100006 1.5117162e-38
-0.064220004 0.058574289 0.74100006 1.5024247e-38
-0.062808573 0.058574289 0.74100006 1.5024247e-38
-0.061397146 0.058574289 0.74100006 1.4746923e-38
-0.059823811 0.058416191 0.73900002 1.4378141e-38
-0.058416191 0.058416191 0.73900002 1.4838057e-38
-0.057008572 0.058416191 0.73900002 1.4930252e-38
-0.055600952 0.058416191 0.73900002 1.5113545e-38
-0.054193333 0.058416191 0.73900002 1.5021349e-38
-0.052714288 0.058337145 0.73800004 1.4928454e-38
-0.051308576 0.058337145 0.73800004 1.4744063e-38
-0.049970478 0.058416191 0.73900002 1.4468882e-38
-0.048562858 0.058416191 0.73900002 1.4192295e-38
-0.047155239 0.058416191 0.73900002 1.3823885e-38
-0.045747619 0.058416191 0.73900002 1.3823885e-38
-0.044340003 0.058416191 0.73900002 1.2349507e-38
-0.043048576 0.058574289 0.74100006 1.1611942e-38
-0.041637145 0.058574289 0.74100006 1.1152703e-38
-0.040225718 0.058574289 0.74100006 1.0415138e-38
-0.038814291 0.058574289 0.74100006 9.7694479e-39
-0.037402861 0.058574289 0.74100006 9.1240785e-39
-0.036040001 0.058653336 0.74200004 8.1138796e-39
-0.034626666 0.058653336 0.74200004 7.9294884e-39
-0.033213332 0.058653336 0.74200004 7.9284122e-39
-0.031885713 0.05881143 0.74400002 7.7440209e-39
-0.030550478 0.058969527 0.74600005 7.9284332e-39
-0.029129526 0.058969527 0.74600005 8.2050201e-39
-0.027745714 0.059048574 0.74700004 7.9273794e-39
-0.026393333 0.059206665 0.74900001 6.6366406e-39
-0.025000002 0.059285719 0.75000006 8.6606285e-39
-0.023634287 0.059443813 0.75200003 1.4653344e-38
-0.022260953 0.059601903 0.75400001 1.5574552e-38
-0.020852383 0.059680957 0.75500005 1.6219922e-38
-0.019465715 0.059839047 0.75700003 1.6128425e-38
-0.01807143 0.059997149 0.75900006 1.6773795e-38
-0.016669523 0.060155239 0.76100004 1.6497564e-38
-0.015240001 0.060234286 0.76200002 1.6681955e-38
-0.013788572 0.060234286 0.76200002 1.8708461e-38
-0.012337144 0.060234286 0.76200002 2.3226047e-38
-0.010885715 0.060234286 0.76200002 2.2767614e-38
-0.093617149 0.061685719 0.76200002 2.1939638e-38
-0.092165716 0.061685719 0.76200002 2.2124027e-38
-0.090357147 0.061442863 0.75900006 2.2031831e-38
-0.088677146 0.061280955 0.75700003 1.9819865e-38
-0.087235235 0.061280955 0.75700003 1.6593018e-38
-0.085566677 0.06111905 0.75500005 1.6683421e-38
-0.084017143 0.061038099 0.75400001 1.5392682e-38
-0.082580954 0.061038099 0.75400001 1.5575605e-38
-0.080929525 0.060876191 0.75200003 1.5852192e-38
-0.079285719 0.06071429 0.75000006 1.6496842e-38
-0.077753328 0.060633335 0.74900001 1.6496842e-38
-0.076326661 0.060633335 0.74900001 1.6128779e-38
-0.074700005 0.06047143 0.74700004 1.631317e-38
-0.073277146 0.06047143 0.74700004 1.5668903e-38
-0.071758099 0.06039048 0.74600005 1.5484512e-38
-0.070337147 0.06039048 0.74600005 1.5668526e-38
-0.068731427 0.060228571 0.74400002 1.5576331e-38
-0.067314282 0.060228571 0.74400002 1.493204e-38
-0.065720007 0.06006667 0.74200004 1.5024236e-38
-0.064306669 0.06006667 0.74200004 1.5024239e-38
-0.062808573 0.05998572 0.74100006 1.4747652e-38
-0.061397146 0.05998572 0.74100006 1.4746926e-38
-0.05998572 0.05998572 0.74100006 1.4378143e-38
-0.058574289 0.05998572 0.74100006 1.4562166e-38
-0.057162859 0.05998572 0.74100006 1.4746557e-38
-0.055751432 0.05998572 0.74100006 1.4930223e-38
-0.054340001 0.05998572 0.74100006 1.4745832e-38
-0.052785717 0.059823811 0.73900002 1.4468529e-38
-0.051378097 0.059823811 0.73900002 1.4284137e-38
-0.049970478 0.059823811 0.73900002 1.3732398e-38
-0.048562858 0.059823811 0.73900002 1.3179225e-38
-0.047155239 0.059823811 0.73900002 1.2443462e-38
-0.045871433 0.05998572 0.74100006 1.1798092e-38
-0.044460002 0.05998572 0.74100006 1.0968707e-38
-0.043048576 0.05998572 0.74100006 1.0323338e-38
-0.041637145 0.05998572 0.74100006 9.3145682e-39
-0.040280003 0.06006667 0.74200004 7.8394381e-39
-0.038866669 0.06006667 0.74200004 8.022061e-39
-0.037453339 0.06006667 0.74200004 6.8235178e-39
-0.036137141 0.060228571 0.74400002 6.1806623e-39
-0.03472 0.060228571 0.74400002 5.9040754e-39
-0.033392385 0.06039048 0.74600005 5.5385299e-39
-0.031971432 0.06039048 0.74600005 4.8931605e-39
-0.030550478 0.06039048 0.74600005 4.2460338e-39
-0.029168572 0.06047143 0.74700004 5.0757945e-39
-0.027745714 0.06047143 0.74700004 5.2598326e-39
-0.026428573 0.06071429 0.75000006 4.2456807e-39
-0.025066668 0.060876191 0.75200003 8.1098944e-39
-0.023697143 0.061038099 0.75400001 1.4471393e-38
-0.022260953 0.061038099 0.75400001 1.548271e-38
-0.020852383 0.06111905 0.75500005 1.6220275e-38
-0.019517144 0.061442863 0.75900006 1.6128425e-38
-0.01807143 0.061442863 0.75900006 1.6773795e-38
-0.016669523 0.061604768 0.76100004 1.631317e-38
-0.015240001 0.061685719 0.76200002 1.6497561e-38
-0.013788572 0.061685719 0.76200002 1.8708824e-38
-0.012337144 0.061685719 0.76200002 2.322641e-38
-0.092407629 0.06330286 0.76400006 2.2123653e-38
-0.090357147 0.062888578 0.75900006 2.2215848e-38
-0.088911436 0.062888578 0.75900006 2.0832935e-38
-0.087235235 0.062722854 0.75700003 1.8528044e-38
-0.085566677 0.062557146 0.75500005 1.8158188e-38
-0.084128574 0.062557146 0.75500005 1.7789406e-38
-0.082580954 0.062474284 0.75400001 1.7419178e-38
-0.080929525 0.062308576 0.75200003 1.7326983e-38
-0.079497144 0.062308576 0.75200003 1.7234763e-38
-0.077753328 0.062060002 0.74900001 1.6405003e-38
-0.076326661 0.062060002 0.74900001 1.649828e-38
-0.074900001 0.062060002 0.74900001 1.6774867e-38
-0.073277146 0.06189429 0.74700004 1.5758944e-38
-0.071758099 0.061811436 0.74600005 1.4836987e-38
-0.070337147 0.061811436 0.74600005 1.4560361e-38
-0.068916194 0.061811436 0.74600005 1.4007187e-38
-0.067314282 0.061645716 0.74400002 1.4006099e-38
-0.065897144 0.061645716 0.74400002 1.3729512e-38
-0.064306669 0.061480001 0.74200004 1.3821354e-38
-0.062893331 0.061480001 0.74200004 1.3729159e-38
-0.061480001 0.061480001 0.74200004 1.3728793e-38
-0.06006667 0.061480001 0.74200004 1.3544402e-38
-0.058574289 0.061397146 0.74100006 1.39139e-38
-0.057162859 0.061397146 0.74100006 1.4928052e-38
-0.055751432 0.061397146 0.74100006 1.4562118e-38
-0.054340001 0.061397146 0.74100006 1.3824553e-38
-0.052785717 0.061231427 0.73900002 1.2902985e-38
-0.051378097 0.061231427 0.73900002 1.2442007e-38
-0.049970478 0.061231427 0.73900002 1.1982108e-38
-0.048562858 0.061231427 0.73900002 1.1428934e-38
-0.047155239 0.061231427 0.73900002 1.1060155e-38
-0.045871433 0.061397146 0.74100006 1.0599176e-38
-0.044460002 0.061397146 0.74100006 8.6659618e-39
-0.043106668 0.061480001 0.74200004 7.8362011e-39
-0.041693337 0.061480001 0.74200004 7.1951281e-39
-0.040280003 0.061480001 0.74200004 6.1809762e-39
-0.038866669 0.061480001 0.74200004 5.5374509e-39
-0.037554283 0.061645716 0.74400002 5.260864e-39
-0.036137141 0.061645716 0.74400002 5.0764952e-39
-0.034813333 0.061811436 0.74600005 4.615517e-39
-0.033392385 0.061811436 0.74600005 3.9740979e-39
-0.031971432 0.061811436 0.74600005 4.7116629e-39
-0.03059143 0.06189429 0.74700004 4.8939368e-39
-0.029168572 0.06189429 0.74700004 4.8939368e-39
-0.02782 0.062060002 0.74900001 5.351322e-39
-0.026428573 0.062142864 0.75000006 4.613757e-39
-0.025066668 0.062308576 0.75200003 7.6504226e-39
-0.023697143 0.062474284 0.75400001 1.3643139e-38
-0.022290478 0.062557146 0.75500005 1.5851839e-38
-0.02090762 0.062722854 0.75700003 1.6220621e-38
-0.019517144 0.062888578 0.75900006 1.6312457e-38
-0.01807143 0.062888578 0.75900006 1.7142217e-38
-0.016669523 0.063054286 0.76100004 1.6496848e-38
-0.015240001 0.063137144 0.76200002 1.6404652e-38
-0.013788572 0.063137144 0.76200002 1.8432237e-38
-0.012337144 0.063137144 0.76200002 2.3318606e-38
-0.092407629 0.0647581 0.76400006 2.221479e-38
-0.090595245 0.064503811 0.76100004 2.2122595e-38
-0.088911436 0.064334288 0.75900006 2.120137e-38
-0.087465718 0.064334288 0.75900006 1.8804283e-38
-0.085793331 0.064164765 0.75700003 1.9262012e-38
-0.084351428 0.064164765 0.75700003 1.8524447e-38
-0.082690477 0.063995242 0.75500005 1.778795e-38
-0.081144765 0.063910477 0.75400001 1.7326971e-38
-0.079497144 0.063740954 0.75200003 1.7326269e-38
-0.077857152 0.063571438 0.75000006 1.6496509e-38
-0.076326661 0.063486665 0.74900001 1.6497578e-38
-0.074900001 0.063486665 0.74900001 1.6313187e-38
-0.073277146 0.063317142 0.74700004 1.4100871e-38
-0.071854293 0.063317142 0.74700004 1.3824284e-38
-0.070337147 0.063232385 0.74600005 1.4465654e-38
-0.068916194 0.063232385 0.74600005 1.4281263e-38
-0.067495242 0.063232385 0.74600005 1.4096156e-38
-0.065897144 0.063062862 0.74400002 1.3635178e-38
-0.064479999 0.063062862 0.74400002 1.3541525e-38
-0.062893331 0.062893331 0.74200004 1.3818112e-38
-0.061480001 0.062893331 0.74200004 1.3818818e-38
-0.06006667 0.062893331 0.74200004 1.3911014e-38
-0.058653336 0.062893331 0.74200004 1.4004994e-38
-0.057162859 0.062808573 0.74100006 1.5295733e-38
-0.055751432 0.062808573 0.74100006 1.4285544e-38
-0.054340001 0.062808573 0.74100006 1.3640175e-38
-0.052928574 0.062808573 0.74100006 1.2535632e-38
-0.051517144 0.062808573 0.74100006 1.1890263e-38
-0.050105717 0.062808573 0.74100006 1.1245622e-38
-0.04869429 0.062808573 0.74100006 1.0969035e-38
-0.04728286 0.062808573 0.74100006 1.1059786e-38
-0.045871433 0.062808573 0.74100006 1.0691003e-38
-0.044460002 0.062808573 0.74100006 8.1142075e-39
-0.043106668 0.062893331 0.74200004 7.5610338e-39
-0.041693337 0.062893331 0.74200004 6.9192797e-39
-0.040388573 0.063062862 0.74400002 5.6285409e-39
-0.038971432 0.063062862 0.74400002 4.8920647e-39
-0.037554283 0.063062862 0.74400002 4.799869e-39
-0.036234286 0.063232385 0.74600005 4.5243752e-39
-0.034813333 0.063232385 0.74600005 4.4321795e-39
-0.033392385 0.063232385 0.74600005 3.697511e-39
-0.032014288 0.063317142 0.74700004 4.6194673e-39
-0.03059143 0.063317142 0.74700004 5.2619976e-39
-0.029168572 0.063317142 0.74700004 4.8932151e-39
-0.02782 0.063486665 0.74900001 3.0514563e-39
-0.026499048 0.063740954 0.75200003 3.6968257e-39
-0.025133332 0.063910477 0.75400001 7.4634922e-39
-0.023728572 0.063995242 0.75500005 1.4101578e-38
-0.022290478 0.063995242 0.75500005 1.5759999e-38
-0.02090762 0.064164765 0.75700003 1.6128781e-38
-0.019517144 0.064334288 0.75900006 1.6219542e-38
-0.018119048 0.064503811 0.76100004 1.6588325e-38
-0.01669143 0.064588569 0.76200002 1.6311738e-38
-0.015240001 0.064588569 0.76200002 1.6403933e-38
-0.013788572 0.064588569 0.76200002 1.8063808e-38
-0.012337144 0.064588569 0.76200002 2.3226763e-38
-0.092407629 0.066213332 0.76400006 2.2123326e-38
-0.090595245 0.065953337 0.76100004 2.203113e-38
-0.08914572 0.065953337 0.76100004 2.1109171e-38
-0.087465718 0.065780006 0.75900006 1.944965e-38
-0.086020008 0.065780006 0.75900006 1.8894661e-38
-0.084574297 0.065780006 0.75900006 1.8157096e-38
-0.082690477 0.065433331 0.75500005 1.7971612e-38
-0.081144765 0.065346666 0.75400001 1.7141851e-38
-0.079497144 0.065173343 0.75200003 1.5663161e-38
-0.077857152 0.065000005 0.75000006 1.3450466e-38
-0.076428577 0.065000005 0.75000006 1.1878818e-38
-0.074900001 0.06491334 0.74900001 1.1878818e-38
-0.073277146 0.064740002 0.74700004 1.2431252e-38
-0.071854293 0.064740002 0.74700004 1.2800035e-38
-0.070431434 0.064740002 0.74700004 1.2984401e-38
-0.068916194 0.064653337 0.74600005 1.3076596e-38
-0.067495242 0.064653337 0.74600005 1.2985145e-38
-0.065897144 0.064479999 0.74400002 1.2708558e-38
-0.064479999 0.064479999 0.74400002 1.2801442e-38
-0.063062862 0.064479999 0.74400002 1.4184376e-38
-0.061645716 0.064479999 0.74400002 1.3817739e-38
-0.06006667 0.064306669 0.74200004 1.4094326e-38
-0.058653336 0.064306669 0.74200004 1.4005007e-38
-0.057240006 0.064306669 0.74200004 1.5480137e-38
-0.055751432 0.064220004 0.74100006 1.4469207e-38
-0.054340001 0.064220004 0.74100006 1.3455055e-38
-0.052928574 0.064220004 0.74100006 1.2443086e-38
-0.051517144 0.064220004 0.74100006 1.2074304e-38
-0.050105717 0.064220004 0.74100006 1.1337818e-38
-0.04869429 0.064220004 0.74100006 1.0784644e-38
-0.04728286 0.064220004 0.74100006 1.0783565e-38
-0.045933336 0.064306669 0.74200004 1.0414782e-38
-0.044520002 0.064306669 0.74200004 8.1145985e-39
-0.043106668 0.064306669 0.74200004 7.745816e-39
-0.041805714 0.064479999 0.74400002 7.4710242e-39
-0.040388573 0.064479999 0.74400002 7.1944373e-39
-0.038971432 0.064479999 0.74400002 7.2855511e-39
-0.037554283 0.064479999 0.74400002 7.2855511e-39
-0.036234286 0.064653337 0.74600005 7.1933555e-39
-0.034813333 0.064653337 0.74600005 7.3777467e-39
-0.033392385 0.064653337 0.74600005 5.7218674e-39
-0.032014288 0.064740002 0.74700004 5.6296717e-39
-0.03059143 0.064740002 0.74700004 4.5265962e-39
-0.029246666 0.06491334 0.74900001 4.342205e-39
-0.027857145 0.065000005 0.75000006 3.3266209e-39
-0.026499048 0.065173343 0.75200003 4.1563816e-39
-0.025133332 0.065346666 0.75400001 8.2950367e-39
-0.023728572 0.065433331 0.75500005 1.3642383e-38
-0.022290478 0.065433331 0.75500005 1.5575602e-38
-0.02090762 0.065606669 0.75700003 1.6128776e-38
-0.019517144 0.065780006 0.75900006 1.6312101e-38
-0.018119048 0.065953337 0.76100004 1.6496492e-38
-0.01669143 0.066040002 0.76200002 1.631248e-38
-0.015280001 0.066213332 0.76400006 1.6220285e-38
-0.013824763 0.066213332 0.76400006 1.7971609e-38
-0.012369525 0.066213332 0.76400006 2.322676e-38
-0.011085714 0.067253336 0.77600002 2.239956e-38
-0.092407629 0.067668572 0.76400006 2.2031128e-38
-0.090714283 0.067491435 0.76200002 2.2031128e-38
-0.089262858 0.067491435 0.76200002 2.083295e-38
-0.087696187 0.067402862 0.76100004 1.935782e-38
-0.086020008 0.067225717 0.75900006 1.889538e-38
-0.084574297 0.067225717 0.75900006 1.8157815e-38
-0.082909524 0.067048572 0.75700003 1.8063808e-38
-0.081252381 0.066871434 0.75500005 1.4283787e-38
-0.079708569 0.066782854 0.75400001 1.5381853e-38
-0.077857152 0.066428579 0.75000006 1.1786223e-38
-0.076428577 0.066428579 0.75000006 1.2886049e-38
-0.075000003 0.066428579 0.75000006 1.3254832e-38
-0.073473334 0.066339999 0.74900001 1.2978618e-38
-0.071854293 0.066162854 0.74700004 1.3623987e-38
-0.070431434 0.066162854 0.74700004 1.3165507e-38
-0.068916194 0.066074289 0.74600005 1.3903072e-38
-0.067495242 0.066074289 0.74600005 1.3352082e-38
-0.066074289 0.066074289 0.74600005 1.3352082e-38
-0.064653337 0.066074289 0.74600005 1.2893246e-38
-0.063062862 0.065897144 0.74400002 1.4091789e-38
-0.061645716 0.065897144 0.74400002 1.381665e-38
-0.060228571 0.065897144 0.74400002 1.446202e-38
-0.05881143 0.065897144 0.74400002 1.418867e-38
-0.057240006 0.065720007 0.74200004 1.56638e-38
-0.055826671 0.065720007 0.74200004 1.4653626e-38
-0.054340001 0.065631427 0.74100006 1.3455083e-38
-0.052928574 0.065631427 0.74100006 1.2810442e-38
-0.051586669 0.065720007 0.74200004 1.2626051e-38
-0.050173335 0.065720007 0.74200004 1.1982837e-38
-0.048760001 0.065720007 0.74200004 1.1614054e-38
-0.04734667 0.065720007 0.74200004 1.1154155e-38
-0.045933336 0.065720007 0.74200004 1.1061959e-38
-0.044640001 0.065897144 0.74400002 1.0602436e-38
-0.04322286 0.065897144 0.74400002 1.051024e-38
-0.041805714 0.065897144 0.74400002 1.0326575e-38
-0.040497147 0.066074289 0.74600005 1.0049988e-38
-0.039076194 0.066074289 0.74600005 1.0049265e-38
-0.037655238 0.066074289 0.74600005 9.7726779e-39
-0.036234286 0.066074289 0.74600005 9.4957421e-39
-0.034813333 0.066074289 0.74600005 9.6801334e-39
-0.033437144 0.066162854 0.74700004 9.3131501e-39
-0.032014288 0.066162854 0.74700004 8.2068025e-39
-0.03059143 0.066162854 0.74700004 5.448177e-39
-0.029246666 0.066339999 0.74900001 3.6042644e-39
-0.027857145 0.066428579 0.75000006 2.9584676e-39
-0.026499048 0.066605717 0.75200003 5.078967e-39
-0.025133332 0.066782854 0.75400001 9.9520483e-39
-0.023728572 0.066871434 0.75500005 1.4285243e-38
-0.022290478 0.066871434 0.75500005 1.5392295e-38
-0.02090762 0.067048572 0.75700003 1.5945469e-38
-0.019517144 0.067225717 0.75900006 1.6220624e-38
-0.018119048 0.067402862 0.76100004 1.6773798e-38
-0.016735239 0.067668572 0.76400006 1.6591573e-38
-0.015280001 0.067668572 0.76400006 1.5946203e-38
-0.013824763 0.067668572 0.76400006 1.7971975e-38
-0.01253143 0.06855429 0.77400005 2.2858343e-38
-0.011085714 0.068731427 0.77600002 2.2030405e-38
-0.0096076196 0.068731427 0.77600002 2.2399187e-38
-0.092165716 0.068942852 0.76200002 2.2492445e-38
-0.090714283 0.068942852 0.76200002 2.1939271e-38
-0.089262858 0.068942852 0.76200002 2.1386121e-38
-0.087696187 0.068852387 0.76100004 1.9634404e-38
-0.086246669 0.068852387 0.76100004 1.9171967e-38
-0.084574297 0.068671428 0.75900006 1.8250011e-38
-0.082909524 0.068490475 0.75700003 1.7601748e-38
-0.081144765 0.068219043 0.75400001 1.1055858e-38
-0.079708569 0.068219043 0.75400001 1.2983302e-38
-0.078064762 0.068038099 0.75200003 1.2153541e-38
-0.076632388 0.068038099 0.75200003 1.2887905e-38
-0.075200006 0.068038099 0.75200003 1.3902056e-38
-0.073473334 0.067766666 0.74900001 1.4828994e-38
-0.071854293 0.067585714 0.74700004 1.5105581e-38
-0.070431434 0.067585714 0.74700004 1.5014134e-38
-0.069008574 0.067585714 0.74700004 1.5198525e-38
-0.067495242 0.067495242 0.74600005 1.4831896e-38
-0.066074289 0.067495242 0.74600005 1.4831896e-38
-0.064653337 0.067495242 0.74600005 1.4464566e-38
-0.063232385 0.067495242 0.74600005 1.437237e-38
-0.061811436 0.067495242 0.74600005 1.4650749e-38
-0.060228571 0.067314282 0.74400002 1.5111727e-38
-0.05881143 0.067314282 0.74400002 1.5020248e-38
-0.057394285 0.067314282 0.74400002 1.5296835e-38
-0.055826671 0.067133337 0.74200004 1.4929517e-38
-0.054413334 0.067133337 0.74200004 1.4468538e-38
-0.052999999 0.067133337 0.74200004 1.4469634e-38
-0.051586669 0.067133337 0.74200004 1.4930612e-38
-0.050173335 0.067133337 0.74200004 1.465473e-38
-0.048760001 0.067133337 0.74200004 1.4931317e-38
-0.04734667 0.067133337 0.74200004 1.4471059e-38
-0.046057142 0.067314282 0.74400002 1.4471059e-38
-0.044640001 0.067314282 0.74400002 1.4287031e-38
-0.04322286 0.067314282 0.74400002 1.4655813e-38
-0.041918099 0.067495242 0.74600005 1.4379943e-38
-0.040497147 0.067495242 0.74600005 1.4564334e-38
-0.039076194 0.067495242 0.74600005 1.4471425e-38
-0.037655238 0.067495242 0.74600005 1.4563621e-38
-0.036234286 0.067495242 0.74600005 1.4655477e-38
-0.03486 0.067585714 0.74700004 1.5300847e-38
-0.033437144 0.067585714 0.74700004 1.4563618e-38
-0.032014288 0.067585714 0.74700004 1.49324e-38
-0.03059143 0.067585714 0.74700004 1.4380999e-38
-0.029246666 0.067766666 0.74900001 1.0600978e-38
-0.027857145 0.067857146 0.75000006 1.0876163e-38
-0.026499048 0.068038099 0.75200003 1.262788e-38
-0.025133332 0.068219043 0.75400001 1.3179631e-38
-0.023728572 0.068309531 0.75500005 1.4285979e-38
-0.022290478 0.068309531 0.75500005 1.5208254e-38
-0.02090762 0.068490475 0.75700003 1.5853624e-38
-0.019568572 0.068852387 0.76100004 1.6220261e-38
-0.018142859 0.068942852 0.76200002 1.6957826e-38
-0.016735239 0.069123812 0.76400006 1.659012e-38
-0.015280001 0.069123812 0.76400006 1.594475e-38
-0.01398762 0.069938101 0.77300006 1.7602839e-38
-0.01253143 0.070028573 0.77400005 2.3226773e-38
-0.011085714 0.070209526 0.77600002 2.2768686e-38
-0.090714283 0.070394285 0.76200002 2.2400253e-38
-0.089262858 0.070394285 0.76200002 2.1294281e-38
-0.087696187 0.070301905 0.76100004 1.9358173e-38
-0.086246669 0.070301905 0.76100004 1.9171967e-38
