# .PCD v0.7 - Point Cloud Data file format
VERSION 0.7
FIELDS x y z rgb
SIZE 4 4 4 4
TYPE F F F F
COUNT 1 1 1 1
WIDTH 978
HEIGHT 1
VIEWPOINT 0 0 0 1 0 0 0
POINTS 978
DATA ascii
-0.0065057147 0.088911436 0.75900006 4.9818038e-39
-0.0050600008 0.088911436 0.75900006 3.8801352e-39
-0.003614286 0.088911436 0.75900006 3.8801352e-39
-0.0021742857 0.08914572 0.76100004 4.9821163e-39
-0.00072476192 0.08914572 0.76100004 6.8260289e-39
0.00072571432 0.089262858 0.76200002 6.7334703e-39
0.0021828574 0.089497149 0.76400006 5.811514e-39
0.0036476192 0.089731432 0.76600003 6.4568596e-39
0.0051133335 0.089848571 0.76700002 1.2080793e-38
0.006591429 0.090082861 0.76900005 1.4840921e-38
0.0080561908 0.090082861 0.76900005 1.5025312e-38
0.0095457146 0.090317145 0.77100003 1.5575252e-38
0.011042858 0.090551436 0.77300006 1.6773795e-38
0.012515238 0.090551436 0.77300006 1.6405365e-38
0.014005715 0.090668574 0.77400005 1.6497561e-38
0.015520001 0.090902865 0.77600002 1.659012e-38
0.017041905 0.091137148 0.77800006 2.0277945e-38
-0.058384761 0.092380948 0.77600002 2.1938911e-38
-0.05690667 0.092380948 0.77600002 2.0002803e-38
-0.055285718 0.092142865 0.77400005 2.0002095e-38
-0.053811431 0.092142865 0.77400005 1.8711356e-38
-0.052337144 0.092142865 0.77400005 1.8526934e-38
-0.050797146 0.092023812 0.77300006 1.861913e-38
-0.049197145 0.091785714 0.77100003 1.8157445e-38
-0.047604766 0.091547623 0.76900005 1.7788663e-38
-0.045960002 0.09119048 0.76600003 1.751173e-38
-0.044500954 0.09119048 0.76600003 1.6958556e-38
-0.042929526 0.090952389 0.76400006 1.6497211e-38
-0.041365717 0.090714283 0.76200002 1.6497211e-38
-0.039861906 0.090595245 0.76100004 1.67727e-38
-0.038412381 0.090595245 0.76100004 1.5020983e-38
-0.036865719 0.090357147 0.75900006 1.4927667e-38
-0.035420001 0.090357147 0.75900006 1.4558884e-38
-0.03397429 0.090357147 0.75900006 1.4465967e-38
-0.032528572 0.090357147 0.75900006 1.4558163e-38
-0.031082857 0.090357147 0.75900006 1.363839e-38
-0.029559048 0.090119049 0.75700003 1.3085216e-38
-0.028117143 0.090119049 0.75700003 1.1798073e-38
-0.026675239 0.090119049 0.75700003 1.0783921e-38
-0.025233334 0.090119049 0.75700003 1.0875786e-38
-0.023791429 0.090119049 0.75700003 1.0875786e-38
-0.022349525 0.090119049 0.75700003 1.0692458e-38
-0.02090762 0.090119049 0.75700003 1.0876849e-38
-0.019465715 0.090119049 0.75700003 9.5893628e-39
-0.018023811 0.090119049 0.75700003 7.3766677e-39
-0.016581906 0.090119049 0.75700003 6.3650858e-39
-0.015180001 0.090357147 0.75900006 6.9182596e-39
-0.013734287 0.090357147 0.75900006 6.1843099e-39
-0.012288572 0.090357147 0.75900006 4.7091798e-39
-0.010842858 0.090357147 0.75900006 4.6180534e-39
-0.0093971435 0.090357147 0.75900006 6.9229441e-39
-0.0079514291 0.090357147 0.75900006 7.9313549e-39
-0.0065057147 0.090357147 0.75900006 4.8888991e-39
-0.0050600008 0.090357147 0.75900006 4.5218921e-39
-0.0036238097 0.090595245 0.76100004 4.6140877e-39
-0.0021742857 0.090595245 0.76100004 4.8899067e-39
-0.00072571432 0.090714283 0.76200002 6.4572324e-39
0.00072571432 0.090714283 0.76200002 6.1817021e-39
0.0021828574 0.090952389 0.76400006 5.9973108e-39
0.003652381 0.091309525 0.76700002 7.1011739e-39
0.0051133335 0.091309525 0.76700002 1.3831455e-38
0.006591429 0.091547623 0.76900005 1.456543e-38
0.0080561908 0.091547623 0.76900005 1.4657625e-38
0.0095457146 0.091785714 0.77100003 1.5575608e-38
0.011042858 0.092023812 0.77300006 1.5852194e-38
0.012515238 0.092023812 0.77300006 1.5852194e-38
0.014005715 0.092142865 0.77400005 1.658976e-38
0.015520001 0.092380948 0.77600002 1.6867062e-38
0.016998095 0.092380948 0.77600002 2.0186105e-38
-0.058685716 0.094342858 0.78000003 2.2492445e-38
-0.0572 0.094342858 0.78000003 2.0095358e-38
-0.055571433 0.09410096 0.77800006 1.9910971e-38
-0.053950477 0.093859047 0.77600002 1.8620233e-38
-0.052472383 0.093859047 0.77600002 1.8618761e-38
-0.050797146 0.093496196 0.77300006 1.8803152e-38
-0.049197145 0.093254283 0.77100003 1.8618414e-38
-0.047604766 0.093012393 0.76900005 1.7788653e-38
-0.045960002 0.092649527 0.76600003 1.7142957e-38
-0.044500954 0.092649527 0.76600003 1.6681979e-38
-0.042929526 0.092407629 0.76400006 1.6405012e-38
-0.04147429 0.092407629 0.76400006 1.6405012e-38
-0.039861906 0.092044763 0.76100004 1.6681211e-38
-0.038412381 0.092044763 0.76100004 1.5298277e-38
-0.036962859 0.092044763 0.76100004 1.4927677e-38
-0.035420001 0.091802858 0.75900006 1.4374503e-38
-0.03397429 0.091802858 0.75900006 1.437448e-38
-0.032528572 0.091802858 0.75900006 1.4558872e-38
-0.031082857 0.091802858 0.75900006 1.3915683e-38
-0.029559048 0.091560952 0.75700003 1.2901531e-38
-0.028117143 0.091560952 0.75700003 1.0875084e-38
-0.026675239 0.091560952 0.75700003 1.0506301e-38
-0.025233334 0.091560952 0.75700003 1.0599209e-38
-0.023791429 0.091560952 0.75700003 1.07836e-38
-0.022349525 0.091560952 0.75700003 1.078359e-38
-0.02090762 0.091560952 0.75700003 1.0507003e-38
-0.019465715 0.091560952 0.75700003 9.0365632e-39
-0.018023811 0.091560952 0.75700003 7.0082594e-39
-0.016581906 0.091560952 0.75700003 5.7219094e-39
-0.015180001 0.091802858 0.75900006 6.7360613e-39
-0.013734287 0.091802858 0.75900006 7.1051774e-39
-0.012288572 0.091802858 0.75900006 7.1051774e-39
-0.010842858 0.091802858 0.75900006 5.4464141e-39
-0.0094219055 0.092044763 0.76100004 6.9215442e-39
-0.0079723811 0.092044763 0.76100004 7.6554743e-39
-0.0065228576 0.092044763 0.76100004 4.5208229e-39
-0.0050733336 0.092044763 0.76100004 4.6133786e-39
-0.0036238097 0.092044763 0.76100004 6.1807043e-39
-0.0021742857 0.092044763 0.76100004 7.0079216e-39
-0.00072571432 0.092165716 0.76200002 8.1142692e-39
0.00072571432 0.092165716 0.76200002 9.4070918e-39
0.0021828574 0.092407629 0.76400006 9.6836786e-39
0.0036476192 0.092649527 0.76600003 1.0416311e-38
0.0051133335 0.09277048 0.76700002 1.4749506e-38
0.006591429 0.093012393 0.76900005 1.4933119e-38
0.0080771428 0.093254283 0.77100003 1.4748728e-38
0.0095704766 0.093496196 0.77300006 1.539086e-38
0.011057143 0.093617149 0.77400005 1.5759643e-38
0.01253143 0.093617149 0.77400005 1.5943682e-38
0.014005715 0.093617149 0.77400005 1.6681247e-38
0.015520001 0.093859047 0.77600002 1.6682668e-38
0.017041905 0.09410096 0.77800006 2.0093907e-38
-0.059061907 0.096442863 0.78500003 2.2216951e-38
-0.057273332 0.09595143 0.78100002 2.0004256e-38
-0.055714291 0.09582857 0.78000003 1.9910615e-38
-0.054228574 0.09582857 0.78000003 1.8804268e-38
-0.052472383 0.095337145 0.77600002 1.8802449e-38
-0.05086286 0.095091432 0.77400005 1.898684e-38
-0.049324766 0.09496858 0.77300006 1.8710266e-38
-0.047728572 0.09472286 0.77100003 1.7696114e-38
-0.045960002 0.094108574 0.76600003 1.7050043e-38
-0.044500954 0.094108574 0.76600003 1.6865651e-38
-0.043041904 0.094108574 0.76600003 1.6404661e-38
-0.04147429 0.093862861 0.76400006 1.6404661e-38
-0.039914284 0.093617149 0.76200002 1.6034419e-38
-0.038412381 0.093494289 0.76100004 1.5481246e-38
-0.036962859 0.093494289 0.76100004 1.5481569e-38
-0.035513334 0.093494289 0.76100004 1.4651809e-38
-0.03397429 0.093248583 0.75900006 1.4558897e-38
-0.032528572 0.093248583 0.75900006 1.4835484e-38
-0.031082857 0.093248583 0.75900006 1.4284478e-38
-0.029637145 0.093248583 0.75900006 1.2624956e-38
-0.028117143 0.093002863 0.75700003 1.0691038e-38
-0.026675239 0.093002863 0.75700003 1.0322256e-38
-0.025300002 0.093248583 0.75900006 1.0507719e-38
-0.023854287 0.093248583 0.75900006 1.069211e-38
-0.022408573 0.093248583 0.75900006 1.08754e-38
-0.02090762 0.093002863 0.75700003 1.08754e-38
-0.019465715 0.093002863 0.75700003 8.7603154e-39
-0.018023811 0.093002863 0.75700003 6.8242072e-39
-0.016625715 0.093248583 0.75900006 4.2507156e-39
-0.015180001 0.093248583 0.75900006 5.8180413e-39
-0.013734287 0.093248583 0.75900006 7.1962884e-39
-0.012288572 0.093248583 0.75900006 7.1040928e-39
-0.010842858 0.093248583 0.75900006 5.1708614e-39
-0.0094219055 0.093494289 0.76100004 6.5537958e-39
-0.0079723811 0.093494289 0.76100004 7.2884518e-39
-0.0065228576 0.093494289 0.76100004 5.5367348e-39
-0.0050733336 0.093494289 0.76100004 6.1799196e-39
-0.0036238097 0.093494289 0.76100004 6.6408978e-39
-0.0021771428 0.093617149 0.76200002 8.1135097e-39
-0.00072571432 0.093617149 0.76200002 8.8510747e-39
0.00072571432 0.093617149 0.76200002 1.0049603e-38
0.0021885715 0.094108574 0.76600003 1.1063754e-38
0.0036476192 0.094108574 0.76600003 1.2443132e-38
0.0051133335 0.094231427 0.76700002 1.5116806e-38
0.006591429 0.094477147 0.76900005 1.493204e-38
0.0080771428 0.09472286 0.77100003 1.493204e-38
0.0095704766 0.09496858 0.77300006 1.5298302e-38
0.011057143 0.095091432 0.77400005 1.5851476e-38
0.01253143 0.095091432 0.77400005 1.5944411e-38
0.014005715 0.095091432 0.77400005 1.6497585e-38
0.015520001 0.095337145 0.77600002 1.649828e-38
0.017041905 0.095582865 0.77800006 2.009391e-38
0.01852381 0.095582865 0.77800006 2.0555622e-38
-0.059061907 0.097938098 0.78500003 2.2216588e-38
-0.057420004 0.097688578 0.78300005 2.028048e-38
-0.055928573 0.097688578 0.78300005 1.9818423e-38
-0.054298095 0.097439051 0.78100002 1.9080858e-38
-0.052607622 0.097064771 0.77800006 1.8434769e-38
-0.05086286 0.096565716 0.77400005 1.8526965e-38
-0.049324766 0.096440956 0.77300006 1.8618424e-38
-0.047728572 0.096191436 0.77100003 1.7788663e-38
-0.046020001 0.095692381 0.76700002 1.714296e-38
-0.044500954 0.095567621 0.76600003 1.6958569e-38
-0.043041904 0.095567621 0.76600003 1.6681616e-38
-0.04147429 0.095318101 0.76400006 1.6681616e-38
-0.039914284 0.095068574 0.76200002 1.603622e-38
-0.038412381 0.094943814 0.76100004 1.4837677e-38
-0.036962859 0.094943814 0.76100004 1.502168e-38
-0.035513334 0.094943814 0.76100004 1.5206071e-38
-0.034063812 0.094943814 0.76100004 1.5205362e-38
-0.032528572 0.094694294 0.75900006 1.5481949e-38
-0.031082857 0.094694294 0.75900006 1.4284122e-38
-0.029637145 0.094694294 0.75900006 1.2532405e-38
-0.02819143 0.094694294 0.75900006 1.1612646e-38
-0.026745716 0.094694294 0.75900006 1.1612646e-38
-0.025300002 0.094694294 0.75900006 1.1337827e-38
-0.023854287 0.094694294 0.75900006 1.1430023e-38
-0.022408573 0.094694294 0.75900006 1.152113e-38
-0.020962859 0.094694294 0.75900006 1.1705521e-38
-0.019517144 0.094694294 0.75900006 9.589716e-39
-0.01807143 0.094694294 0.75900006 8.2989772e-39
-0.016625715 0.094694294 0.75900006 8.2082823e-39
-0.015180001 0.094694294 0.75900006 8.3926736e-39
-0.013734287 0.094694294 0.75900006 9.6812292e-39
-0.012288572 0.094694294 0.75900006 9.6812292e-39
-0.010871429 0.094943814 0.76100004 1.0050012e-38
-0.0094219055 0.094943814 0.76100004 1.0326599e-38
-0.0079723811 0.094943814 0.76100004 1.0787553e-38
-0.0065228576 0.094943814 0.76100004 1.1248531e-38
-0.0050733336 0.094943814 0.76100004 1.0418421e-38
-0.0036285715 0.095068574 0.76200002 1.0049639e-38
-0.0021771428 0.095068574 0.76200002 9.8648735e-39
-0.00072571432 0.095068574 0.76200002 9.496091e-39
0.00072571432 0.095068574 0.76200002 1.0231139e-38
0.0021885715 0.095567621 0.76600003 1.2628226e-38
0.003652381 0.095692381 0.76700002 1.2811918e-38
0.0051133335 0.095692381 0.76700002 1.53012e-38
0.006591429 0.095941909 0.76900005 1.5024233e-38
0.0080771428 0.096191436 0.77100003 1.5024233e-38
0.0095828576 0.096565716 0.77400005 1.5392295e-38
0.011057143 0.096565716 0.77400005 1.5668882e-38
0.01253143 0.096565716 0.77400005 1.5760749e-38
0.014005715 0.096565716 0.77400005 1.6867096e-38
0.015560001 0.097064771 0.77800006 1.6591564e-38
0.017041905 0.097064771 0.77800006 1.9726216e-38
0.01852381 0.097064771 0.77800006 2.0463792e-38
-0.059362859 0.099940002 0.78900003 2.2216235e-38
-0.057420004 0.099180005 0.78300005 2.0372322e-38
-0.055928573 0.099180005 0.78300005 1.9910618e-38
-0.054298095 0.098926663 0.78100002 1.8712075e-38
-0.052742857 0.098800004 0.78000003 1.806489e-38
-0.050994288 0.098293334 0.77600002 1.7603911e-38
-0.049388573 0.098040007 0.77400005 1.7695754e-38
-0.047852382 0.09791334 0.77300006 1.778795e-38
-0.04614 0.09740667 0.76900005 1.742025e-38
-0.044500954 0.097026668 0.76600003 1.7235859e-38
-0.043041904 0.097026668 0.76600003 1.6314273e-38
-0.04147429 0.096773341 0.76400006 1.6406468e-38
-0.04001905 0.096773341 0.76400006 1.5577058e-38
-0.038462859 0.096519999 0.76200002 1.4101928e-38
-0.037011426 0.096519999 0.76200002 1.3823144e-38
-0.035513334 0.096393339 0.76100004 1.4284122e-38
-0.034063812 0.096393339 0.76100004 1.4742945e-38
-0.032614287 0.096393339 0.76100004 1.4927336e-38
-0.031082857 0.096140005 0.75900006 1.4284127e-38
-0.029637145 0.096140005 0.75900006 1.2901193e-38
-0.02819143 0.096140005 0.75900006 1.2350565e-38
-0.026745716 0.096140005 0.75900006 1.1705196e-38
-0.025366668 0.096393339 0.76100004 1.1613345e-38
-0.023917144 0.096393339 0.76100004 1.1521149e-38
-0.022467621 0.096393339 0.76100004 1.1337477e-38
-0.020962859 0.096140005 0.75900006 1.1521868e-38
-0.019517144 0.096140005 0.75900006 1.087867e-38
-0.01807143 0.096140005 0.75900006 9.5879307e-39
-0.016669523 0.096393339 0.76100004 9.6797802e-39
-0.01522 0.096393339 0.76100004 9.8641715e-39
-0.013770477 0.096393339 0.76100004 1.1151671e-38
-0.012320952 0.096393339 0.76100004 1.2073627e-38
-0.010871429 0.096393339 0.76100004 1.2075072e-38
-0.0094342856 0.096519999 0.76200002 1.1982876e-38
-0.0079828566 0.096519999 0.76200002 1.1983226e-38
-0.0065314285 0.096519999 0.76200002 1.1891031e-38
-0.00508 0.096519999 0.76200002 1.133749e-38
-0.0036285715 0.096519999 0.76200002 1.0876512e-38
-0.0021771428 0.096519999 0.76200002 1.0507013e-38
-0.0007276191 0.096773341 0.76400006 1.1060187e-38
0.00072952383 0.097026668 0.76600003 1.1890641e-38
0.0021914286 0.097153336 0.76700002 1.2904793e-38
0.003652381 0.097153336 0.76700002 1.4285572e-38
0.0051266667 0.09740667 0.76900005 1.5576311e-38
0.0066085714 0.097660005 0.77100003 1.4378864e-38
0.0080980957 0.09791334 0.77300006 1.5024233e-38
0.0095828576 0.098040007 0.77400005 1.5393016e-38
0.011057143 0.098040007 0.77400005 1.5393016e-38
0.01253143 0.098040007 0.77400005 1.5852571e-38
0.014041905 0.098293334 0.77600002 1.6958919e-38
0.015560001 0.098546669 0.77800006 1.6407168e-38
0.017041905 0.098546669 0.77800006 1.9357428e-38
0.01852381 0.098546669 0.77800006 2.0279404e-38
-0.059362859 0.10144287 0.78900003 2.2307714e-38
-0.057566669 0.10092857 0.78500003 2.0463802e-38
-0.05607143 0.10092857 0.78500003 1.9726237e-38
-0.054437146 0.10067143 0.78300005 1.8619889e-38
-0.052742857 0.10028572 0.78000003 1.7604988e-38
-0.050994288 0.099771433 0.77600002 1.5576684e-38
-0.049388573 0.099514291 0.77400005 1.557776e-38
-0.047852382 0.099385723 0.77300006 1.5854347e-38
-0.04614 0.09887144 0.76900005 1.695889e-38
-0.04455905 0.09861429 0.76700002 1.7604259e-38
-0.043041904 0.098485716 0.76600003 1.6773443e-38
-0.04158286 0.098485716 0.76600003 1.6865639e-38
-0.04001905 0.098228574 0.76400006 1.6035878e-38
-0.038563814 0.098228574 0.76400006 1.4560748e-38
-0.037108574 0.098228574 0.76400006 1.3732405e-38
-0.035560001 0.097971432 0.76200002 1.364021e-38
-0.034108575 0.097971432 0.76200002 1.4099724e-38
-0.032614287 0.097842865 0.76100004 1.4099724e-38
-0.031164765 0.097842865 0.76100004 1.3639847e-38
-0.02971524 0.097842865 0.76100004 1.2717891e-38
-0.02819143 0.097585723 0.75900006 1.1705204e-38
-0.026745716 0.097585723 0.75900006 1.1244226e-38
-0.025366668 0.097842865 0.76100004 1.1336771e-38
-0.023917144 0.097842865 0.76100004 1.1428966e-38
-0.022467621 0.097842865 0.76100004 1.1153101e-38
-0.021018095 0.097842865 0.76100004 1.1429688e-38
-0.019568572 0.097842865 0.76100004 1.1430767e-38
-0.018119048 0.097842865 0.76100004 1.1891745e-38
-0.016669523 0.097842865 0.76100004 1.1246373e-38
-0.01522 0.097842865 0.76100004 1.1430764e-38
-0.013770477 0.097842865 0.76100004 1.1705909e-38
-0.012320952 0.097842865 0.76100004 1.1705909e-38
-0.010871429 0.097842865 0.76100004 1.1981791e-38
-0.0094342856 0.097971432 0.76200002 1.2258378e-38
-0.0079828566 0.097971432 0.76200002 1.2442422e-38
-0.0065314285 0.097971432 0.76200002 1.2811204e-38
-0.00508 0.097971432 0.76200002 1.2904099e-38
-0.0036285715 0.097971432 0.76200002 1.3272882e-38
-0.0021771428 0.097971432 0.76200002 1.4471073e-38
-0.00072952383 0.098485716 0.76600003 1.4471073e-38
0.00072952383 0.098485716 0.76600003 1.4747649e-38
0.0021914286 0.09861429 0.76700002 1.5485214e-38
0.003652381 0.09861429 0.76700002 1.5300788e-38
0.0051266667 0.09887144 0.76900005 1.5577375e-38
0.0066085714 0.099128574 0.77100003 1.4839847e-38
0.0080980957 0.099385723 0.77300006 1.4932043e-38
0.0095828576 0.099514291 0.77400005 1.5301176e-38
0.011057143 0.099514291 0.77400005 1.5485567e-38
0.01256381 0.099771433 0.77600002 1.5577412e-38
0.014041905 0.099771433 0.77600002 1.6775956e-38
0.015560001 0.10002857 0.77800006 1.6499363e-38
0.017085714 0.10028572 0.78000003 1.9173036e-38
0.018571429 0.10028572 0.78000003 2.0739666e-38
-0.057566669 0.10242382 0.78500003 2.0463802e-38
-0.05607143 0.10242382 0.78500003 1.9818072e-38
-0.054437146 0.10216286 0.78300005 1.880392e-38
-0.052810475 0.1019019 0.78100002 1.7512795e-38
-0.050994288 0.10124952 0.77600002 1.5853273e-38
-0.049388573 0.10098858 0.77400005 1.4746923e-38
-0.047914285 0.10098858 0.77400005 1.5300097e-38
-0.046260003 0.10059715 0.77100003 1.6312091e-38
-0.044675242 0.10033619 0.76900005 1.6865265e-38
-0.043098096 0.10007524 0.76700002 1.6864914e-38
-0.04158286 0.099944763 0.76600003 1.6864914e-38
-0.040123809 0.099944763 0.76600003 1.5943688e-38
-0.038664766 0.099944763 0.76600003 1.5390514e-38
-0.037108574 0.099683814 0.76400006 1.5023157e-38
-0.035653338 0.099683814 0.76400006 1.4562179e-38
-0.034108575 0.099422857 0.76200002 1.4285935e-38
-0.032657143 0.099422857 0.76200002 1.4378131e-38
-0.031205716 0.099422857 0.76200002 1.4101201e-38
-0.02971524 0.099292383 0.76100004 1.2626071e-38
-0.028265715 0.099292383 0.76100004 1.1521162e-38
-0.026816191 0.099292383 0.76100004 1.1705553e-38
-0.025366668 0.099292383 0.76100004 1.1614795e-38
-0.023917144 0.099292383 0.76100004 1.1246013e-38
-0.022467621 0.099292383 0.76100004 1.0600638e-38
-0.021018095 0.099292383 0.76100004 1.1246007e-38
-0.019568572 0.099292383 0.76100004 1.1613358e-38
-0.018119048 0.099292383 0.76100004 1.198214e-38
-0.016669523 0.099292383 0.76100004 1.1245998e-38
-0.01522 0.099292383 0.76100004 1.1430389e-38
-0.013770477 0.099292383 0.76100004 1.1522597e-38
-0.012320952 0.099292383 0.76100004 1.1706988e-38
-0.010871429 0.099292383 0.76100004 1.2442761e-38
-0.0094342856 0.099422857 0.76200002 1.308813e-38
-0.0079828566 0.099422857 0.76200002 1.3639506e-38
-0.0065314285 0.099422857 0.76200002 1.3639506e-38
-0.00508 0.099422857 0.76200002 1.354803e-38
-0.0036285715 0.099422857 0.76200002 1.4746573e-38
-0.0021828574 0.099683814 0.76400006 1.5116448e-38
-0.00072952383 0.099944763 0.76600003 1.5024253e-38
0.00072952383 0.099944763 0.76600003 1.5024239e-38
0.0021914286 0.10007524 0.76700002 1.5024239e-38
0.003652381 0.10007524 0.76700002 1.4378494e-38
0.00514 0.10059715 0.77100003 1.5116059e-38
0.0066085714 0.10059715 0.77100003 1.4839847e-38
0.0080980957 0.1008581 0.77300006 1.5024239e-38
0.0096076196 0.10124952 0.77600002 1.5392293e-38
0.011085714 0.10124952 0.77600002 1.5761075e-38
0.01256381 0.10124952 0.77600002 1.5577407e-38
0.014078096 0.10151048 0.77800006 1.5946189e-38
0.015560001 0.10151048 0.77800006 1.5946189e-38
0.017085714 0.10177143 0.78000003 1.9080841e-38
0.018595237 0.1019019 0.78100002 2.0924773e-38
-0.057566669 0.10391905 0.78500003 2.0372688e-38
-0.05607143 0.10391905 0.78500003 1.9818425e-38
-0.054437146 0.10365429 0.78300005 1.9173056e-38
-0.052742857 0.10325715 0.78000003 1.8064897e-38
-0.051125716 0.10299239 0.77800006 1.7696114e-38
-0.049388573 0.10246287 0.77400005 1.6038052e-38
-0.047914285 0.10246287 0.77400005 1.5116095e-38
-0.046260003 0.10206572 0.77100003 1.502461e-38
-0.044675242 0.10180096 0.76900005 1.4287045e-38
-0.043098096 0.10153619 0.76700002 1.4838768e-38
-0.041637145 0.10153619 0.76700002 1.5484138e-38
-0.040123809 0.10140382 0.76600003 1.5575254e-38
-0.038664766 0.10140382 0.76600003 1.566745e-38
-0.037205715 0.10140382 0.76600003 1.5392316e-38
-0.035746668 0.10140382 0.76600003 1.5300121e-38
-0.034198094 0.10113905 0.76400006 1.5299744e-38
-0.032742858 0.10113905 0.76400006 1.5391939e-38
-0.031287622 0.10113905 0.76400006 1.4839145e-38
-0.029754287 0.10087429 0.76200002 1.4562558e-38
-0.028302858 0.10087429 0.76200002 1.3918981e-38
-0.026851429 0.10087429 0.76200002 1.3642394e-38
-0.0254 0.10087429 0.76200002 1.4011163e-38
-0.023948571 0.10087429 0.76200002 1.4195554e-38
-0.022497144 0.10087429 0.76200002 1.4010814e-38
-0.021018095 0.10074191 0.76100004 1.3826423e-38
-0.019568572 0.10074191 0.76100004 1.4194486e-38
-0.018119048 0.10074191 0.76100004 1.4471073e-38
-0.016669523 0.10074191 0.76100004 1.4287387e-38
-0.01522 0.10074191 0.76100004 1.4563974e-38
-0.013770477 0.10074191 0.76100004 1.4287031e-38
-0.012320952 0.10074191 0.76100004 1.3918248e-38
-0.010885715 0.10087429 0.76200002 1.4561833e-38
-0.0094342856 0.10087429 0.76200002 1.5575985e-38
-0.0079828566 0.10087429 0.76200002 1.493204e-38
-0.0065314285 0.10087429 0.76200002 1.5024236e-38
-0.00508 0.10087429 0.76200002 1.4931341e-38
-0.0036380955 0.10113905 0.76400006 1.5300124e-38
-0.0021828574 0.10113905 0.76400006 1.493204e-38
-0.00073047623 0.10153619 0.76700002 1.4747649e-38
0.00073047623 0.10153619 0.76700002 1.502316e-38
0.0021914286 0.10153619 0.76700002 1.502316e-38
0.0036619049 0.10180096 0.76900005 1.5022441e-38
0.00514 0.10206572 0.77100003 1.5206832e-38
0.0066085714 0.10206572 0.77100003 1.5023887e-38
0.0080980957 0.10233048 0.77300006 1.5392669e-38
0.0096076196 0.10272762 0.77600002 1.530082e-38
0.011085714 0.10272762 0.77600002 1.6038385e-38
0.01256381 0.10272762 0.77600002 1.5853994e-38
0.014078096 0.10299239 0.77800006 1.6407168e-38
0.015600001 0.10325715 0.78000003 1.6222776e-38
0.017107621 0.10338953 0.78100002 1.8988645e-38
0.018595237 0.10338953 0.78100002 2.0555625e-38
0.020082857 0.10338953 0.78100002 2.3321494e-38
-0.057713337 0.10568286 0.78700006 2.0373404e-38
-0.05607143 0.10541429 0.78500003 1.9726224e-38
-0.054437146 0.10514572 0.78300005 1.8619877e-38
-0.052742857 0.10474286 0.78000003 1.8893931e-38
-0.051125716 0.10447429 0.77800006 1.8064171e-38
-0.04951619 0.10420571 0.77600002 1.6960008e-38
-0.047914285 0.10393715 0.77400005 1.5945856e-38
-0.046380006 0.10380287 0.77300006 1.4198099e-38
-0.04479143 0.10353429 0.77100003 1.3276143e-38
-0.043098096 0.10299715 0.76700002 1.216798e-38
-0.041637145 0.10299715 0.76700002 1.3089937e-38
-0.040123809 0.10286286 0.76600003 1.4099749e-38
-0.038664766 0.10286286 0.76600003 1.4560727e-38
-0.037205715 0.10286286 0.76600003 1.5574889e-38
-0.035746668 0.10286286 0.76600003 1.5574889e-38
-0.034198094 0.10259429 0.76400006 1.5483412e-38
-0.032742858 0.10259429 0.76400006 1.5483412e-38
-0.031287622 0.10259429 0.76400006 1.4839496e-38
-0.029832384 0.10259429 0.76400006 1.4655104e-38
-0.028302858 0.10232572 0.76200002 1.4563269e-38
-0.026851429 0.10232572 0.76200002 1.4655465e-38
-0.0254 0.10232572 0.76200002 1.4839119e-38
-0.023948571 0.10232572 0.76200002 1.4839119e-38
-0.022467621 0.10219143 0.76100004 1.4930961e-38
-0.021018095 0.10219143 0.76100004 1.4838766e-38
-0.019568572 0.10219143 0.76100004 1.4838057e-38
-0.018119048 0.10219143 0.76100004 1.4930252e-38
-0.01669143 0.10232572 0.76200002 1.4746563e-38
-0.015240001 0.10232572 0.76200002 1.4930954e-38
-0.013788572 0.10232572 0.76200002 1.5023157e-38
-0.012337144 0.10232572 0.76200002 1.5023157e-38
-0.010885715 0.10232572 0.76200002 1.4561114e-38
-0.0094342856 0.10232572 0.76200002 1.5114288e-38
-0.0079828566 0.10232572 0.76200002 1.4839845e-38
-0.0065485719 0.10259429 0.76400006 1.4839845e-38
-0.0050933338 0.10259429 0.76400006 1.47473e-38
-0.0036380955 0.10259429 0.76400006 1.4655104e-38
-0.0021885715 0.10286286 0.76600003 1.4285582e-38
-0.00073047623 0.10299715 0.76700002 1.5023147e-38
0.00073047623 0.10299715 0.76700002 1.4930615e-38
0.0021914286 0.10299715 0.76700002 1.4930615e-38
0.0036619049 0.10326572 0.76900005 1.5022441e-38
0.00514 0.10353429 0.77100003 1.5114636e-38
0.0066257147 0.10380287 0.77300006 1.539086e-38
0.0081085721 0.10393715 0.77400005 1.5575252e-38
0.0096076196 0.10420571 0.77600002 1.5484488e-38
0.011085714 0.10420571 0.77600002 1.5853271e-38
0.012596191 0.10447429 0.77800006 1.5485564e-38
0.014114286 0.10474286 0.78000003 1.6223129e-38
0.015660001 0.10514572 0.78300005 1.6406444e-38
0.017151428 0.10514572 0.78300005 1.8987922e-38
0.018642858 0.10514572 0.78300005 2.037051e-38
0.020134287 0.10514572 0.78300005 2.3505162e-38
-0.057713337 0.10718191 0.78700006 2.0833656e-38
-0.05607143 0.10690953 0.78500003 1.9817704e-38
-0.054437146 0.10663715 0.78300005 1.8619161e-38
-0.052742857 0.10622857 0.78000003 1.7788666e-38
-0.051125716 0.1059562 0.77800006 1.6497927e-38
-0.04951619 0.10568381 0.77600002 1.6498314e-38
-0.047914285 0.10541143 0.77400005 1.6959292e-38
-0.046380006 0.10527524 0.77300006 1.6223509e-38
-0.044907622 0.10527524 0.77300006 1.5024966e-38
-0.043098096 0.10445809 0.76700002 1.3917565e-38
-0.041637145 0.10445809 0.76700002 1.3087804e-38
-0.04017619 0.10445809 0.76700002 1.2996285e-38
-0.038664766 0.1043219 0.76600003 1.225872e-38
-0.037205715 0.1043219 0.76600003 1.4009708e-38
-0.035746668 0.1043219 0.76600003 1.502386e-38
-0.03428762 0.1043219 0.76600003 1.511534e-38
-0.032742858 0.10404953 0.76400006 1.4838753e-38
-0.031287622 0.10404953 0.76400006 1.4746573e-38
-0.029832384 0.10404953 0.76400006 1.4746573e-38
-0.028377144 0.10404953 0.76400006 1.4471073e-38
-0.026851429 0.10377715 0.76200002 1.4839856e-38
-0.0254 0.10377715 0.76200002 1.4562882e-38
-0.023948571 0.10377715 0.76200002 1.4470687e-38
-0.022467621 0.10364096 0.76100004 1.4562532e-38
-0.021018095 0.10364096 0.76100004 1.4654727e-38
-0.019594287 0.10377715 0.76200002 1.4838403e-38
-0.018142859 0.10377715 0.76200002 1.446962e-38
-0.01669143 0.10377715 0.76200002 1.4377439e-38
-0.015240001 0.10377715 0.76200002 1.456183e-38
-0.013788572 0.10377715 0.76200002 1.4839119e-38
-0.012337144 0.10377715 0.76200002 1.502351e-38
-0.010885715 0.10377715 0.76200002 1.456147e-38
-0.0094342856 0.10377715 0.76200002 1.4377078e-38
-0.0079828566 0.10377715 0.76200002 1.4838759e-38
-0.0065485719 0.10404953 0.76400006 1.4930954e-38
-0.0050933338 0.10404953 0.76400006 1.4746573e-38
-0.0036476192 0.1043219 0.76600003 1.4654377e-38
-0.0021885715 0.1043219 0.76600003 1.5116043e-38
-0.00073047623 0.10445809 0.76700002 1.5484826e-38
0.00073047623 0.10445809 0.76700002 1.4930265e-38
0.0021914286 0.10445809 0.76700002 1.4838069e-38
0.0036619049 0.10473049 0.76900005 1.502101e-38
0.00514 0.10500287 0.77100003 1.502101e-38
0.0066257147 0.10527524 0.77300006 1.5207904e-38
0.0081085721 0.10541143 0.77400005 1.53001e-38
0.0096076196 0.10568381 0.77600002 1.5208624e-38
0.011114286 0.1059562 0.77800006 1.5853994e-38
0.012596191 0.1059562 0.77800006 1.5945819e-38
0.014132381 0.10636476 0.78100002 1.6406798e-38
0.015660001 0.10663715 0.78300005 1.6497914e-38
0.017195238 0.10690953 0.78500003 1.9079392e-38
0.018690476 0.10690953 0.78500003 2.0646741e-38
0.020185716 0.10690953 0.78500003 2.3506607e-38
-0.057860002 0.10895715 0.78900003 2.1018771e-38
-0.056214292 0.10868096 0.78700006 2.0186842e-38
-0.054576188 0.10840476 0.78500003 1.8711712e-38
-0.052810475 0.10785238 0.78100002 1.7604988e-38
-0.051257145 0.10771429 0.78000003 1.6222053e-38
-0.049643811 0.1074381 0.77800006 1.594584e-38
-0.048038095 0.10716191 0.77600002 1.6499014e-38
-0.046440005 0.10688572 0.77400005 1.7511011e-38
-0.044907622 0.10674763 0.77300006 1.7050033e-38
-0.043210477 0.10619524 0.76900005 1.6407182e-38
-0.041637145 0.10591905 0.76700002 1.4563269e-38
-0.04017619 0.10591905 0.76700002 1.3182471e-38
-0.038664766 0.10578096 0.76600003 1.299808e-38
-0.037205715 0.10578096 0.76600003 1.3550175e-38
-0.035746668 0.10578096 0.76600003 1.4840914e-38
-0.03428762 0.10578096 0.76600003 1.493167e-38
-0.032828573 0.10578096 0.76600003 1.4839475e-38
-0.031369522 0.10578096 0.76600003 1.4562909e-38
-0.029832384 0.10550477 0.76400006 1.4562909e-38
-0.028377144 0.10550477 0.76400006 1.4194136e-38
-0.026921906 0.10550477 0.76400006 1.4562919e-38
-0.0254 0.10522857 0.76200002 1.4655078e-38
-0.023948571 0.10522857 0.76200002 1.4562882e-38
-0.022497144 0.10522857 0.76200002 1.4101544e-38
-0.021045715 0.10522857 0.76200002 1.4839109e-38
-0.019594287 0.10522857 0.76200002 1.4930612e-38
-0.018142859 0.10522857 0.76200002 1.4654025e-38
-0.01669143 0.10522857 0.76200002 1.4192673e-38
-0.015240001 0.10522857 0.76200002 1.446926e-38
-0.013788572 0.10522857 0.76200002 1.4838405e-38
-0.012337144 0.10522857 0.76200002 1.4930601e-38
-0.010914287 0.10550477 0.76400006 1.456183e-38
-0.0094590485 0.10550477 0.76400006 1.456183e-38
-0.0080247624 0.10578096 0.76600003 1.4930252e-38
-0.0065657143 0.10578096 0.76600003 1.4745861e-38
-0.0051066671 0.10578096 0.76600003 1.4469634e-38
-0.0036476192 0.10578096 0.76600003 1.5207199e-38
-0.0021914286 0.10591905 0.76700002 1.5024589e-38
-0.00073047623 0.10591905 0.76700002 1.5024589e-38
0.00073238101 0.10619524 0.76900005 1.4837701e-38
0.0021971429 0.10619524 0.76900005 1.4837701e-38
0.0036714287 0.10647143 0.77100003 1.4837674e-38
0.0051533333 0.10674763 0.77300006 1.5298652e-38
0.0066342861 0.10688572 0.77400005 1.5667798e-38
0.0081295241 0.10716191 0.77600002 1.5575602e-38
0.0096323816 0.1074381 0.77800006 1.5485564e-38
0.011142857 0.10771429 0.78000003 1.5669956e-38
0.012644762 0.10785238 0.78100002 1.5945819e-38
0.014168572 0.10812858 0.78300005 1.6130211e-38
0.015700001 0.10840476 0.78500003 1.6312441e-38
0.017195238 0.10840476 0.78500003 1.8986114e-38
0.018738097 0.10868096 0.78700006 2.0831133e-38
0.020237144 0.10868096 0.78700006 2.3504806e-38
-0.056214292 0.11018001 0.78700006 2.0095363e-38
-0.054576188 0.10990001 0.78500003 1.9081211e-38
-0.052945714 0.10962 0.78300005 1.7513895e-38
-0.051322855 0.10934 0.78100002 1.6499743e-38
-0.049771432 0.1092 0.78000003 1.6407168e-38
-0.048161909 0.10892 0.77800006 1.3917886e-38
-0.046560001 0.10864001 0.77600002 1.4654367e-38
-0.044965718 0.10836001 0.77400005 1.5299737e-38
-0.043322857 0.10794 0.77100003 1.5117135e-38
-0.041745719 0.10766 0.76900005 1.5117135e-38
-0.040280953 0.10766 0.76900005 1.4564321e-38
-0.03871524 0.10738 0.76700002 1.4656517e-38
-0.037254285 0.10738 0.76700002 1.4748731e-38
-0.035793334 0.10738 0.76700002 1.53941e-38
-0.03428762 0.10724001 0.76600003 1.5392646e-38
-0.032828573 0.10724001 0.76600003 1.5484841e-38
-0.031369522 0.10724001 0.76600003 1.4838417e-38
-0.029910479 0.10724001 0.76600003 1.4838417e-38
-0.028377144 0.10696001 0.76400006 1.5021751e-38
-0.026921906 0.10696001 0.76400006 1.5113947e-38
-0.0254 0.10668 0.76200002 1.5114261e-38
-0.023948571 0.10668 0.76200002 1.5298652e-38
-0.022497144 0.10668 0.76200002 1.520681e-38
-0.021100953 0.10696001 0.76400006 1.5483397e-38
-0.019594287 0.10668 0.76200002 1.511465e-38
-0.018142859 0.10668 0.76200002 1.5022455e-38
-0.016735239 0.10696001 0.76400006 1.5114264e-38
-0.015280001 0.10696001 0.76400006 1.4468894e-38
-0.013788572 0.10668 0.76200002 1.4930245e-38
-0.012337144 0.10668 0.76200002 1.4930245e-38
-0.010914287 0.10696001 0.76400006 1.4654025e-38
-0.0094590485 0.10696001 0.76400006 1.4746221e-38
-0.0080247624 0.10724001 0.76600003 1.4838069e-38
-0.0065657143 0.10724001 0.76600003 1.4284895e-38
-0.0051066671 0.10724001 0.76600003 1.4377085e-38
-0.0036476192 0.10724001 0.76600003 1.5483433e-38
-0.0021914286 0.10738 0.76700002 1.5207904e-38
-0.00073047623 0.10738 0.76700002 1.5023513e-38
0.00073238101 0.10766 0.76900005 1.5023157e-38
0.0021971429 0.10766 0.76900005 1.5484135e-38
0.0036714287 0.10794 0.77100003 1.548411e-38
0.0051600002 0.10836001 0.77400005 1.5760697e-38
0.0066342861 0.10836001 0.77400005 1.5392646e-38
0.0081295241 0.10864001 0.77600002 1.5208254e-38
0.0096323816 0.10892 0.77800006 1.5669233e-38
0.011142857 0.1092 0.78000003 1.5853624e-38
0.012644762 0.10934 0.78100002 1.5853627e-38
0.014204763 0.10990001 0.78500003 1.6038018e-38
0.01574 0.11018001 0.78700006 1.6129132e-38
0.017239049 0.11018001 0.78700006 1.8710609e-38
0.018785715 0.11046 0.78900003 2.037051e-38
0.020288572 0.11046 0.78900003 2.3228575e-38
-0.056357145 0.11196286 0.78900003 2.0095363e-38
-0.054715242 0.11167905 0.78700006 1.8896819e-38
-0.052945714 0.11111143 0.78300005 1.834329e-38
-0.051322855 0.11082762 0.78100002 1.686816e-38
-0.049771432 0.11068571 0.78000003 1.6868146e-38
-0.048161909 0.11040191 0.77800006 1.4655451e-38
-0.046560001 0.11011809 0.77600002 1.3732069e-38
-0.044965718 0.10983429 0.77400005 1.4100852e-38
-0.043435238 0.10969239 0.77300006 1.3918965e-38
-0.041854288 0.10940857 0.77100003 1.3918965e-38
-0.040280953 0.10912477 0.76900005 1.410264e-38
-0.038816195 0.10912477 0.76900005 1.3918248e-38
-0.037254285 0.10884096 0.76700002 1.419305e-38
-0.035793334 0.10884096 0.76700002 1.5115006e-38
-0.03428762 0.10869905 0.76600003 1.4932043e-38
-0.032828573 0.10869905 0.76600003 1.4747652e-38
-0.031369522 0.10869905 0.76600003 1.4746221e-38
-0.029910479 0.10869905 0.76600003 1.4654025e-38
-0.028377144 0.10841525 0.76400006 1.4836269e-38
-0.026921906 0.10841525 0.76400006 1.4928464e-38
-0.025466667 0.10841525 0.76400006 1.5021712e-38
-0.024011429 0.10841525 0.76400006 1.4837321e-38
-0.022556191 0.10841525 0.76400006 1.4653658e-38
-0.021100953 0.10841525 0.76400006 1.5114636e-38
-0.019645717 0.10841525 0.76400006 1.511465e-38
-0.018190479 0.10841525 0.76400006 1.511465e-38
-0.016735239 0.10841525 0.76400006 1.53905e-38
-0.015280001 0.10841525 0.76400006 1.4837326e-38
-0.013824763 0.10841525 0.76400006 1.4745854e-38
-0.012369525 0.10841525 0.76400006 1.483805e-38
-0.010914287 0.10841525 0.76400006 1.4745868e-38
-0.0094838096 0.10869905 0.76600003 1.4469281e-38
-0.0080247624 0.10869905 0.76600003 1.419305e-38
-0.0065657143 0.10869905 0.76600003 1.4008659e-38
-0.0051133335 0.10884096 0.76700002 1.3731709e-38
-0.003652381 0.10884096 0.76700002 1.5114643e-38
-0.0021914286 0.10884096 0.76700002 1.4377441e-38
-0.00073047623 0.10884096 0.76700002 1.4746224e-38
0.00073238101 0.10912477 0.76900005 1.4746573e-38
0.0021971429 0.10912477 0.76900005 1.502316e-38
0.0036714287 0.10940857 0.77100003 1.5023848e-38
0.0051600002 0.10983429 0.77400005 1.539263e-38
0.0066514285 0.11011809 0.77600002 1.520898e-38
0.0081295241 0.11011809 0.77600002 1.5301176e-38
0.0096323816 0.11040191 0.77800006 1.557704e-38
0.011142857 0.11068571 0.78000003 1.5853627e-38
0.012644762 0.11082762 0.78100002 1.5761075e-38
0.014204763 0.11139524 0.78500003 1.5761075e-38
0.01574 0.11167905 0.78700006 1.5853624e-38
0.017239049 0.11167905 0.78700006 1.7974123e-38
0.018785715 0.11196286 0.78900003 1.9816981e-38
0.020314286 0.11210477 0.79000002 2.2767241e-38
-0.057933334 0.11360952 0.79000002 2.1479033e-38
-0.056357145 0.11346572 0.78900003 2.0187921e-38
-0.054854289 0.11346572 0.78900003 1.8712791e-38
-0.053080954 0.11289048 0.78500003 1.7790482e-38
-0.051322855 0.11231524 0.78100002 1.7421699e-38
-0.049771432 0.11217143 0.78000003 1.7235839e-38
-0.048161909 0.11188382 0.77800006 1.6774861e-38
-0.046560001 0.11159619 0.77600002 1.5945493e-38
-0.044965718 0.11130857 0.77400005 1.4470363e-38
-0.043435238 0.11116477 0.77300006 1.4010095e-38
-0.041962862 0.11116477 0.77300006 1.3180334e-38
-0.040385716 0.11087715 0.77100003 1.3456561e-38
-0.038816195 0.11058953 0.76900005 1.3364366e-38
-0.037254285 0.1103019 0.76700002 1.2442053e-38
-0.035793334 0.1103019 0.76700002 1.2349858e-38
-0.03433238 0.1103019 0.76700002 1.2350565e-38
-0.032828573 0.1101581 0.76600003 1.2350565e-38
-0.031369522 0.1101581 0.76600003 1.2442761e-38
-0.029910479 0.1101581 0.76600003 1.308813e-38
-0.02845143 0.1101581 0.76600003 1.3271064e-38
-0.026992382 0.1101581 0.76600003 1.3271064e-38
-0.025533335 0.1101581 0.76600003 1.3270714e-38
-0.024074288 0.1101581 0.76600003 1.3178518e-38
-0.022556191 0.10987048 0.76400006 1.3178898e-38
-0.021100953 0.10987048 0.76400006 1.3271094e-38
-0.019645717 0.10987048 0.76400006 1.3362557e-38
-0.018190479 0.10987048 0.76400006 1.3270361e-38
-0.016735239 0.10987048 0.76400006 1.3455105e-38
-0.015280001 0.10987048 0.76400006 1.3547301e-38
-0.013824763 0.10987048 0.76400006 1.271755e-38
-0.012369525 0.10987048 0.76400006 1.271755e-38
-0.010942858 0.1101581 0.76600003 1.2257662e-38
-0.0094838096 0.1101581 0.76600003 1.1704488e-38
-0.0080247624 0.1101581 0.76600003 1.2072548e-38
-0.0065657143 0.1101581 0.76600003 1.3639874e-38
-0.0051133335 0.1103019 0.76700002 1.3824251e-38
-0.003652381 0.1103019 0.76700002 1.5668163e-38
-0.0021914286 0.1103019 0.76700002 1.4929912e-38
-0.00073238101 0.11058953 0.76900005 1.474552e-38
0.00073238101 0.11058953 0.76900005 1.4745854e-38
0.0022028573 0.11087715 0.77100003 1.5022441e-38
0.0036714287 0.11087715 0.77100003 1.4747261e-38
0.0051600002 0.11130857 0.77400005 1.4931652e-38
0.0066514285 0.11159619 0.77600002 1.5575602e-38
0.008150477 0.11188382 0.77800006 1.5759993e-38
0.0096323816 0.11188382 0.77800006 1.5944024e-38
0.011157143 0.11231524 0.78100002 1.6405003e-38
0.012677143 0.11260287 0.78300005 1.493204e-38
0.014204763 0.11289048 0.78500003 1.3641301e-38
0.01574 0.1131781 0.78700006 1.3733158e-38
0.017239049 0.1131781 0.78700006 1.7789766e-38
0.018809523 0.11360952 0.79000002 1.9910255e-38
0.020314286 0.11360952 0.79000002 2.2491733e-38
-0.057933334 0.11511429 0.79000002 2.2124771e-38
-0.056357145 0.11496858 0.78900003 2.0373041e-38
-0.054854289 0.11496858 0.78900003 1.8529129e-38
-0.053216193 0.11467715 0.78700006 1.7790468e-38
-0.051454291 0.11409429 0.78300005 1.6868511e-38
-0.049835239 0.11380286 0.78100002 1.7328035e-38
-0.048285715 0.11365715 0.78000003 1.6867057e-38
-0.046560001 0.11307429 0.77600002 1.7049682e-38
-0.044965718 0.11278286 0.77400005 1.5113574e-38
-0.043435238 0.11263715 0.77300006 1.4193752e-38
-0.041962862 0.11263715 0.77300006 1.382497e-38
-0.040490478 0.11263715 0.77300006 1.3364717e-38
-0.038917147 0.11234572 0.77100003 1.3364717e-38
-0.037351429 0.11205429 0.76900005 1.170519e-38
-0.035793334 0.11176286 0.76700002 1.1520799e-38
-0.03433238 0.11176286 0.76700002 1.1059801e-38
-0.032871429 0.11176286 0.76700002 1.1981758e-38
-0.031369522 0.11161715 0.76600003 1.1889582e-38
-0.029910479 0.11161715 0.76600003 1.1797386e-38
-0.02845143 0.11161715 0.76600003 1.124382e-38
-0.026992382 0.11161715 0.76600003 1.2350167e-38
-0.025533335 0.11161715 0.76600003 1.2350565e-38
-0.024074288 0.11161715 0.76600003 1.2350565e-38
-0.022615239 0.11161715 0.76600003 1.2442769e-38
-0.021156192 0.11161715 0.76600003 1.2442769e-38
-0.019697145 0.11161715 0.76600003 1.225837e-38
-0.018238096 0.11161715 0.76600003 1.2166174e-38
-0.016779048 0.11161715 0.76600003 1.2257994e-38
-0.01532 0.11161715 0.76600003 1.235019e-38
-0.013860953 0.11161715 0.76600003 1.1521518e-38
-0.012401905 0.11161715 0.76600003 1.1613714e-38
-0.010942858 0.11161715 0.76600003 1.1058748e-38
-0.0094838096 0.11161715 0.76600003 1.1243139e-38
-0.0080247624 0.11161715 0.76600003 1.1244195e-38
-0.0065742861 0.11176286 0.76700002 1.3549086e-38
-0.0051133335 0.11176286 0.76700002 1.3824621e-38
-0.003652381 0.11176286 0.76700002 1.4654381e-38
-0.0021914286 0.11176286 0.76700002 1.4745155e-38
-0.00073238101 0.11205429 0.76900005 1.4376372e-38
0.00073428574 0.11234572 0.77100003 1.4193396e-38
0.0022085716 0.11263715 0.77300006 1.4838766e-38
0.0036809526 0.11263715 0.77300006 1.4746911e-38
0.0051733335 0.11307429 0.77600002 1.4931302e-38
0.0066685718 0.11336572 0.77800006 1.5390863e-38
0.008150477 0.11336572 0.77800006 1.566745e-38
0.0096323816 0.11336572 0.77800006 1.5297573e-38
0.011157143 0.11380286 0.78100002 1.557416e-38
0.012677143 0.11409429 0.78300005 1.4838766e-38
0.014204763 0.11438572 0.78500003 1.3455831e-38
0.01574 0.11467715 0.78700006 1.3273583e-38
0.017239049 0.11467715 0.78700006 1.7791168e-38
0.018809523 0.11511429 0.79000002 2.0278315e-38
0.020314286 0.11511429 0.79000002 2.249101e-38
-0.058080003 0.11691429 0.79200006 2.2309525e-38
-0.056357145 0.11647143 0.78900003 2.0648912e-38
-0.054854289 0.11647143 0.78900003 1.9081586e-38
-0.053216193 0.1161762 0.78700006 1.7698639e-38
-0.051585715 0.11588095 0.78500003 1.6776683e-38
-0.049835239 0.11529048 0.78100002 1.6959255e-38
-0.048285715 0.11514286 0.78000003 1.539193e-38
-0.046560001 0.11455239 0.77600002 1.5483409e-38
-0.044965718 0.11425715 0.77400005 1.5022431e-38
-0.043435238 0.11410953 0.77300006 1.5023157e-38
-0.041962862 0.11410953 0.77300006 1.5945113e-38
-0.040490478 0.11410953 0.77300006 1.4746926e-38
-0.038917147 0.11381429 0.77100003 1.4839122e-38
-0.037448574 0.11381429 0.77100003 1.4193749e-38
-0.035980001 0.11381429 0.77100003 1.3179597e-38
-0.034511428 0.11381429 0.77100003 1.2628216e-38
-0.032871429 0.11322381 0.76700002 1.253602e-38
-0.031410474 0.11322381 0.76700002 1.2443121e-38
-0.029910479 0.1130762 0.76600003 1.2443121e-38
-0.02845143 0.1130762 0.76600003 1.2074323e-38
-0.026992382 0.1130762 0.76600003 1.2258715e-38
-0.025566667 0.11322381 0.76700002 1.2350565e-38
-0.024074288 0.1130762 0.76600003 1.1889587e-38
-0.022615239 0.1130762 0.76600003 1.2534605e-38
-0.021183809 0.11322381 0.76700002 1.2626801e-38
-0.019722857 0.11322381 0.76700002 1.2442761e-38
-0.018261906 0.11322381 0.76700002 1.1428609e-38
-0.016800953 0.11322381 0.76700002 1.1611926e-38
-0.01534 0.11322381 0.76700002 1.2533882e-38
-0.013879048 0.11322381 0.76700002 1.2258734e-38
-0.012418096 0.11322381 0.76700002 1.2627517e-38
-0.010957143 0.11322381 0.76700002 1.2627161e-38
-0.0094961906 0.11322381 0.76700002 1.2995943e-38
-0.0080352379 0.11322381 0.76700002 1.354803e-38
-0.0065742861 0.11322381 0.76700002 1.3824616e-38
-0.0051133335 0.11322381 0.76700002 1.4007943e-38
-0.003652381 0.11322381 0.76700002 1.4561117e-38
-0.0021914286 0.11322381 0.76700002 1.4561833e-38
-0.00073428574 0.11381429 0.77100003 1.4285246e-38
0.00073428574 0.11381429 0.77100003 1.4469281e-38
0.0022085716 0.11410953 0.77300006 1.4930259e-38
0.0036857147 0.11425715 0.77400005 1.4930951e-38
0.0051733335 0.11455239 0.77600002 1.4838756e-38
0.0066685718 0.11484763 0.77800006 1.5482354e-38
0.008150477 0.11484763 0.77800006 1.5758941e-38
0.0096323816 0.11484763 0.77800006 1.5114264e-38
0.011157143 0.11529048 0.78100002 1.5114264e-38
0.012677143 0.11558571 0.78300005 1.4104077e-38
0.014204763 0.11588095 0.78500003 1.3089926e-38
0.01578 0.11647143 0.78900003 1.3549861e-38
0.017282858 0.11647143 0.78900003 1.7698664e-38
0.018809523 0.11661905 0.79000002 2.0277585e-38
0.020314286 0.11661905 0.79000002 2.2674671e-38
-0.05642857 0.11812381 0.79000002 2.0832577e-38
-0.054854289 0.1179743 0.78900003 1.908086e-38
-0.053216193 0.11767524 0.78700006 1.8250378e-38
-0.051585715 0.11737619 0.78500003 1.7236226e-38
-0.049835239 0.1167781 0.78100002 1.6591559e-38
-0.048285715 0.11662858 0.78000003 1.4932037e-38
-0.046680003 0.11632954 0.77800006 1.4932037e-38
-0.045081906 0.11603048 0.77600002 1.4747646e-38
-0.043491431 0.11573143 0.77400005 1.5115355e-38
-0.042017147 0.11573143 0.77400005 1.5207551e-38
-0.040490478 0.11558191 0.77300006 1.4930252e-38
-0.039018098 0.11558191 0.77300006 1.4930252e-38
-0.037545718 0.11558191 0.77300006 1.4745861e-38
-0.036073335 0.11558191 0.77300006 1.3547318e-38
-0.034511428 0.11528286 0.77100003 1.3272869e-38
-0.032871429 0.11468477 0.76700002 1.3180674e-38
-0.031410474 0.11468477 0.76700002 1.2350937e-38
-0.029910479 0.11453524 0.76600003 1.2350937e-38
-0.02845143 0.11453524 0.76600003 1.2257991e-38
-0.02702762 0.11468477 0.76700002 1.271897e-38
-0.025566667 0.11468477 0.76700002 1.2811541e-38
-0.024105715 0.11468477 0.76700002 1.2534954e-38
-0.022644762 0.11468477 0.76700002 1.2534957e-38
-0.021183809 0.11468477 0.76700002 1.2534957e-38
-0.019722857 0.11468477 0.76700002 1.2810102e-38
-0.018261906 0.11468477 0.76700002 1.1980341e-38
-0.016800953 0.11468477 0.76700002 1.2071102e-38
-0.01534 0.11468477 0.76700002 1.2900862e-38
-0.013879048 0.11468477 0.76700002 1.2442758e-38
-0.012418096 0.11468477 0.76700002 1.2719345e-38
-0.010957143 0.11468477 0.76700002 1.30867e-38
-0.0094961906 0.11468477 0.76700002 1.3824265e-38
-0.0080352379 0.11468477 0.76700002 1.409977e-38
-0.0065742861 0.11468477 0.76700002 1.4745139e-38
-0.0051133335 0.11468477 0.76700002 1.4836971e-38
-0.0036619049 0.11498382 0.76900005 1.4744775e-38
-0.0021971429 0.11498382 0.76900005 1.4838417e-38
-0.00073428574 0.11528286 0.77100003 1.4746221e-38
0.00073619053 0.11558191 0.77300006 1.4747652e-38
0.0022114285 0.11573143 0.77400005 1.4747652e-38
0.0036857147 0.11573143 0.77400005 1.5207185e-38
0.0051733335 0.11603048 0.77600002 1.4746207e-38
0.0066685718 0.11632954 0.77800006 1.4745128e-38
0.008150477 0.11632954 0.77800006 1.428415e-38
0.0096323816 0.11632954 0.77800006 1.3824954e-38
0.011157143 0.1167781 0.78100002 1.391715e-38
0.012677143 0.11707715 0.78300005 1.3367228e-38
0.014204763 0.11737619 0.78500003 1.3920402e-38
0.01574 0.11767524 0.78700006 1.5118238e-38
0.017282858 0.1179743 0.78900003 1.7699715e-38
0.018809523 0.11812381 0.79000002 2.0093191e-38
-0.05642857 0.11962857 0.79000002 2.1385383e-38
-0.054854289 0.11947715 0.78900003 1.8896101e-38
-0.053216193 0.11917429 0.78700006 1.7882675e-38
-0.051585715 0.11887143 0.78500003 1.7329501e-38
-0.04996286 0.11856858 0.78300005 1.6592289e-38
-0.048285715 0.11811429 0.78000003 1.4840572e-38
-0.046680003 0.11781144 0.77800006 1.4838768e-38
-0.045081906 0.11750858 0.77600002 1.437779e-38
-0.043491431 0.11720572 0.77400005 1.4377441e-38
-0.042017147 0.11720572 0.77400005 1.4285246e-38
-0.040490478 0.1170543 0.77300006 1.363917e-38
-0.039018098 0.1170543 0.77300006 1.3546974e-38
-0.037545718 0.1170543 0.77300006 1.327217e-38
-0.036073335 0.1170543 0.77300006 1.2903387e-38
-0.034511428 0.11675143 0.77100003 1.290445e-38
-0.032871429 0.11614572 0.76700002 1.3273232e-38
-0.031410474 0.11614572 0.76700002 1.2995949e-38
-0.029949524 0.11614572 0.76700002 1.2903753e-38
-0.028488571 0.11614572 0.76700002 1.2719695e-38
-0.02702762 0.11614572 0.76700002 1.2996282e-38
-0.025566667 0.11614572 0.76700002 1.2811891e-38
-0.024105715 0.11614572 0.76700002 1.2719695e-38
-0.022644762 0.11614572 0.76700002 1.2719348e-38
-0.021183809 0.11614572 0.76700002 1.37335e-38
-0.019722857 0.11614572 0.76700002 1.336291e-38
-0.018261906 0.11614572 0.76700002 1.3639497e-38
-0.016800953 0.11614572 0.76700002 1.3455132e-38
-0.01534 0.11614572 0.76700002 1.3823914e-38
-0.013879048 0.11614572 0.76700002 1.2719345e-38
-0.012418096 0.11614572 0.76700002 1.2719345e-38
-0.010957143 0.11614572 0.76700002 1.2995583e-38
-0.0094961906 0.11614572 0.76700002 1.3640953e-38
-0.0080561908 0.11644858 0.76900005 1.4283431e-38
-0.006591429 0.11644858 0.76900005 1.5481974e-38
-0.0051266667 0.11644858 0.76900005 1.4929156e-38
-0.0036619049 0.11644858 0.76900005 1.4836961e-38
-0.0021971429 0.11644858 0.76900005 1.4654727e-38
-0.00073428574 0.11675143 0.77100003 1.4746923e-38
0.00073619053 0.1170543 0.77300006 1.4563611e-38
0.0022114285 0.11720572 0.77400005 1.3918241e-38
0.0036857147 0.11720572 0.77400005 1.4009361e-38
0.0051866672 0.11781144 0.77800006 1.3732774e-38
0.0066685718 0.11781144 0.77800006 1.1889961e-38
0.008150477 0.11781144 0.77800006 1.1613375e-38
0.0096571427 0.11811429 0.78000003 1.2905519e-38
0.011185715 0.11856858 0.78300005 1.2997714e-38
0.012677143 0.11856858 0.78300005 1.3182825e-38
0.014240953 0.11917429 0.78700006 1.539552e-38
0.01574 0.11917429 0.78700006 1.5486293e-38
0.017282858 0.11947715 0.78900003 1.7698988e-38
0.018809523 0.11962857 0.79000002 2.0185386e-38
-0.05642857 0.12113333 0.79000002 2.1478307e-38
-0.054854289 0.12098 0.78900003 1.8989025e-38
-0.053351428 0.12098 0.78900003 1.7790479e-38
-0.051717147 0.12067334 0.78700006 1.7606088e-38
-0.04996286 0.12006001 0.78300005 1.6592289e-38
-0.048285715 0.1196 0.78000003 1.4840572e-38
-0.046680003 0.11929334 0.77800006 1.4746926e-38
-0.045081906 0.11898667 0.77600002 1.4378143e-38
-0.043491431 0.11868001 0.77400005 1.4285246e-38
-0.042017147 0.11868001 0.77400005 1.3732072e-38
-0.040490478 0.11852667 0.77300006 1.3088481e-38
-0.039018098 0.11852667 0.77300006 1.2996285e-38
-0.037545718 0.11852667 0.77300006 1.2628243e-38
-0.036073335 0.11852667 0.77300006 1.2443851e-38
-0.034511428 0.11822 0.77100003 1.2167969e-38
-0.033042856 0.11822 0.77100003 1.2444556e-38
