# .PCD v0.7 - Point Cloud Data file format
VERSION 0.7
FIELDS x y z rgba
SIZE 4 4 4 4
TYPE F F F U
COUNT 1 1 1 1
WIDTH 1108
HEIGHT 1
VIEWPOINT 0 0 0 1 0 0 0
POINTS 1108
DATA ascii
-0.031780954 0.13320953 0.71000004 3558400
-0.030428572 0.13320953 0.71000004 3887360
-0.029076193 0.13320953 0.71000004 4477696
-0.027840953 0.13377239 0.71300006 4938245
-0.026520003 0.13396001 0.71400005 5463047
-0.025230477 0.13433523 0.71600002 6449942
-0.0239 0.13452287 0.71700001 7827261
-0.022597143 0.1348981 0.71900004 8024640
-0.021227621 0.1348981 0.71900004 8155440
-0.019885715 0.13508572 0.72000003 8418612
-0.018565716 0.13546096 0.72200006 8157480
-0.017214287 0.13564858 0.72300005 8420652
-0.015880954 0.13602382 0.72500002 10720349
-0.014540001 0.13639906 0.72700006 16774847
-0.013173334 0.13658668 0.72800004 16646113
-0.011786667 0.13658668 0.72800004 16711650
-0.010428572 0.13696191 0.73000002 16646115
-0.0090504764 0.13714953 0.73100001 16580322
-0.0076580956 0.13714953 0.73100001 16514776
-0.0062657143 0.13714953 0.73100001 16251604
-0.0048733335 0.13714953 0.73100001 16447436
-0.0034809522 0.13714953 0.73100001 16710608
-0.0020942858 0.13752477 0.73300004 16580579
-0.00069809525 0.13752477 0.73300004 16580579
-0.071413331 0.13797334 0.72800004 16711665
-0.069930486 0.13778381 0.72700006 15987942
-0.068545721 0.13778381 0.72700006 15919757
-0.067160957 0.13778381 0.72700006 10722110
-0.065595239 0.13740477 0.72500002 10196068
-0.064037152 0.13702573 0.72300005 9932896
-0.062573336 0.1368362 0.72200006 8881743
-0.061028574 0.13645715 0.72000003 8947536
-0.059574291 0.13626763 0.71900004 8422478
-0.057961904 0.13569905 0.71600002 7896134
-0.056440003 0.13532001 0.71400005 7436105
-0.054848574 0.13475142 0.71100003 6975554
-0.053494286 0.13475142 0.71100003 7237956
-0.052140001 0.13475142 0.71100003 7435335
-0.050714288 0.13456191 0.71000004 6843450
-0.049361907 0.13456191 0.71000004 6909243
-0.048009526 0.13456191 0.71000004 6647080
-0.046657145 0.13456191 0.71000004 5725978
-0.045304764 0.13456191 0.71000004 5791789
-0.043952383 0.13456191 0.71000004 5989168
-0.042479999 0.13418286 0.708 6119473
-0.041131429 0.13418286 0.708 6053680
-0.039782856 0.13418286 0.708 6185016
-0.038434286 0.13418286 0.708 6250809
-0.037190478 0.13456191 0.71000004 6514469
-0.035838097 0.13456191 0.71000004 6777641
-0.034485716 0.13456191 0.71000004 6777889
-0.033133335 0.13456191 0.71000004 6909475
-0.031780954 0.13456191 0.71000004 6909477
-0.030428572 0.13456191 0.71000004 7106856
-0.029117145 0.13475142 0.71100003 6975020
-0.027880002 0.13532001 0.71400005 7040813
-0.026520003 0.13532001 0.71400005 7631660
-0.025230477 0.13569905 0.71600002 8026418
-0.0239 0.13588856 0.71700001 8353843
-0.022597143 0.13626763 0.71900004 8617015
-0.021227621 0.13626763 0.71900004 8879433
-0.019885715 0.13645715 0.72000003 9603156
-0.018514287 0.13645715 0.72000003 9538115
-0.017190477 0.1368362 0.72200006 11775077
-0.015837144 0.13702573 0.72300005 12695954
-0.014500001 0.13740477 0.72500002 16777176
-0.013119048 0.13740477 0.72500002 16646106
-0.011738095 0.13740477 0.72500002 16580569
-0.010400001 0.13797334 0.72800004 16580560
-0.0090133343 0.13797334 0.72800004 16383181
-0.0076476196 0.13835238 0.73000002 16579272
-0.0062657143 0.13854189 0.73100001 16447686
-0.0048733335 0.13854189 0.73100001 16447446
-0.0034809522 0.13854189 0.73100001 16579032
-0.0020942858 0.13892095 0.73300004 16514016
-0.00069809525 0.13892095 0.73300004 16711395
0.00069809525 0.13892095 0.73300004 16580327
0.0020942858 0.13892095 0.73300004 16580327
0.0034809522 0.13854189 0.73100001 16580579
-0.072800003 0.13936 0.72800004 16777168
-0.071413331 0.13936 0.72800004 16646116
-0.069930486 0.13916859 0.72700006 15988442
-0.068545721 0.13916859 0.72700006 15130254
-0.066976197 0.13878572 0.72500002 10919502
-0.065595239 0.13878572 0.72500002 10196583
-0.063948572 0.13821143 0.72200006 9999204
-0.062573336 0.13821143 0.72200006 9473110
-0.061028574 0.13782857 0.72000003 9209938
-0.059408572 0.13725428 0.71700001 8948056
-0.057961904 0.13706286 0.71600002 8553298
-0.056440003 0.13668001 0.71400005 8421710
-0.054848574 0.13610572 0.71100003 8092745
-0.053494286 0.13610572 0.71100003 7960132
-0.052140001 0.13610572 0.71100003 7894339
-0.050785713 0.13610572 0.71100003 7760950
-0.049361907 0.1359143 0.71000004 7892536
-0.048009526 0.1359143 0.71000004 7761990
-0.046657145 0.1359143 0.71000004 7696197
-0.045304764 0.1359143 0.71000004 7498825
-0.043952383 0.1359143 0.71000004 7498825
-0.042479999 0.13553143 0.708 7564100
-0.041131429 0.13553143 0.708 7695686
-0.039782856 0.13553143 0.708 7827013
-0.038434286 0.13553143 0.708 7761220
-0.037190478 0.1359143 0.71000004 7367732
-0.035838097 0.1359143 0.71000004 7367732
-0.034485716 0.1359143 0.71000004 7433257
-0.033133335 0.1359143 0.71000004 7433257
-0.031780954 0.1359143 0.71000004 7564327
-0.030471429 0.13610572 0.71100003 7695913
-0.029117145 0.13610572 0.71100003 7367462
-0.027840953 0.13648859 0.71300006 7564841
-0.026520003 0.13668001 0.71400005 8288062
-0.025160002 0.13668001 0.71400005 8353855
-0.0239 0.13725428 0.71700001 8419382
-0.022534285 0.13725428 0.71700001 8682554
-0.021227621 0.13763715 0.71900004 9142603
-0.019858096 0.13763715 0.71900004 9668947
-0.018488573 0.13763715 0.71900004 9866051
-0.017142856 0.13782857 0.72000003 12760943
-0.015815239 0.13821143 0.72200006 13551522
-0.01446 0.13840286 0.72300005 16777178
-0.013082858 0.13840286 0.72300005 16646101
-0.011705714 0.13840286 0.72300005 16646101
-0.010385714 0.13916859 0.72700006 16646111
-0.0090009533 0.13916859 0.72700006 16382939
-0.0076476196 0.13974287 0.73000002 16381904
-0.0062571429 0.13974287 0.73000002 16316111
-0.0048733335 0.13993429 0.73100001 16314567
-0.0034809522 0.13993429 0.73100001 16446153
-0.0020885714 0.13993429 0.73100001 16447945
-0.00069619046 0.13993429 0.73100001 16777168
0.00069619046 0.13993429 0.73100001 16646122
0.0020885714 0.13993429 0.73100001 16580329
-0.072700009 0.14055334 0.72700006 16643498
-0.071119048 0.14016667 0.72500002 16578216
-0.069738097 0.14016667 0.72500002 16380837
-0.068357147 0.14016667 0.72500002 15063707
-0.066976197 0.14016667 0.72500002 11247713
-0.065414287 0.13978001 0.72300005 10524006
-0.063948572 0.13958667 0.72200006 10458213
-0.062400002 0.1392 0.72000003 10063207
-0.060943812 0.13900667 0.71900004 10523758
-0.059408572 0.13861999 0.71700001 9998680
-0.057961904 0.13842668 0.71600002 9669715
-0.056440003 0.13804002 0.71400005 9473110
-0.055002861 0.13784668 0.71300006 9341524
-0.053494286 0.13746001 0.71100003 9209686
-0.052140001 0.13746001 0.71100003 8749135
-0.050785713 0.13746001 0.71100003 8682842
-0.049361907 0.13726667 0.71000004 8814428
-0.048009526 0.13726667 0.71000004 8749133
-0.046657145 0.13726667 0.71000004 8420168
-0.045304764 0.13726667 0.71000004 8222289
-0.043952383 0.13726667 0.71000004 7893324
-0.042600002 0.13726667 0.71000004 7826763
-0.041247621 0.13726667 0.71000004 7826763
-0.039782856 0.13688 0.708 7827013
-0.038434286 0.13688 0.708 8155978
-0.037190478 0.13726667 0.71000004 8156485
-0.035838097 0.13726667 0.71000004 8288071
-0.034485716 0.13726667 0.71000004 8354375
-0.033133335 0.13726667 0.71000004 8420168
-0.031780954 0.13726667 0.71000004 9077064
-0.030471429 0.13746001 0.71100003 9603408
-0.029117145 0.13746001 0.71100003 9208914
-0.027840953 0.13784668 0.71300006 9077328
-0.026520003 0.13804002 0.71400005 9406295
-0.025160002 0.13804002 0.71400005 9406295
-0.023866668 0.13842668 0.71600002 10063959
-0.022534285 0.13861999 0.71700001 10195545
-0.021168573 0.13861999 0.71700001 10129248
-0.019802855 0.13861999 0.71700001 10392420
-0.018488573 0.13900667 0.71900004 10917761
-0.017119048 0.13900667 0.71900004 14996927
-0.015749523 0.13900667 0.71900004 14735565
-0.014400001 0.1392 0.72000003 16776433
-0.013064764 0.13958667 0.72200006 16580554
-0.011689525 0.13958667 0.72200006 16515017
-0.010328572 0.13978001 0.72300005 16381140
-0.0089761904 0.14016667 0.72500002 15920589
-0.0076161912 0.14055334 0.72700006 16182470
-0.0062400005 0.14074668 0.72800004 15853505
-0.0048666666 0.14113334 0.73000002 15984575
-0.0034761906 0.14113334 0.73000002 16116161
-0.0020885714 0.14132667 0.73100001 15788716
-0.00069619046 0.14132667 0.73100001 16777155
0.00069619046 0.14132667 0.73100001 16711663
0.0020885714 0.14132667 0.73100001 16645870
0.003495238 0.14190666 0.73400003 16580579
-0.074186668 0.14213334 0.72800004 16311178
-0.072700009 0.14193811 0.72700006 16772243
-0.071119048 0.14154762 0.72500002 16510651
-0.069545716 0.14115715 0.72300005 16510651
-0.068168573 0.14115715 0.72300005 14538131
-0.06679143 0.14115715 0.72300005 11643239
-0.065323815 0.14096192 0.72200006 10654813
-0.063771427 0.14057143 0.72000003 10589020
-0.062313333 0.1403762 0.71900004 10259285
-0.060774285 0.13998571 0.71700001 10851422
-0.059325717 0.13979048 0.71600002 10589022
-0.057961904 0.13979048 0.71600002 10457436
-0.056440003 0.13940001 0.71400005 10063705
-0.055002861 0.13920477 0.71300006 9603154
-0.053494286 0.13881429 0.71100003 9209686
-0.052140001 0.13881429 0.71100003 8749135
-0.050785713 0.13881429 0.71100003 8617031
-0.049361907 0.13861905 0.71000004 8880203
-0.048009526 0.13861905 0.71000004 8880199
-0.046657145 0.13861905 0.71000004 8748613
-0.045304764 0.13861905 0.71000004 8682824
-0.043952383 0.13861905 0.71000004 8551238
-0.042600002 0.13861905 0.71000004 8550732
-0.041247621 0.13861905 0.71000004 8550732
-0.03989524 0.13861905 0.71000004 8617031
-0.038542859 0.13861905 0.71000004 8485445
-0.037190478 0.13861905 0.71000004 8353341
-0.035838097 0.13861905 0.71000004 8616513
-0.034485716 0.13861905 0.71000004 8813883
-0.033133335 0.13861905 0.71000004 8945469
-0.031780954 0.13861905 0.71000004 9077055
-0.030428572 0.13861905 0.71000004 9537606
-0.029076193 0.13861905 0.71000004 9602379
-0.027840953 0.13920477 0.71300006 9997137
-0.02648286 0.13920477 0.71300006 9997657
-0.025124764 0.13920477 0.71300006 10260829
-0.023800001 0.13940001 0.71400005 10261086
-0.022440001 0.13940001 0.71400005 10063707
-0.021139048 0.13979048 0.71600002 9932875
-0.019775238 0.13979048 0.71600002 11248735
-0.01841143 0.13979048 0.71600002 12891777
-0.017047618 0.13979048 0.71600002 16247220
-0.015705716 0.13998571 0.71700001 15985360
-0.01434 0.13998571 0.71700001 16709083
-0.012974286 0.13998571 0.71700001 16578743
-0.011640953 0.1403762 0.71900004 16315571
-0.010285715 0.14057143 0.72000003 16379067
-0.0089142863 0.14057143 0.72000003 16379067
-0.0075638103 0.14096192 0.72200006 16444860
-0.0062142857 0.14154762 0.72500002 15786930
-0.0048533333 0.14213334 0.72800004 15720622
-0.0034761906 0.14252381 0.73000002 15589036
-0.0020885714 0.14271905 0.73100001 15525269
-0.00069619046 0.14271905 0.73100001 16777138
0.00069619046 0.14271905 0.73100001 16711650
0.0020971429 0.14330477 0.73400003 16646113
0.003495238 0.14330477 0.73400003 16580318
-0.075469524 0.14332287 0.72700006 14475150
-0.074084766 0.14332287 0.72700006 15654806
-0.072300009 0.1425343 0.72300005 16181150
-0.070922859 0.1425343 0.72300005 16245421
-0.06925714 0.14194286 0.72000003 15521698
-0.067885719 0.14194286 0.72000003 14865810
-0.066421911 0.14174572 0.71900004 12365676
-0.065052383 0.14174572 0.71900004 10720876
-0.063505717 0.14135143 0.71700001 10852462
-0.06205333 0.14115429 0.71600002 10852192
-0.060689528 0.14115429 0.71600002 11049571
-0.059160002 0.14076 0.71400005 10787671
-0.057719052 0.14056288 0.71300006 10195534
-0.056360956 0.14056288 0.71300006 10063446
-0.054848574 0.14016858 0.71100003 9931860
-0.053494286 0.14016858 0.71100003 9801305
-0.052066669 0.13997144 0.71000004 9867098
-0.050714288 0.13997144 0.71000004 10063446
-0.049361907 0.13997144 0.71000004 10129239
-0.048009526 0.13997144 0.71000004 9998155
-0.046657145 0.13997144 0.71000004 9998155
-0.045177143 0.13957714 0.708 9997894
-0.043828573 0.13957714 0.708 9537343
-0.042600002 0.13997144 0.71000004 9537881
-0.041247621 0.13997144 0.71000004 9866846
-0.039782856 0.13957714 0.708 9800537
-0.038434286 0.13957714 0.708 9734744
-0.037190478 0.13997144 0.71000004 9800024
-0.035838097 0.13997144 0.71000004 10589540
-0.034485716 0.13997144 0.71000004 9998400
-0.033133335 0.13997144 0.71000004 10064193
-0.031780954 0.13997144 0.71000004 9998405
-0.030428572 0.13997144 0.71000004 9998405
-0.029076193 0.13997144 0.71000004 10129239
-0.027762858 0.14016858 0.71100003 10260825
-0.026408572 0.14016858 0.71100003 10721362
-0.025054287 0.14016858 0.71100003 10852948
-0.023766669 0.14056288 0.71300006 10524001
-0.022408573 0.14056288 0.71300006 10918759
-0.02108 0.14076 0.71400005 11116370
-0.019720001 0.14076 0.71400005 13813883
-0.018360002 0.14076 0.71400005 14207396
-0.017047618 0.14115429 0.71600002 16378565
-0.015683809 0.14115429 0.71600002 16182470
-0.01434 0.14135143 0.71700001 16511435
-0.012974286 0.14135143 0.71700001 16511894
-0.011608572 0.14135143 0.71700001 16182929
-0.010271429 0.14174572 0.71900004 16115884
-0.0089019043 0.14174572 0.71900004 15721126
-0.007542857 0.14194286 0.72000003 15917712
-0.0061971433 0.1425343 0.72300005 15786126
-0.0048333337 0.14292859 0.72500002 15127976
-0.0034666669 0.14352001 0.72800004 14864804
-0.0020885714 0.14411142 0.73100001 15261338
-0.00069619046 0.14411142 0.73100001 16777148
0.00069619046 0.14411142 0.73100001 16646095
0.0020942858 0.14450571 0.73300004 16580558
-0.075261906 0.14430954 0.72500002 14209672
-0.073880956 0.14430954 0.72500002 15061390
-0.072200008 0.14371239 0.72200006 15258769
-0.070824765 0.14371239 0.72200006 15323799
-0.069160953 0.14311525 0.71900004 15455385
-0.067791432 0.14311525 0.71900004 14996890
-0.066237144 0.14271714 0.71700001 12825721
-0.064871423 0.14271714 0.71700001 11905393
-0.063417144 0.14251809 0.71600002 10852705
-0.06205333 0.14251809 0.71600002 10524753
-0.060520004 0.14212 0.71400005 10787925
-0.059160002 0.14212 0.71400005 10853221
-0.057557143 0.14152285 0.71100003 10326877
-0.056202859 0.14152285 0.71100003 10522975
-0.054848574 0.14152285 0.71100003 11115112
-0.05341905 0.14132382 0.71000004 10919018
-0.052066669 0.14132382 0.71000004 10853225
-0.050714288 0.14132382 0.71000004 10195032
-0.049361907 0.14132382 0.71000004 10260825
-0.048009526 0.14132382 0.71000004 10391632
-0.046657145 0.14132382 0.71000004 10391632
-0.045177143 0.14092572 0.708 10194775
-0.043828573 0.14092572 0.708 10063189
-0.042479999 0.14092572 0.708 9734744
-0.041131429 0.14092572 0.708 9997916
-0.039782856 0.14092572 0.708 9931351
-0.038434286 0.14092572 0.708 9931351
-0.037085712 0.14092572 0.708 9996626
-0.035737146 0.14092572 0.708 10457177
-0.034388572 0.14092572 0.708 9734476
-0.033133335 0.14132382 0.71000004 10195027
-0.031780954 0.14132382 0.71000004 10063939
-0.030428572 0.14132382 0.71000004 10129732
-0.029076193 0.14132382 0.71000004 10195034
-0.027762858 0.14152285 0.71100003 10260827
-0.026408572 0.14152285 0.71100003 10851940
-0.025054287 0.14152285 0.71100003 10851940
-0.023700001 0.14152285 0.71100003 10457164
-0.022408573 0.14192097 0.71300006 11312473
-0.021050479 0.14192097 0.71300006 11510363
-0.019720001 0.14212 0.71400005 14734220
-0.018360002 0.14212 0.71400005 14800283
-0.017000001 0.14212 0.71400005 16247729
-0.015683809 0.14251809 0.71600002 16117198
-0.01432 0.14251809 0.71600002 15788233
-0.012974286 0.14271714 0.71700001 15721639
-0.011608572 0.14271714 0.71700001 15787432
-0.010271429 0.14311525 0.71900004 15721639
-0.0089019043 0.14311525 0.71900004 15458467
-0.007542857 0.1433143 0.72000003 15129250
-0.0061885719 0.14371239 0.72200006 14866078
-0.0048200004 0.14391144 0.72300005 14864268
-0.0034619051 0.14470762 0.72700006 14732682
-0.0020857144 0.14530477 0.73000002 14931862
-0.00069619046 0.14550382 0.73100001 16776636
0.00069619046 0.14550382 0.73100001 16646097
0.0020942858 0.1459019 0.73300004 16646097
-0.075261906 0.14569049 0.72500002 13551742
-0.073677152 0.14528857 0.72300005 14141585
-0.072200008 0.14508763 0.72200006 14470550
-0.070530482 0.14448477 0.71900004 14863757
-0.069160953 0.14448477 0.71900004 15126929
-0.067791432 0.14448477 0.71900004 14602886
-0.066237144 0.14408286 0.71700001 13155440
-0.064780958 0.1438819 0.71600002 11971697
-0.063417144 0.1438819 0.71600002 11182181
-0.06205333 0.1438819 0.71600002 10985302
-0.060520004 0.14348 0.71400005 10919509
-0.058911432 0.14287715 0.71100003 10721126
-0.057476193 0.1426762 0.71000004 10655333
-0.056123812 0.1426762 0.71000004 10984039
-0.054771431 0.1426762 0.71000004 11049832
-0.05341905 0.1426762 0.71000004 10787934
-0.052066669 0.1426762 0.71000004 10722141
-0.050714288 0.1426762 0.71000004 10787673
-0.049222857 0.14227429 0.708 10590294
-0.047874287 0.14227429 0.708 10523997
-0.046525717 0.14227429 0.708 10523997
-0.045177143 0.14227429 0.708 10392422
-0.043828573 0.14227429 0.708 10524008
-0.042479999 0.14227429 0.708 10524510
-0.041073337 0.14207333 0.70700002 10129752
-0.039726667 0.14207333 0.70700002 10391904
-0.038380001 0.14207333 0.70700002 10523490
-0.037033334 0.14207333 0.70700002 10587998
-0.035686668 0.14207333 0.70700002 10719584
-0.034339998 0.14207333 0.70700002 10457706
-0.033040002 0.14227429 0.708 10720878
-0.031691428 0.14227429 0.708 10392906
-0.030342858 0.14227429 0.708 10590285
-0.029076193 0.1426762 0.71000004 10524260
-0.027762858 0.14287715 0.71100003 10392674
-0.026408572 0.14287715 0.71100003 10589290
-0.025054287 0.14287715 0.71100003 10589290
-0.023700001 0.14287715 0.71100003 11115357
-0.022345716 0.14287715 0.71100003 13089147
-0.020991428 0.14287715 0.71100003 13351817
-0.019692382 0.14327906 0.71300006 15457193
-0.018334286 0.14327906 0.71300006 15391634
-0.017000001 0.14348 0.71400005 15654806
-0.01564 0.14348 0.71400005 15326388
-0.01432 0.1438819 0.71600002 15194802
-0.012956191 0.1438819 0.71600002 15129520
-0.011608572 0.14408286 0.71700001 15063727
-0.010242857 0.14408286 0.71700001 14668938
-0.0089019043 0.14448477 0.71900004 14405766
-0.007542857 0.14468573 0.72000003 14405277
-0.0061885719 0.14508763 0.72200006 14273691
-0.0048200004 0.14528857 0.72300005 14469762
-0.0034523809 0.14569049 0.72500002 14338176
-0.00208 0.14629334 0.72800004 14471320
-0.00069523812 0.14669524 0.73000002 16775617
0.00069523812 0.14669524 0.73000002 16646097
0.0020885714 0.14689618 0.73100001 16711634
-0.073575243 0.14646287 0.72200006 13747343
-0.072000004 0.14605714 0.72000003 13813136
-0.070530482 0.14585429 0.71900004 14075522
-0.068968572 0.14544858 0.71700001 14141315
-0.067602858 0.14544858 0.71700001 13812877
-0.066144764 0.14524572 0.71600002 13154947
-0.064780958 0.14524572 0.71600002 12037236
-0.063417144 0.14524572 0.71600002 11445099
-0.061880007 0.14484002 0.71400005 11707503
-0.060435243 0.14463715 0.71300006 11378538
-0.058828574 0.14402857 0.71000004 10654302
-0.057476193 0.14402857 0.71000004 10851681
-0.056123812 0.14402857 0.71000004 11049834
-0.054771431 0.14402857 0.71000004 10984041
-0.05326857 0.14362286 0.708 10392922
-0.051919997 0.14362286 0.708 10656094
-0.050571427 0.14362286 0.708 10590817
-0.049222857 0.14362286 0.708 10393438
-0.047874287 0.14362286 0.708 10589792
-0.046525717 0.14362286 0.708 10523999
-0.045113333 0.14342 0.70700002 10261086
-0.043766666 0.14342 0.70700002 10524258
-0.04242 0.14342 0.70700002 10655594
-0.041073337 0.14342 0.70700002 10326629
-0.039670479 0.14321715 0.70600003 10522466
-0.038325716 0.14321715 0.70600003 10588259
-0.036980953 0.14321715 0.70600003 10653784
-0.035636194 0.14321715 0.70600003 10785370
-0.034339998 0.14342 0.70700002 10522979
-0.032993335 0.14342 0.70700002 10720358
-0.031646665 0.14342 0.70700002 10459219
-0.030342858 0.14362286 0.708 10459219
-0.028994286 0.14362286 0.708 10458463
-0.02772381 0.14402857 0.71000004 10392670
-0.026371431 0.14402857 0.71000004 10458206
-0.025019048 0.14402857 0.71000004 10918757
-0.023700001 0.14423144 0.71100003 11838826
-0.022345716 0.14423144 0.71100003 13352065
-0.020991428 0.14423144 0.71100003 13943441
-0.019637143 0.14423144 0.71100003 15456680
-0.018282857 0.14423144 0.71100003 15194262
-0.016976191 0.14463715 0.71300006 15194262
-0.01564 0.14484002 0.71400005 15063214
-0.014280002 0.14484002 0.71400005 15063214
-0.012956191 0.14524572 0.71600002 14602661
-0.011592381 0.14524572 0.71600002 14339489
-0.010228572 0.14524572 0.71600002 14076553
-0.0088771433 0.14544858 0.71700001 14142346
-0.0075638103 0.14646287 0.72200006 14273176
-0.0061885719 0.14646287 0.72200006 13878418
-0.0048200004 0.14666572 0.72300005 13482867
-0.0034523809 0.14707144 0.72500002 13548660
-0.0020771429 0.14747715 0.72700006 13812609
-0.00069333339 0.14768001 0.72800004 16775350
0.00069523812 0.14808571 0.73000002 16646104
0.0020857144 0.14808571 0.73000002 16646104
-0.074950479 0.1478381 0.72200006 12760927
-0.073269531 0.14722382 0.71900004 13023615
-0.071900003 0.14722382 0.71900004 13220994
-0.070334285 0.14681429 0.71700001 13549689
-0.068968572 0.14681429 0.71700001 13878654
-0.067602858 0.14681429 0.71700001 13747075
-0.066144764 0.14660953 0.71600002 13286524
-0.064599998 0.1462 0.71400005 12168822
-0.063240007 0.1462 0.71400005 11971443
-0.061793335 0.14599524 0.71300006 11576444
-0.060180955 0.14538096 0.71000004 11247479
-0.058828574 0.14538096 0.71000004 10983539
-0.057314284 0.14497143 0.708 11312504
-0.055965714 0.14497143 0.708 11116395
-0.05461714 0.14497143 0.708 11445360
-0.05326857 0.14497143 0.708 10656360
-0.051919997 0.14497143 0.708 10656360
-0.050500002 0.14476667 0.70700002 10787428
-0.049153332 0.14476667 0.70700002 10392670
-0.047806669 0.14476667 0.70700002 10983526
-0.046459999 0.14476667 0.70700002 11115112
-0.045049526 0.14456192 0.70600003 10787169
-0.043704763 0.14456192 0.70600003 11247720
-0.04236 0.14456192 0.70600003 10655083
-0.041015241 0.14456192 0.70600003 10523497
-0.039670479 0.14456192 0.70600003 10720356
-0.038217146 0.14415239 0.70400006 10786149
-0.03687619 0.14415239 0.70400006 10720354
-0.035535242 0.14415239 0.70400006 10851940
-0.034291428 0.14456192 0.70600003 10589799
-0.032993335 0.14476667 0.70700002 10524006
-0.031646665 0.14476667 0.70700002 10656344
-0.030342858 0.14497143 0.708 10919516
-0.028994286 0.14497143 0.708 10655846
-0.02772381 0.14538096 0.71000004 10919018
-0.026371431 0.14538096 0.71000004 10984809
-0.025019048 0.14538096 0.71000004 12169083
-0.023666669 0.14538096 0.71000004 12430452
-0.022314286 0.14538096 0.71000004 13680519
-0.020961907 0.14538096 0.71000004 14008205
-0.019637143 0.14558572 0.71100003 14995100
-0.018282857 0.14558572 0.71100003 14470528
-0.016928572 0.14558572 0.71100003 14141563
-0.015618097 0.14599524 0.71300006 14075792
-0.014280002 0.1462 0.71400005 14075792
-0.012920001 0.1462 0.71400005 13746834
-0.011592381 0.14660953 0.71600002 13615248
-0.010228572 0.14660953 0.71600002 13221001
-0.0088771433 0.14681429 0.71700001 13089415
-0.007542857 0.14742857 0.72000003 13088893
-0.0061714291 0.14742857 0.72000003 13023100
-0.0048133335 0.1478381 0.72200006 13023102
-0.0034428574 0.14804286 0.72300005 13286274
-0.0020714288 0.14845239 0.72500002 13747334
-0.00069333339 0.14906667 0.72800004 16775097
0.00069523812 0.14947619 0.73000002 16646104
0.0020857144 0.14947619 0.73000002 16646104
0.0034761906 0.14947619 0.73000002 16646113
-0.074950479 0.14921334 0.72200006 12892007
-0.073269531 0.14859334 0.71900004 12628085
-0.071900003 0.14859334 0.71900004 12825464
-0.070236191 0.14797334 0.71600002 12825973
-0.068872385 0.14797334 0.71600002 12957559
-0.067508571 0.14797334 0.71600002 13023613
-0.065960005 0.14756 0.71400005 13023613
-0.064599998 0.14756 0.71400005 12104060
-0.063151434 0.14735334 0.71300006 11709302
-0.061620004 0.14694001 0.71100003 11314542
-0.060180955 0.14673334 0.71000004 11117163
-0.058662858 0.14632 0.708 10918246
-0.057314284 0.14632 0.708 11115625
-0.055965714 0.14632 0.708 10984809
-0.05461714 0.14632 0.708 10984809
-0.05326857 0.14632 0.708 10787430
-0.051846668 0.14611334 0.70700002 10853223
-0.050500002 0.14611334 0.70700002 10919007
-0.049153332 0.14611334 0.70700002 10919007
-0.047739051 0.14590667 0.70600003 11049834
-0.046394285 0.14590667 0.70600003 10918248
-0.045049526 0.14590667 0.70600003 10654813
-0.043580953 0.14549334 0.70400006 11246950
-0.042240005 0.14549334 0.70400006 10523756
-0.040899049 0.14549334 0.70400006 10523756
-0.039558098 0.14549334 0.70400006 10720606
-0.038217146 0.14549334 0.70400006 10786399
-0.03687619 0.14549334 0.70400006 10328151
-0.035535242 0.14549334 0.70400006 10262358
-0.034291428 0.14590667 0.70600003 10328160
-0.032946669 0.14590667 0.70600003 10459746
-0.031601906 0.14590667 0.70600003 10853212
-0.030300001 0.14611334 0.70700002 10919005
-0.028953334 0.14611334 0.70700002 10458458
-0.027645715 0.14632 0.708 10919009
-0.026371431 0.14673334 0.71000004 11247461
-0.025019048 0.14673334 0.71000004 12168563
-0.023666669 0.14673334 0.71000004 12626284
-0.022314286 0.14673334 0.71000004 14073730
-0.020961907 0.14673334 0.71000004 13877123
-0.019609524 0.14673334 0.71000004 14271881
-0.018257145 0.14673334 0.71000004 13879426
-0.016928572 0.14694001 0.71100003 13550461
-0.015618097 0.14735334 0.71300006 13417851
-0.014280002 0.14756 0.71400005 13352058
-0.012920001 0.14756 0.71400005 13351808
-0.011592381 0.14797334 0.71600002 13351808
-0.010228572 0.14797334 0.71600002 13286272
-0.0088771433 0.14818001 0.71700001 12957307
-0.007542857 0.1488 0.72000003 12628857
-0.0061714291 0.1488 0.72000003 12497271
-0.0048133335 0.14921334 0.72200006 12563064
-0.0034428574 0.14942001 0.72300005 13220994
-0.0020714288 0.14983334 0.72500002 13747588
-0.00069333339 0.15045334 0.72800004 16775094
0.00069523812 0.15086667 0.73000002 16645333
0.0020857144 0.15086667 0.73000002 16777176
-0.074639052 0.14996287 0.71900004 12760941
-0.073065713 0.14954571 0.71700001 12562812
-0.071699999 0.14954571 0.71700001 12694398
-0.070236191 0.14933714 0.71600002 12365692
-0.068872385 0.14933714 0.71600002 12299899
-0.067320004 0.14892001 0.71400005 12365676
-0.065960005 0.14892001 0.71400005 12431469
-0.064509533 0.14871144 0.71300006 12234610
-0.062885717 0.14808571 0.71000004 11774059
-0.061533332 0.14808571 0.71000004 11510615
-0.060011428 0.14766857 0.708 11707994
-0.058662858 0.14766857 0.708 11182190
-0.057314284 0.14766857 0.708 11116397
-0.055965714 0.14766857 0.708 11050602
-0.05461714 0.14766857 0.708 10853223
-0.053193334 0.14746 0.70700002 10853225
-0.051846668 0.14746 0.70700002 10853225
-0.050428573 0.14725144 0.70600003 10853212
-0.04908381 0.14725144 0.70600003 10919005
-0.047739051 0.14725144 0.70600003 11049823
-0.046394285 0.14725144 0.70600003 10918237
-0.044921909 0.1468343 0.70400006 10851942
-0.043580953 0.1468343 0.70400006 11509872
-0.042240005 0.1468343 0.70400006 10852469
-0.040899049 0.1468343 0.70400006 10655090
-0.039558098 0.1468343 0.70400006 10655583
-0.038162857 0.14662571 0.70300001 10984548
-0.036823809 0.14662571 0.70300001 10591053
-0.035484761 0.14662571 0.70300001 10459467
-0.034194287 0.1468343 0.70400006 10590551
-0.032853335 0.1468343 0.70400006 11051102
-0.031512383 0.1468343 0.70400006 11050073
-0.030257143 0.14725144 0.70600003 11050073
-0.028912382 0.14725144 0.70600003 11379297
-0.027645715 0.14766857 0.708 11445090
-0.026297143 0.14766857 0.708 11379049
-0.024948573 0.14766857 0.708 12234358
-0.023600001 0.14766857 0.708 12496742
-0.022314286 0.14808571 0.71000004 12759914
-0.020961907 0.14808571 0.71000004 13351783
-0.019609524 0.14808571 0.71000004 13417576
-0.018257145 0.14808571 0.71000004 13155440
-0.016904762 0.14808571 0.71000004 12826475
-0.015574286 0.14829428 0.71100003 12431206
-0.014260001 0.14871144 0.71300006 12431206
-0.012920001 0.14892001 0.71400005 12365935
-0.01156 0.14892001 0.71400005 12629107
-0.010228572 0.14933714 0.71600002 12694639
-0.0088771433 0.14954571 0.71700001 12826225
-0.007542857 0.15017143 0.72000003 12431226
-0.0061714291 0.15017143 0.72000003 12102261
-0.0048133335 0.15058859 0.72200006 12431226
-0.0034428574 0.15079714 0.72300005 13286535
-0.0020714288 0.15121429 0.72500002 13747840
-0.00069333339 0.15184 0.72800004 16775089
0.00069523812 0.15225714 0.73000002 16645333
0.0020857144 0.15225714 0.73000002 16777177
-0.074431427 0.15091142 0.71700001 12367491
-0.073065713 0.15091142 0.71700001 12431728
-0.071699999 0.15091142 0.71700001 12629107
-0.070236191 0.15070096 0.71600002 12300149
-0.068872385 0.15070096 0.71600002 12102770
-0.067320004 0.15028 0.71400005 12234088
-0.065867618 0.15006953 0.71300006 12234088
-0.064328574 0.14964858 0.71100003 11773035
-0.062885717 0.1494381 0.71000004 11707242
-0.061360002 0.14901714 0.708 11247184
-0.060011428 0.14901714 0.708 11707735
-0.058662858 0.14901714 0.708 11379565
-0.057233334 0.14880668 0.70700002 11313772
-0.055886667 0.14880668 0.70700002 11182704
-0.054540001 0.14880668 0.70700002 10985325
-0.053193334 0.14880668 0.70700002 10919014
-0.051773336 0.14859618 0.70600003 10853221
-0.050428573 0.14859618 0.70600003 11050327
-0.048944768 0.14817525 0.70400006 11247706
-0.047603812 0.14817525 0.70400006 11247715
-0.04626286 0.14817525 0.70400006 10852957
-0.044921909 0.14817525 0.70400006 10851935
-0.043580953 0.14817525 0.70400006 11378279
-0.042240005 0.14817525 0.70400006 11115375
-0.04084095 0.14796476 0.70300001 10786410
-0.039501905 0.14796476 0.70300001 10655833
-0.038162857 0.14796476 0.70300001 10853212
-0.036823809 0.14796476 0.70300001 10722643
-0.035484761 0.14796476 0.70300001 10722643
-0.034194287 0.14817525 0.70400006 10787673
-0.032853335 0.14817525 0.70400006 10985052
-0.031512383 0.14817525 0.70400006 11049564
-0.03017143 0.14817525 0.70400006 11115357
-0.02883048 0.14817525 0.70400006 11576169
-0.027606668 0.14880668 0.70700002 11510376
-0.02626 0.14880668 0.70700002 11312482
-0.024913333 0.14880668 0.70700002 12036205
-0.023566667 0.14880668 0.70700002 12102763
-0.022251429 0.14901714 0.708 11905384
-0.020902857 0.14901714 0.708 11970648
-0.019609524 0.1494381 0.71000004 12233820
-0.018257145 0.1494381 0.71000004 12299874
-0.016904762 0.1494381 0.71000004 12299874
-0.015574286 0.14964858 0.71100003 12168554
-0.014260001 0.15006953 0.71300006 11905382
-0.012901906 0.15006953 0.71300006 11970923
-0.01156 0.15028 0.71400005 11905130
-0.010228572 0.15070096 0.71600002 11839071
-0.0088771433 0.15091142 0.71700001 12168036
-0.007542857 0.15154287 0.72000003 12102243
-0.0061714291 0.15154287 0.72000003 12233829
-0.0048133335 0.15196382 0.72200006 12299638
-0.0034523809 0.15259524 0.72500002 13549705
-0.0020714288 0.15259524 0.72500002 13879174
-0.00069333339 0.15322667 0.72800004 16774323
-0.074431427 0.15227714 0.71700001 13419677
-0.073065713 0.15227714 0.71700001 12497780
-0.071699999 0.15227714 0.71700001 12629366
-0.070236191 0.15206476 0.71600002 12168824
-0.068872385 0.15206476 0.71600002 11971445
-0.067320004 0.15164001 0.71400005 12037477
-0.065867618 0.15142763 0.71300006 11971684
-0.064328574 0.15100287 0.71100003 11839859
-0.062885717 0.15079048 0.71000004 11839859
-0.061360002 0.15036571 0.708 11905132
-0.060011428 0.15036571 0.708 11970925
-0.058580004 0.15015334 0.70700002 11510381
-0.057233334 0.15015334 0.70700002 11510381
-0.055886667 0.15015334 0.70700002 11379565
-0.054540001 0.15015334 0.70700002 11379565
-0.053118095 0.14994095 0.70600003 11050602
-0.051773336 0.14994095 0.70600003 10919016
-0.050285716 0.14951621 0.70400006 11050325
-0.048944768 0.14951621 0.70400006 11181911
-0.047603812 0.14951621 0.70400006 11247454
-0.04626286 0.14951621 0.70400006 11115868
-0.044858098 0.14930381 0.70300001 11114853
-0.043519046 0.14930381 0.70300001 11312232
-0.042180002 0.14930381 0.70300001 11115366
-0.04084095 0.14930381 0.70300001 10917987
-0.039501905 0.14930381 0.70300001 11049564
-0.038162857 0.14930381 0.70300001 11641701
-0.036719047 0.14887907 0.70100003 10918487
-0.035383813 0.14887907 0.70100003 10918487
-0.034145713 0.14930381 0.70300001 11115357
-0.032806665 0.14930381 0.70300001 11115357
-0.03146762 0.14930381 0.70300001 11115103
-0.03017143 0.14951621 0.70400006 11115103
-0.02883048 0.14951621 0.70400006 11378275
-0.027567619 0.14994095 0.70600003 11575654
-0.026222857 0.14994095 0.70600003 11444583
-0.024878096 0.14994095 0.70600003 11312997
-0.023566667 0.15015334 0.70700002 11641692
-0.022220001 0.15015334 0.70700002 11707485
-0.020873332 0.15015334 0.70700002 11772513
-0.019554285 0.15036571 0.708 12035685
-0.018205713 0.15036571 0.708 11641438
-0.016904762 0.15079048 0.71000004 11641438
-0.015552383 0.15079048 0.71000004 11773035
-0.01422 0.15100287 0.71100003 11838828
-0.012901906 0.15142763 0.71300006 12102000
-0.01154381 0.15142763 0.71300006 12036207
-0.010200001 0.15164001 0.71400005 11904880
-0.0088771433 0.15227714 0.71700001 12431224
-0.007542857 0.1529143 0.72000003 12498021
-0.0061714291 0.1529143 0.72000003 13090158
-0.0048133335 0.15333906 0.72200006 13286033
-0.0034523809 0.15397619 0.72500002 13812377
-0.0020771429 0.15440097 0.72700006 13747586
-0.00069333339 0.15461335 0.72800004 16708271
-0.076008573 0.15407144 0.71900004 15589817
-0.074431427 0.15364285 0.71700001 13681820
-0.073065713 0.15364285 0.71700001 13287046
-0.071599998 0.15342857 0.71600002 12760702
-0.070236191 0.15342857 0.71600002 12038265
-0.068680003 0.15300001 0.71400005 11972472
-0.067320004 0.15300001 0.71400005 12038515
-0.065867618 0.15278573 0.71300006 11709550
-0.064238101 0.15214287 0.71000004 11774323
-0.062885717 0.15214287 0.71000004 11774323
-0.061360002 0.15171428 0.708 11905645
-0.060011428 0.15171428 0.708 11905645
-0.058580004 0.1515 0.70700002 11115875
-0.057233334 0.1515 0.70700002 11510633
-0.05580762 0.15128572 0.70600003 11576174
-0.054462858 0.15128572 0.70600003 11576174
-0.053118095 0.15128572 0.70600003 11313256
-0.051626671 0.15085715 0.70400006 11247463
-0.050285716 0.15085715 0.70400006 11313245
-0.048944768 0.15085715 0.70400006 11247452
-0.047603812 0.15085715 0.70400006 11181661
-0.04626286 0.15085715 0.70400006 11181661
-0.044858098 0.15064286 0.70300001 11180896
-0.043519046 0.15064286 0.70300001 11312482
-0.042180002 0.15064286 0.70300001 11180639
-0.04084095 0.15064286 0.70300001 11180639
-0.039501905 0.15064286 0.70300001 11181150
-0.038162857 0.15064286 0.70300001 11246943
-0.036719047 0.15021428 0.70100003 11049303
-0.035383813 0.15021428 0.70100003 11180889
-0.034145713 0.15064286 0.70300001 11312477
-0.032806665 0.15064286 0.70300001 11312477
-0.03146762 0.15064286 0.70300001 11376991
-0.030128572 0.15064286 0.70300001 11376991
-0.02883048 0.15085715 0.70400006 11115357
-0.027567619 0.15128572 0.70600003 11575908
-0.026222857 0.15128572 0.70600003 11641449
-0.024878096 0.15128572 0.70600003 11575656
-0.023566667 0.1515 0.70700002 11707235
-0.022220001 0.1515 0.70700002 11707235
-0.020873332 0.1515 0.70700002 11772767
-0.019554285 0.15171428 0.708 11772767
-0.018205713 0.15171428 0.708 11510104
-0.016904762 0.15214287 0.71000004 11707483
-0.015552383 0.15214287 0.71000004 11772792
-0.01422 0.15235715 0.71100003 11838585
-0.012901906 0.15278573 0.71300006 12299379
-0.01154381 0.15278573 0.71300006 12233586
-0.010185715 0.15278573 0.71300006 11904873
-0.0088647623 0.15342857 0.71600002 12562803
-0.007542857 0.15428571 0.72000003 12563571
-0.0061714291 0.15428571 0.72000003 13089915
-0.0048133335 0.1547143 0.72200006 13417869
-0.0034428574 0.15492858 0.72300005 13286283
-0.0020714288 0.15535714 0.72500002 13549687
-0.076008573 0.15544096 0.71900004 15721146
-0.074431427 0.15500857 0.71700001 13813149
-0.073065713 0.15500857 0.71700001 13548961
-0.071599998 0.15479238 0.71600002 13219996
-0.070236191 0.15479238 0.71600002 12563073
-0.068680003 0.15436 0.71400005 12431487
-0.067320004 0.15436 0.71400005 12431483
-0.065682858 0.15371142 0.71100003 12168311
-0.064238101 0.15349525 0.71000004 11970932
-0.062708572 0.15306287 0.708 11970932
-0.061360002 0.15306287 0.708 11971436
-0.059926666 0.15284666 0.70700002 11971436
-0.058580004 0.15284666 0.70700002 11641967
-0.057233334 0.15284666 0.70700002 11641967
-0.05580762 0.15263048 0.70600003 11707501
-0.054462858 0.15263048 0.70600003 11641708
-0.052967623 0.15219811 0.70400006 11379049
-0.051626671 0.15219811 0.70400006 11313256
-0.050285716 0.15219811 0.70400006 11312993
-0.048944768 0.15219811 0.70400006 11510372
-0.047603812 0.15219811 0.70400006 11378786
-0.046197142 0.15198191 0.70300001 11510372
-0.044858098 0.15198191 0.70300001 11116395
-0.043519046 0.15198191 0.70300001 11182188
-0.042180002 0.15198191 0.70300001 11313256
-0.04084095 0.15198191 0.70300001 11313256
-0.039501905 0.15198191 0.70300001 11115623
-0.038054287 0.15154953 0.70100003 11049830
-0.036719047 0.15154953 0.70100003 10918246
-0.035383813 0.15154953 0.70100003 11115625
-0.034048576 0.15154953 0.70100003 11116386
-0.032806665 0.15198191 0.70300001 11182179
-0.03146762 0.15198191 0.70300001 10984041
-0.030128572 0.15198191 0.70300001 10984041
-0.028789524 0.15198191 0.70300001 11115116
-0.027489526 0.15219811 0.70400006 11378288
-0.026222857 0.15263048 0.70600003 11444840
-0.024878096 0.15263048 0.70600003 11510633
-0.023533335 0.15263048 0.70600003 11641449
-0.022188572 0.15263048 0.70600003 11641449
-0.020873332 0.15284666 0.70700002 11904101
-0.019554285 0.15306287 0.708 11969894
-0.018205713 0.15306287 0.708 11839080
-0.016904762 0.15349525 0.71000004 12036459
-0.015552383 0.15349525 0.71000004 11838858
-0.01422 0.15371142 0.71100003 11707272
-0.012901906 0.15414383 0.71300006 12497271
-0.01154381 0.15414383 0.71300006 13220994
-0.010185715 0.15414383 0.71300006 12629373
-0.0088647623 0.15479238 0.71600002 13089924
-0.007542857 0.15565714 0.72000003 13090178
-0.0061714291 0.15565714 0.72000003 13024385
-0.0048133335 0.15608953 0.72200006 13220999
-0.0034428574 0.15630573 0.72300005 12957827
-0.0020714288 0.1567381 0.72500002 13155440
-0.076008573 0.15681049 0.71900004 15787189
-0.074431427 0.15637429 0.71700001 14010778
-0.073065713 0.15637429 0.71700001 14075036
-0.071699999 0.15637429 0.71700001 13482899
-0.070236191 0.1561562 0.71600002 13351556
-0.068680003 0.15572001 0.71400005 12956798
-0.067225717 0.15550192 0.71300006 12759932
-0.065682858 0.15506572 0.71100003 12430967
-0.064238101 0.15484762 0.71000004 12299377
-0.062708572 0.15441144 0.708 12233584
-0.061360002 0.15441144 0.708 12102513
-0.059926666 0.15419333 0.70700002 12036720
-0.058580004 0.15419333 0.70700002 11773294
-0.057152383 0.15397525 0.70600003 11839087
-0.05580762 0.15397525 0.70600003 11773807
-0.054462858 0.15397525 0.70600003 11576428
-0.052967623 0.15353906 0.70400006 11444583
-0.051626671 0.15353906 0.70400006 11378790
-0.050285716 0.15353906 0.70400006 10984534
-0.048875239 0.15332095 0.70300001 11181913
-0.047536191 0.15332095 0.70300001 10985052
-0.046197142 0.15332095 0.70300001 11182431
-0.044858098 0.15332095 0.70300001 10984809
-0.043519046 0.15332095 0.70300001 11182188
-0.042180002 0.15332095 0.70300001 11248499
-0.04084095 0.15332095 0.70300001 11182706
-0.039501905 0.15332095 0.70300001 10787946
-0.038054287 0.15288477 0.70100003 10787946
-0.036719047 0.15288477 0.70100003 10787430
-0.035383813 0.15288477 0.70100003 10984809
-0.034048576 0.15288477 0.70100003 11314542
-0.032806665 0.15332095 0.70300001 11051370
-0.03146762 0.15332095 0.70300001 10787946
-0.030128572 0.15332095 0.70300001 10985325
-0.028789524 0.15332095 0.70300001 11313006
-0.027489526 0.15353906 0.70400006 11313006
-0.026222857 0.15397525 0.70600003 11314026
-0.024878096 0.15397525 0.70600003 11182440
-0.023533335 0.15397525 0.70600003 11444583
-0.022188572 0.15397525 0.70600003 11707755
-0.020873332 0.15419333 0.70700002 12100976
-0.019554285 0.15441144 0.708 12100976
-0.018205713 0.15441144 0.708 11773816
-0.016904762 0.15484762 0.71000004 11905402
-0.015552383 0.15484762 0.71000004 12036484
-0.01422 0.15506572 0.71100003 12102277
-0.012901906 0.15550192 0.71300006 12497271
-0.01154381 0.15550192 0.71300006 13023615
-0.010200001 0.15572001 0.71400005 12039026
-0.0088647623 0.1561562 0.71600002 12696956
-0.007542857 0.15702857 0.72000003 12958599
-0.0061714291 0.15702857 0.72000003 12892806
-0.0048133335 0.15746477 0.72200006 12958338
-0.0034428574 0.15768287 0.72300005 12629373
-0.0020714288 0.15811905 0.72500002 12760943
-0.076114289 0.1584 0.72000003 15918773
-0.074639052 0.15818 0.71900004 14076569
-0.073269531 0.15818 0.71900004 13812629
-0.071699999 0.15774 0.71700001 13681043
-0.070236191 0.15752001 0.71600002 13483660
-0.068680003 0.15708001 0.71400005 13352074
-0.067225717 0.15686001 0.71300006 13155721
-0.065682858 0.15642001 0.71100003 12826756
-0.064238101 0.15620001 0.71000004 12628855
-0.062708572 0.15576001 0.708 12760441
-0.061360002 0.15576001 0.708 12299892
-0.059926666 0.15554 0.70700002 12234099
-0.058580004 0.15554 0.70700002 12102772
-0.057152383 0.15532002 0.70600003 12036979
-0.05580762 0.15532002 0.70600003 11971186
-0.054308575 0.15488 0.70400006 11839600
-0.052967623 0.15488 0.70400006 11839600
-0.051626671 0.15488 0.70400006 11773807
-0.050214287 0.15466 0.70300001 11444842
-0.048875239 0.15466 0.70300001 11642221
-0.047536191 0.15466 0.70300001 11445862
-0.046197142 0.15466 0.70300001 11577448
-0.044858098 0.15466 0.70300001 11576174
-0.043519046 0.15466 0.70300001 11444588
-0.042060003 0.15422001 0.70100003 11444338
-0.040724762 0.15422001 0.70100003 11641717
-0.039389525 0.15422001 0.70100003 11247731
-0.038054287 0.15422001 0.70100003 11379317
-0.036719047 0.15422001 0.70100003 11444842
-0.035383813 0.15422001 0.70100003 11313256
-0.034048576 0.15422001 0.70100003 11510381
-0.032806665 0.15466 0.70300001 11576174
-0.03146762 0.15466 0.70300001 11445358
-0.030128572 0.15466 0.70300001 11840116
-0.028789524 0.15466 0.70300001 11444592
-0.027489526 0.15488 0.70400006 11444592
-0.026148573 0.15488 0.70400006 11445108
-0.024878096 0.15532002 0.70600003 11576694
-0.023533335 0.15532002 0.70600003 12036977
-0.022188572 0.15532002 0.70600003 12234356
-0.020873332 0.15554 0.70700002 12167291
-0.019554285 0.15576001 0.708 12035705
-0.018205713 0.15576001 0.708 11969931
-0.016904762 0.15620001 0.71000004 12562068
-0.015552383 0.15620001 0.71000004 12629116
-0.01422 0.15642001 0.71100003 12892288
-0.012901906 0.15686001 0.71300006 12694650
-0.01154381 0.15686001 0.71300006 13023615
-0.010200001 0.15708001 0.71400005 12893040
-0.0088771433 0.15774 0.71700001 13024626
-0.0075323815 0.15818 0.71900004 12629632
-0.0061714291 0.1584 0.72000003 12037495
-0.0048133335 0.15884002 0.72200006 11906177
-0.0034428574 0.15906002 0.72300005 12366728
-0.0020714288 0.1595 0.72500002 12563830
-0.076325722 0.16021524 0.72200006 16050618
-0.074639052 0.15954953 0.71900004 14011035
-0.073269531 0.15954953 0.71900004 13615500
-0.071699999 0.15910572 0.71700001 13615500
-0.070236191 0.15888381 0.71600002 13484675
-0.068680003 0.15844001 0.71400005 13353089
-0.067225717 0.1582181 0.71300006 13090187
-0.065682858 0.1577743 0.71100003 13024394
-0.064238101 0.15755239 0.71000004 12365942
-0.062708572 0.15710858 0.708 12563321
-0.061360002 0.15710858 0.708 12430972
-0.059926666 0.15688667 0.70700002 12299386
-0.058580004 0.15688667 0.70700002 12233845
-0.057152383 0.15666476 0.70600003 12168052
-0.05580762 0.15666476 0.70600003 12036725
-0.054308575 0.15622096 0.70400006 12102518
-0.052967623 0.15622096 0.70400006 12168311
-0.051626671 0.15622096 0.70400006 11905139
-0.050214287 0.15599905 0.70300001 11576169
-0.048875239 0.15599905 0.70300001 11707755
-0.047536191 0.15599905 0.70300001 11773807
-0.046197142 0.15599905 0.70300001 11773807
-0.044730477 0.15555525 0.70100003 11839348
-0.04339524 0.15555525 0.70100003 11510383
-0.042060003 0.15555525 0.70100003 11575395
-0.040724762 0.15555525 0.70100003 11706981
-0.039389525 0.15555525 0.70100003 11313006
-0.038054287 0.15555525 0.70100003 11444592
-0.036719047 0.15555525 0.70100003 11707503
-0.035383813 0.15555525 0.70100003 11444331
-0.034048576 0.15555525 0.70100003 11575143
-0.032806665 0.15599905 0.70300001 11838315
-0.03146762 0.15599905 0.70300001 11707503
-0.030128572 0.15599905 0.70300001 11904882
-0.028789524 0.15599905 0.70300001 11379569
-0.027489526 0.15622096 0.70400006 11379569
-0.026148573 0.15622096 0.70400006 11773555
-0.024807621 0.15622096 0.70400006 12036727
-0.023533335 0.15666476 0.70600003 12234610
-0.022188572 0.15666476 0.70600003 12168817
-0.020873332 0.15688667 0.70700002 12233586
-0.019554285 0.15710858 0.708 12365172
-0.018205713 0.15710858 0.708 12430470
-0.016904762 0.15755239 0.71000004 12627849
-0.015552383 0.15755239 0.71000004 12825723
-0.01422 0.1577743 0.71100003 12825723
-0.012901906 0.1582181 0.71300006 12233584
-0.01154381 0.1582181 0.71300006 13154686
-0.010200001 0.15844001 0.71400005 12828285
-0.0088771433 0.15910572 0.71700001 12630906
-0.0075114286 0.15910572 0.71700001 12104310
-0.0061885719 0.16021524 0.72200006 11577966
-0.0048133335 0.16021524 0.72200006 11577446
-0.0034428574 0.16043715 0.72300005 12235376
-0.0020771429 0.16132477 0.72700006 12301435
-0.078239053 0.16270953 0.72700006 16185564
-0.076325722 0.16159049 0.72200006 15919800
-0.074950479 0.16159049 0.72200006 13880217
-0.073371425 0.16114287 0.72000003 13813136
-0.071900003 0.16091906 0.71900004 13878929
-0.070236191 0.16024762 0.71600002 13813629
-0.068680003 0.15980001 0.71400005 13418871
-0.067225717 0.15957619 0.71300006 13287298
-0.065590478 0.15890476 0.71000004 13287298
-0.064238101 0.15890476 0.71000004 12760443
-0.062708572 0.15845715 0.708 12826236
-0.061360002 0.15845715 0.708 12759946
-0.059926666 0.15823333 0.70700002 12891532
-0.058580004 0.15823333 0.70700002 12694650
-0.057152383 0.15800953 0.70600003 12760443
-0.055649526 0.15756191 0.70400006 12233856
-0.054308575 0.15756191 0.70400006 12233856
-0.052967623 0.15756191 0.70400006 12233593
-0.051626671 0.15756191 0.70400006 12036214
-0.050214287 0.1573381 0.70300001 11970934
-0.048875239 0.1573381 0.70300001 12168313
-0.047536191 0.1573381 0.70300001 11971195
-0.046197142 0.1573381 0.70300001 11642230
-0.044730477 0.15689048 0.70100003 12036218
-0.04339524 0.15689048 0.70100003 12496769
-0.042060003 0.15689048 0.70100003 12102259
-0.040724762 0.15689048 0.70100003 12299638
-0.039389525 0.15689048 0.70100003 11905141
-0.038054287 0.15689048 0.70100003 11576176
-0.036719047 0.15689048 0.70100003 11971186
-0.035383813 0.15689048 0.70100003 12102772
-0.034048576 0.15689048 0.70100003 11970932
-0.032806665 0.1573381 0.70300001 11905139
-0.03146762 0.1573381 0.70300001 12036727
-0.030128572 0.1573381 0.70300001 12168313
-0.028789524 0.1573381 0.70300001 11970943
-0.027489526 0.15756191 0.70400006 12168322
-0.026148573 0.15756191 0.70400006 12168315
-0.024807621 0.15756191 0.70400006 12234108
-0.023533335 0.15800953 0.70600003 12366192
-0.022188572 0.15800953 0.70600003 12563571
-0.020873332 0.15823333 0.70700002 12760432
-0.019554285 0.15845715 0.708 13286776
-0.018205713 0.15845715 0.708 12891527
-0.016904762 0.15890476 0.71000004 12759941
-0.015552383 0.15890476 0.71000004 12694648
-0.01422 0.15912858 0.71100003 12694648
-0.012901906 0.15957619 0.71300006 12498041
-0.01154381 0.15957619 0.71300006 12563834
-0.010200001 0.15980001 0.71400005 12038001
-0.0088771433 0.16047142 0.71700001 11380071
-0.0075114286 0.16047142 0.71700001 11445862
-0.0061714291 0.16114287 0.72000003 11445862
-0.0048133335 0.16159049 0.72200006 11249501
-0.0034428574 0.1618143 0.72300005 12104810
-0.0020714288 0.1622619 0.72500002 12301696
-0.000692381 0.16270953 0.72700006 16249276
-0.079733342 0.16432001 0.72800004 16646115
-0.078239053 0.1640943 0.72700006 16382943
-0.076642863 0.16364287 0.72500002 15854009
-0.075054288 0.16319144 0.72300005 13682840
-0.073575243 0.16296573 0.72200006 13682056
-0.071900003 0.16228859 0.71900004 13813642
-0.070236191 0.16161142 0.71600002 13879174
-0.068680003 0.16116002 0.71400005 13023865
-0.067225717 0.1609343 0.71300006 13088625
-0.065590478 0.16025715 0.71000004 13154418
-0.064238101 0.16025715 0.71000004 12825975
-0.062708572 0.15980572 0.708 12825975
-0.061360002 0.15980572 0.708 12497019
-0.059926666 0.15958001 0.70700002 12760191
-0.058580004 0.15958001 0.70700002 12496758
-0.057152383 0.15935428 0.70600003 12759930
-0.055649526 0.15890287 0.70400006 12365433
-0.054308575 0.15890287 0.70400006 12431226
-0.052967623 0.15890287 0.70400006 12430983
-0.051626671 0.15890287 0.70400006 12365190
