# .PCD v0.7 - Point Cloud Data file format
VERSION 0.7
FIELDS x y z rgba
SIZE 4 4 4 4
TYPE F F F U
COUNT 1 1 1 1
WIDTH 1108
HEIGHT 1
VIEWPOINT 0 0 0 1 0 0 0
POINTS 1108
DATA ascii
-0.03381905 0.15122858 0.67000002 16515026
-0.096317142 0.15045619 0.66100001 16646102
-0.095058098 0.15045619 0.66100001 16711652
-0.093799047 0.15045619 0.66100001 14869704
-0.092260011 0.15000096 0.65900004 15131741
-0.090866677 0.14977334 0.65800005 9078785
-0.089204758 0.14909048 0.65500003 6647121
-0.087688573 0.14863525 0.65300006 5528640
-0.085782856 0.14749713 0.648 4280377
-0.084287621 0.14704192 0.64600003 2767138
-0.08305715 0.14704192 0.64600003 2966272
-0.081573337 0.14658669 0.64400005 3295232
-0.080097146 0.14613143 0.64200002 2900238
-0.078874283 0.14613143 0.64200002 2768652
-0.077530481 0.14590381 0.64100003 2439936
-0.076309532 0.14590381 0.64100003 2834688
-0.074971437 0.1456762 0.64000005 2636288
-0.073752381 0.1456762 0.64000005 2438912
-0.072533339 0.1456762 0.64000005 2570496
-0.07131429 0.1456762 0.64000005 3491596
-0.069876194 0.14522097 0.63800001 1979648
-0.068660952 0.14522097 0.63800001 1782272
-0.067445718 0.14522097 0.63800001 1782016
-0.066230476 0.14522097 0.63800001 1847808
-0.065015234 0.14522097 0.63800001 2044672
-0.0638 0.14522097 0.63800001 2044672
-0.062780954 0.1456762 0.64000005 2371840
-0.061561912 0.1456762 0.64000005 2437632
-0.060342859 0.1456762 0.64000005 2634752
-0.05921619 0.14590381 0.64100003 3292677
-0.057995241 0.14590381 0.64100003 2307840
-0.056774288 0.14590381 0.64100003 2176256
-0.055640001 0.14613143 0.64200002 2307840
-0.054501906 0.14635904 0.64300001 2242048
-0.053277142 0.14635904 0.64300001 2241792
-0.052133337 0.14658669 0.64400005 2307584
-0.050906669 0.14658669 0.64400005 2308864
-0.049680006 0.14658669 0.64400005 2637827
-0.04860381 0.14704192 0.64600003 3554857
-0.047373332 0.14704192 0.64600003 4541752
-0.046214286 0.14726953 0.64700001 4344875
-0.045051429 0.14749713 0.648 5726528
-0.043884765 0.14772476 0.64900005 6514500
-0.043174285 0.14954571 0.65700001 7106637
-0.041922856 0.14954571 0.65700001 7238710
-0.040919047 0.15045619 0.66100001 11712634
-0.039720006 0.15068382 0.66200006 12500654
-0.038575239 0.15113907 0.66400003 16777200
-0.037422854 0.15159428 0.66600001 16646122
-0.036154289 0.15159428 0.66600001 16514536
-0.034990478 0.15204953 0.66800004 16515026
-0.033718098 0.15204953 0.66800004 16186061
-0.032591429 0.15273239 0.671 16580560
-0.097576194 0.15171525 0.66100001 16580320
-0.096317142 0.15171525 0.66100001 16711650
-0.095058098 0.15171525 0.66100001 16711661
-0.093515247 0.1512562 0.65900004 12632751
-0.092260011 0.1512562 0.65900004 12563807
-0.090728574 0.15079714 0.65700001 9405743
-0.089068577 0.15010858 0.65400004 8421710
-0.087688573 0.14987907 0.65300006 6776885
-0.085915245 0.14896096 0.64900005 5726015
-0.084418096 0.1485019 0.64700001 4212776
-0.08305715 0.14827238 0.64600003 3230209
-0.081573337 0.14781334 0.64400005 3098624
-0.080346674 0.14781334 0.64400005 2900238
-0.078874283 0.14735429 0.64200002 2571273
-0.077530481 0.14712477 0.64100003 1651968
-0.076309532 0.14712477 0.64100003 2244098
-0.075088575 0.14712477 0.64100003 2439424
-0.073752381 0.14689524 0.64000005 2307840
-0.072533339 0.14689524 0.64000005 2308612
-0.07131429 0.14689524 0.64000005 2308612
-0.070095241 0.14689524 0.64000005 1848576
-0.068876199 0.14689524 0.64000005 1651200
-0.06765715 0.14689524 0.64000005 1848576
-0.066438094 0.14689524 0.64000005 1914368
-0.065219052 0.14689524 0.64000005 2241536
-0.064000003 0.14689524 0.64000005 2109952
-0.062780954 0.14689524 0.64000005 1911808
-0.061561912 0.14689524 0.64000005 2372354
-0.060437147 0.14712477 0.64100003 2241792
-0.05921619 0.14712477 0.64100003 2702339
-0.057995241 0.14712477 0.64100003 2505216
-0.056774288 0.14712477 0.64100003 2373632
-0.055640001 0.14735429 0.64200002 2374912
-0.054501906 0.14758381 0.64300001 2309120
-0.053277142 0.14758381 0.64300001 2177280
-0.052133337 0.14781334 0.64400005 2506241
-0.050906669 0.14781334 0.64400005 2900994
-0.049834289 0.14827238 0.64600003 3164166
-0.04867905 0.1485019 0.64700001 4803584
-0.047446668 0.1485019 0.64700001 5527306
-0.046214286 0.1485019 0.64700001 5789229
-0.045051429 0.14873143 0.648 6512952
-0.044087619 0.14964953 0.65200001 7302193
-0.043174285 0.15079714 0.65700001 7499572
-0.041922856 0.15079714 0.65700001 8156739
-0.040671431 0.15079714 0.65700001 14341281
-0.039480001 0.15102668 0.65800005 14277814
-0.038459051 0.15194477 0.66200006 16777180
-0.037310477 0.15240382 0.66400003 16711652
-0.036045719 0.15240382 0.66400003 16580322
-0.034885716 0.15286285 0.66600001 16580579
-0.033617143 0.15286285 0.66600001 16251614
-0.032397144 0.15309238 0.66700006 16514253
-0.097280957 0.15251143 0.65900004 16446927
-0.09602572 0.15251143 0.65900004 16644306
-0.094770476 0.15251143 0.65900004 16578502
-0.093515247 0.15251143 0.65900004 10986097
-0.092260011 0.15251143 0.65900004 10327129
-0.090728574 0.15204857 0.65700001 9274441
-0.089068577 0.1513543 0.65400004 8618319
-0.087688573 0.15112287 0.65300006 8486733
-0.086047627 0.15042858 0.65000004 7173465
-0.084679052 0.15019716 0.64900005 6581328
-0.083185717 0.14973429 0.64700001 5659955
-0.081826672 0.14950287 0.64600003 5067818
-0.080346674 0.14904001 0.64400005 3687983
-0.079120003 0.14904001 0.64400005 3359018
-0.077651434 0.14857715 0.64200002 3360021
-0.07642857 0.14857715 0.64200002 3491607
-0.075088575 0.14834571 0.64100003 2307840
-0.073867619 0.14834571 0.64100003 1978880
-0.07264667 0.14834571 0.64100003 2241792
-0.07131429 0.14811429 0.64000005 2241792
-0.070095241 0.14811429 0.64000005 2045440
-0.068876199 0.14811429 0.64000005 1913856
-0.06765715 0.14811429 0.64000005 1716992
-0.066438094 0.14811429 0.64000005 1848576
-0.065320954 0.14834571 0.64100003 2044672
-0.064099997 0.14834571 0.64100003 2110464
-0.062879048 0.14834571 0.64100003 2568704
-0.061658099 0.14834571 0.64100003 2700290
-0.06053143 0.14857715 0.64200002 2373122
-0.059308574 0.14857715 0.64200002 3031052
-0.058085714 0.14857715 0.64200002 3490821
-0.056862857 0.14857715 0.64200002 3556614
-0.055726666 0.14880858 0.64300001 4410880
-0.054501906 0.14880858 0.64300001 4805637
-0.053360004 0.14904001 0.64400005 5199143
-0.052295242 0.14950287 0.64600003 5922866
-0.051064763 0.14950287 0.64600003 6447915
-0.049911428 0.14973429 0.64700001 6447915
-0.048754286 0.14996572 0.648 6840843
-0.047446668 0.14973429 0.64700001 8025117
-0.046214286 0.14973429 0.64700001 7630162
-0.045190476 0.15042858 0.65000004 8024920
-0.044290476 0.15158573 0.65500003 7960110
-0.043042861 0.15158573 0.65500003 8354868
-0.041795239 0.15158573 0.65500003 9341022
-0.040671431 0.15204857 0.65700001 15591357
-0.039419997 0.15204857 0.65700001 16512979
-0.038284764 0.15251143 0.65900004 16777179
-0.037141904 0.15297428 0.66100001 16646103
-0.035937145 0.15320572 0.66200006 16514517
-0.034728575 0.15343715 0.66300005 16448223
-0.033516191 0.15366857 0.66400003 16119258
-0.032348569 0.15413143 0.66600001 16381632
-0.097133338 0.15353334 0.65800005 16380873
-0.095880009 0.15353334 0.65800005 16578252
-0.094626673 0.15353334 0.65800005 15327663
-0.093373336 0.15353334 0.65800005 10722153
-0.092120007 0.15353334 0.65800005 10129991
-0.090452388 0.15283334 0.65500003 9537854
-0.089068577 0.15260001 0.65400004 9275479
-0.087688573 0.15236668 0.65300006 8946514
-0.086312376 0.15213333 0.65200001 7895385
-0.084679052 0.15143333 0.64900005 7434834
-0.083314285 0.1512 0.648 6775845
-0.081953332 0.15096666 0.64700001 5986329
-0.080596194 0.15073334 0.64600003 5658658
-0.079120003 0.15026668 0.64400005 4540177
-0.077772386 0.15003334 0.64300001 4147712
-0.07642857 0.1498 0.64200002 3950336
-0.075205714 0.1498 0.64200002 3359232
-0.073867619 0.14956668 0.64100003 2964480
-0.07264667 0.14956668 0.64100003 2242560
-0.071425714 0.14956668 0.64100003 2571520
-0.070204765 0.14956668 0.64100003 2900992
-0.068983816 0.14956668 0.64100003 2243072
-0.067762859 0.14956668 0.64100003 1782016
-0.06654191 0.14956668 0.64100003 1913600
-0.065320954 0.14956668 0.64100003 2175232
-0.064099997 0.14956668 0.64100003 2306816
-0.062977143 0.1498 0.64200002 2701312
-0.061754286 0.1498 0.64200002 2832896
-0.06053143 0.1498 0.64200002 2702592
-0.059308574 0.1498 0.64200002 3097344
-0.058085714 0.1498 0.64200002 4016132
-0.056951426 0.15003334 0.64300001 4279304
-0.055726666 0.15003334 0.64300001 5329943
-0.054586671 0.15026668 0.64400005 5329943
-0.053360004 0.15026668 0.64400005 5920531
-0.052295242 0.15073334 0.64600003 7039012
-0.051064763 0.15073334 0.64600003 7562792
-0.049911428 0.15096666 0.64700001 7431206
-0.048754286 0.1512 0.648 7299865
-0.047446668 0.15096666 0.64700001 8089381
-0.046214286 0.15096666 0.64700001 7629382
-0.045399051 0.15236668 0.65300006 8221519
-0.044290476 0.15283334 0.65500003 8157230
-0.043042861 0.15283334 0.65500003 8420402
-0.041795239 0.15283334 0.65500003 10589020
-0.040547621 0.15283334 0.65500003 16707769
-0.039300002 0.15283334 0.65500003 16710625
-0.038168572 0.1533 0.65700001 16710625
-0.036917143 0.1533 0.65700001 16579545
-0.035774291 0.15376668 0.65900004 16447959
-0.03451905 0.15376668 0.65900004 16381142
-0.033415239 0.15446669 0.66200006 16315349
-0.032251429 0.15493333 0.66400003 16380871
-0.030986669 0.15493333 0.66400003 15920320
-0.098237142 0.15455143 0.65700001 16379567
-0.096985713 0.15455143 0.65700001 16444579
-0.095734291 0.15455143 0.65700001 15720856
-0.094482854 0.15455143 0.65700001 15589247
-0.093231425 0.15455143 0.65700001 10983737
-0.091700003 0.15408096 0.65500003 10195793
-0.090314291 0.15384573 0.65400004 10130000
-0.088932388 0.15361048 0.65300006 9407065
-0.087554283 0.15337524 0.65200001 9209686
-0.086047627 0.15290476 0.65000004 8616796
-0.084679052 0.15266953 0.64900005 8551003
-0.083314285 0.15243429 0.648 8090919
-0.081953332 0.15219904 0.64700001 7893540
-0.080596194 0.15196382 0.64600003 7367732
-0.079120003 0.15149334 0.64400005 7170353
-0.077893339 0.15149334 0.64400005 6645785
-0.076666676 0.15149334 0.64400005 6448406
-0.075205714 0.15102287 0.64200002 6382899
-0.073867619 0.15078762 0.64100003 6448692
-0.07264667 0.15078762 0.64100003 6185016
-0.071425714 0.15078762 0.64100003 6185016
-0.070204765 0.15078762 0.64100003 5856812
-0.068983816 0.15078762 0.64100003 5659433
-0.067762859 0.15078762 0.64100003 6052914
-0.06654191 0.15078762 0.64100003 6184500
-0.065422855 0.15102287 0.64200002 6052655
-0.064200006 0.15102287 0.64200002 5921069
-0.062977143 0.15102287 0.64200002 5987364
-0.061850477 0.1512581 0.64300001 6184743
-0.060625713 0.1512581 0.64300001 6251047
-0.059400953 0.1512581 0.64300001 6514219
-0.05817619 0.1512581 0.64300001 6512954
-0.056951426 0.1512581 0.64300001 6776126
-0.055726666 0.1512581 0.64300001 6710343
-0.054586671 0.15149334 0.64400005 6907722
-0.053525716 0.15196382 0.64600003 7301673
-0.052295242 0.15196382 0.64600003 7893810
-0.051064763 0.15196382 0.64600003 7893040
-0.049911428 0.15219904 0.64700001 8222005
-0.04867905 0.15219904 0.64700001 8814410
-0.047446668 0.15219904 0.64700001 8814410
-0.046214286 0.15219904 0.64700001 8682838
-0.045329522 0.15337524 0.65200001 8946010
-0.044222858 0.15384573 0.65400004 9473362
-0.042977147 0.15384573 0.65400004 11118187
-0.041731432 0.15384573 0.65400004 11707795
-0.040547621 0.15408096 0.65500003 16774370
-0.039300002 0.15408096 0.65500003 16578770
-0.038052384 0.15408096 0.65500003 16381391
-0.036804762 0.15408096 0.65500003 16381393
-0.035665717 0.15455143 0.65700001 16184014
-0.034414288 0.15455143 0.65700001 16380360
-0.033213336 0.15478668 0.65800005 16314567
-0.032105718 0.15549238 0.66100001 16181954
-0.030893337 0.15572762 0.66200006 15655610
-0.029677145 0.15596287 0.66300005 15786935
-0.10043333 0.15532857 0.65500003 14935497
-0.09918572 0.15532857 0.65500003 16179610
-0.097938098 0.15532857 0.65500003 16442782
-0.096690476 0.15532857 0.65500003 16246457
-0.095442861 0.15532857 0.65500003 15720113
-0.094195247 0.15532857 0.65500003 14273923
-0.092805721 0.15509143 0.65400004 10786894
-0.091560006 0.15509143 0.65400004 10326618
-0.090176195 0.1548543 0.65300006 10195032
-0.088796191 0.15461715 0.65200001 9538142
-0.087285712 0.15414286 0.65000004 9406556
-0.085915245 0.15390572 0.64900005 9404757
-0.08454857 0.15366857 0.648 9075792
-0.083185717 0.15343143 0.64700001 8615993
-0.081826672 0.15319429 0.64600003 8155442
-0.080596194 0.15319429 0.64600003 7761220
-0.079120003 0.15272002 0.64400005 7695427
-0.077893339 0.15272002 0.64400005 7696179
-0.076666676 0.15272002 0.64400005 7433007
-0.075205714 0.15224572 0.64200002 7038499
-0.073867619 0.15200858 0.64100003 7038499
-0.07264667 0.15200858 0.64100003 6905643
-0.071425714 0.15200858 0.64100003 6971436
-0.070204765 0.15200858 0.64100003 6840114
-0.068983816 0.15200858 0.64100003 6971700
-0.067868568 0.15224572 0.64200002 7038004
-0.066645719 0.15224572 0.64200002 7103797
-0.065422855 0.15224572 0.64200002 6642469
-0.064200006 0.15224572 0.64200002 6708262
-0.063075244 0.15248285 0.64300001 7036979
-0.061850477 0.15248285 0.64300001 7102772
-0.060625713 0.15248285 0.64300001 7038249
-0.059400953 0.15248285 0.64300001 7038249
-0.05817619 0.15248285 0.64300001 6774827
-0.056951426 0.15248285 0.64300001 7037999
-0.055726666 0.15248285 0.64300001 6972215
-0.054586671 0.15272002 0.64400005 7366973
-0.053525716 0.15319429 0.64600003 7498548
-0.052295242 0.15319429 0.64600003 7695927
-0.051064763 0.15319429 0.64600003 7564593
-0.049834289 0.15319429 0.64600003 8222523
-0.04867905 0.15343143 0.64700001 8814415
-0.047446668 0.15343143 0.64700001 8880208
-0.046214286 0.15343143 0.64700001 8683342
-0.044981908 0.15343143 0.64700001 9275479
-0.043884765 0.15390572 0.64900005 9867866
-0.042911433 0.1548543 0.65300006 12368000
-0.041667622 0.1548543 0.65300006 13813649
-0.040485717 0.15509143 0.65400004 16774848
-0.039240003 0.15509143 0.65400004 16578772
-0.037994288 0.15509143 0.65400004 16381393
-0.036748573 0.15509143 0.65400004 16381134
-0.035557143 0.15532857 0.65500003 16315341
-0.034309525 0.15532857 0.65500003 16380629
-0.033162855 0.15580286 0.65700001 16183250
-0.031960003 0.15604001 0.65800005 16181693
-0.030753333 0.15627715 0.65900004 15721142
-0.029587621 0.15675142 0.66100001 15983517
-0.028414289 0.15722571 0.66300005 16049310
-0.10043333 0.1565762 0.65500003 14737338
-0.09918572 0.1565762 0.65500003 15062694
-0.097938098 0.1565762 0.65500003 15260073
-0.096690476 0.1565762 0.65500003 15391407
-0.095442861 0.1565762 0.65500003 14536098
-0.094051436 0.15633714 0.65400004 13878652
-0.09266381 0.15609811 0.65300006 10654795
-0.091279998 0.15585905 0.65200001 10261088
-0.089761913 0.15538096 0.65000004 10195295
-0.088523813 0.15538096 0.65000004 9734756
-0.087151438 0.15514192 0.64900005 9734756
-0.085782856 0.15490285 0.648 9734744
-0.084418096 0.15466382 0.64700001 9866330
-0.083185717 0.15466382 0.64700001 9406547
-0.081826672 0.15442477 0.64600003 9011789
-0.080596194 0.15442477 0.64600003 8748635
-0.079120003 0.15394668 0.64400005 8419670
-0.077772386 0.15370762 0.64300001 8354379
-0.07642857 0.15346856 0.64200002 7959621
-0.075205714 0.15346856 0.64200002 8024624
-0.073867619 0.15322953 0.64100003 8222003
-0.07264667 0.15322953 0.64100003 7958333
-0.071425714 0.15322953 0.64100003 7892540
-0.070204765 0.15322953 0.64100003 7629639
-0.068983816 0.15322953 0.64100003 7432260
-0.067868568 0.15346856 0.64200002 7630636
-0.066645719 0.15346856 0.64200002 7696429
-0.065422855 0.15346856 0.64200002 7365946
-0.064200006 0.15346856 0.64200002 7365946
-0.063075244 0.15370762 0.64300001 7629384
-0.061850477 0.15370762 0.64300001 8024142
-0.060625713 0.15370762 0.64300001 7827774
-0.059400953 0.15370762 0.64300001 7696188
-0.05817619 0.15370762 0.64300001 7761220
-0.056951426 0.15370762 0.64300001 7761220
-0.055813335 0.15394668 0.64400005 8221517
-0.054586671 0.15394668 0.64400005 8682068
-0.053360004 0.15394668 0.64400005 8551252
-0.052295242 0.15442477 0.64600003 8880217
-0.051064763 0.15442477 0.64600003 9077328
-0.049834289 0.15442477 0.64600003 9143121
-0.04860381 0.15442477 0.64600003 9668688
-0.047373332 0.15442477 0.64600003 9734481
-0.046142858 0.15442477 0.64600003 9340759
-0.044981908 0.15466382 0.64700001 9867103
-0.043749522 0.15466382 0.64700001 10919786
-0.042714287 0.15538096 0.65000004 14933159
-0.041603811 0.15585905 0.65200001 15523254
-0.040423814 0.15609811 0.65300006 16773321
-0.039180003 0.15609811 0.65300006 16379849
-0.037994288 0.15633714 0.65400004 16248263
-0.036748573 0.15633714 0.65400004 16247486
-0.035557143 0.1565762 0.65500003 16115900
-0.034309525 0.1565762 0.65500003 15655363
-0.033162855 0.15705428 0.65700001 15457984
-0.031960003 0.15729335 0.65800005 15654829
-0.030753333 0.15753239 0.65900004 15654829
-0.029498097 0.15753239 0.65900004 15654788
-0.028371431 0.15824954 0.66200006 15654788
-0.027192382 0.15872762 0.66400003 15064510
-0.026044764 0.15944476 0.66700006 16776927
-0.10214667 0.15854667 0.65800005 16182981
-0.10074 0.15830572 0.65700001 14143398
-0.099488571 0.15830572 0.65700001 14798729
-0.097938098 0.15782382 0.65500003 15259280
-0.096690476 0.15782382 0.65500003 15194800
-0.095297143 0.15758286 0.65400004 14339491
-0.093907632 0.15734191 0.65300006 13155958
-0.092521906 0.15710096 0.65200001 10787410
-0.091000006 0.15661906 0.65000004 10261088
-0.089761913 0.15661906 0.65000004 10195295
-0.088387623 0.15637811 0.64900005 9997664
-0.087017149 0.15613714 0.648 9866078
-0.085650474 0.1558962 0.64700001 9799772
-0.084418096 0.1558962 0.64700001 9799772
-0.083185717 0.1558962 0.64700001 9603674
-0.081826672 0.15565524 0.64600003 9472088
-0.080346674 0.15517333 0.64400005 9143643
-0.079120003 0.15517333 0.64400005 8485713
-0.077651434 0.15469144 0.64200002 8551220
-0.07642857 0.15469144 0.64200002 8353841
-0.075205714 0.15469144 0.64200002 8024104
-0.073867619 0.15445048 0.64100003 8221483
-0.07264667 0.15445048 0.64100003 8024628
-0.071425714 0.15445048 0.64100003 7893042
-0.070314288 0.15469144 0.64200002 7695684
-0.069091432 0.15469144 0.64200002 7893063
-0.067868568 0.15469144 0.64200002 7960389
-0.066645719 0.15469144 0.64200002 7434045
-0.065422855 0.15469144 0.64200002 7695409
-0.064200006 0.15469144 0.64200002 7892788
-0.063075244 0.15493238 0.64300001 7893054
-0.061850477 0.15493238 0.64300001 8156226
-0.060625713 0.15493238 0.64300001 8156996
-0.059400953 0.15493238 0.64300001 8288582
-0.05817619 0.15493238 0.64300001 8420168
-0.056951426 0.15493238 0.64300001 8420168
-0.055726666 0.15493238 0.64300001 8682306
-0.054586671 0.15517333 0.64400005 8813892
-0.053360004 0.15517333 0.64400005 8813379
-0.052133337 0.15517333 0.64400005 9405516
-0.050906669 0.15517333 0.64400005 9471838
-0.049680006 0.15517333 0.64400005 9406045
-0.04860381 0.15565524 0.64600003 9865045
-0.047373332 0.15565524 0.64600003 9799252
-0.046142858 0.15565524 0.64600003 9537356
-0.044981908 0.1558962 0.64700001 10326872
-0.043749522 0.1558962 0.64700001 12167795
-0.042582858 0.15613714 0.648 15852203
-0.041476194 0.15661906 0.65000004 16181175
-0.040361904 0.15710096 0.65200001 16510140
-0.03912 0.15710096 0.65200001 16313022
-0.037936196 0.15734191 0.65300006 16181436
-0.036692385 0.15734191 0.65300006 16050109
-0.035502858 0.15758286 0.65400004 15852730
-0.034309525 0.15782382 0.65500003 15523765
-0.033061903 0.15782382 0.65500003 14931628
-0.031911429 0.15830572 0.65700001 15127967
-0.03070667 0.15854667 0.65800005 14864795
-0.029498097 0.15878762 0.65900004 14865020
-0.028328571 0.15926953 0.66100001 14865020
-0.02715143 0.15975145 0.66300005 15129768
-0.026005713 0.16047429 0.66600001 16776906
-0.10355715 0.16004287 0.65900004 16316637
-0.10214667 0.15980001 0.65800005 16379569
-0.10074 0.15955715 0.65700001 13945228
-0.09918572 0.15907143 0.65500003 13944454
-0.097938098 0.15907143 0.65500003 14207626
-0.096542865 0.15882857 0.65400004 14537104
-0.095151439 0.15858573 0.65300006 14142346
-0.093763813 0.15834287 0.65200001 13156221
-0.092096195 0.15761429 0.64900005 11050845
-0.090860009 0.15761429 0.64900005 10260836
-0.089623809 0.15761429 0.64900005 10458215
-0.088251427 0.15737143 0.648 10063205
-0.086882859 0.15712857 0.64700001 9931619
-0.085650474 0.15712857 0.64700001 9865826
-0.084287621 0.15688573 0.64600003 9734240
-0.08305715 0.15688573 0.64600003 9669213
-0.081573337 0.15640001 0.64400005 9800799
-0.080346674 0.15640001 0.64400005 9603933
-0.078874283 0.15591429 0.64200002 9209175
-0.077651434 0.15591429 0.64200002 9473076
-0.07642857 0.15591429 0.64200002 9933627
-0.075088575 0.15567143 0.64100003 9405516
-0.073867619 0.15567143 0.64100003 9273930
-0.07264667 0.15567143 0.64100003 9142607
-0.071425714 0.15567143 0.64100003 9142607
-0.070314288 0.15591429 0.64200002 9208666
-0.069091432 0.15591429 0.64200002 9340252
-0.067868568 0.15591429 0.64200002 9142871
-0.066645719 0.15591429 0.64200002 9142871
-0.065422855 0.15591429 0.64200002 9142869
-0.064200006 0.15591429 0.64200002 9340248
-0.062977143 0.15591429 0.64200002 9274191
-0.061754286 0.15591429 0.64200002 9142605
-0.06053143 0.15591429 0.64200002 9471568
-0.059308574 0.15591429 0.64200002 9471568
-0.05817619 0.15615714 0.64300001 9406295
-0.056951426 0.15615714 0.64300001 9340502
-0.055726666 0.15615714 0.64300001 9602895
-0.054501906 0.15615714 0.64300001 9668688
-0.053277142 0.15615714 0.64300001 9734733
-0.052133337 0.15640001 0.64400005 9932112
-0.050906669 0.15640001 0.64400005 9865841
-0.049680006 0.15640001 0.64400005 9734255
-0.048453335 0.15640001 0.64400005 10195034
-0.047226671 0.15640001 0.64400005 10392413
-0.046000004 0.15640001 0.64400005 10327379
-0.044912383 0.15688573 0.64600003 12037997
-0.043681905 0.15688573 0.64600003 12693913
-0.042517144 0.15712857 0.64700001 15983563
-0.041348573 0.15737143 0.648 16049578
-0.04017619 0.15761429 0.64900005 16312750
-0.039000001 0.15785715 0.65000004 16050352
-0.037878092 0.15834287 0.65200001 15458215
-0.036636192 0.15834287 0.65200001 15458224
-0.035448574 0.15858573 0.65300006 15260845
-0.034257144 0.15882857 0.65400004 15194530
-0.033061903 0.15907143 0.65500003 14799772
-0.031911429 0.15955715 0.65700001 14404771
-0.03070667 0.15980001 0.65800005 14207392
-0.029498097 0.16004287 0.65900004 14142598
-0.028328571 0.16052857 0.66100001 14471563
-0.02715143 0.1610143 0.66300005 14669985
-0.02592762 0.16125715 0.66400003 16776646
-0.10340001 0.16105334 0.65800005 15790291
-0.10199143 0.16080856 0.65700001 15918507
-0.10074 0.16080856 0.65700001 13944717
-0.09918572 0.16031905 0.65500003 13944967
-0.09778858 0.16007431 0.65400004 14208139
-0.096395247 0.15982954 0.65300006 14405788
-0.095005721 0.15958476 0.65200001 13945237
-0.093476199 0.15909524 0.65000004 12697226
-0.092096195 0.15885049 0.64900005 10657643
-0.090719998 0.15860571 0.648 10261088
-0.089347623 0.15836096 0.64700001 10524260
-0.088115238 0.15836096 0.64700001 10589803
-0.086748578 0.15811619 0.64600003 10524010
-0.085518099 0.15811619 0.64600003 10392938
-0.084026672 0.15762667 0.64400005 10195559
-0.082800008 0.15762667 0.64400005 9866846
-0.081446663 0.15738191 0.64300001 9866846
-0.080097146 0.15713714 0.64200002 9932639
-0.078874283 0.15713714 0.64200002 9866846
-0.077530481 0.15689239 0.64100003 9735762
-0.076309532 0.15689239 0.64100003 9801555
-0.075088575 0.15689239 0.64100003 9471311
-0.073867619 0.15689239 0.64100003 9405518
-0.07264667 0.15689239 0.64100003 9536332
-0.071425714 0.15689239 0.64100003 9602125
-0.070204765 0.15689239 0.64100003 9668181
-0.068983816 0.15689239 0.64100003 9668181
-0.067762859 0.15689239 0.64100003 9141828
-0.06654191 0.15689239 0.64100003 9536586
-0.065320954 0.15689239 0.64100003 9470800
-0.064099997 0.15689239 0.64100003 9733972
-0.062879048 0.15689239 0.64100003 9538131
-0.061658099 0.15689239 0.64100003 9472338
-0.060437147 0.15689239 0.64100003 9668438
-0.05921619 0.15689239 0.64100003 9668438
-0.058085714 0.15713714 0.64200002 9733974
-0.056862857 0.15713714 0.64200002 9733974
-0.055640001 0.15713714 0.64200002 9734224
-0.054501906 0.15738191 0.64300001 9800017
-0.053277142 0.15738191 0.64300001 9800528
-0.052052379 0.15738191 0.64300001 10392665
-0.050827619 0.15738191 0.64300001 10261870
-0.049602855 0.15738191 0.64300001 10130284
-0.048453335 0.15762667 0.64400005 10130016
-0.047226671 0.15762667 0.64400005 10261602
-0.046000004 0.15762667 0.64400005 10393426
-0.044773336 0.15762667 0.64400005 13025146
-0.043681905 0.15811619 0.64600003 14273698
-0.04245143 0.15811619 0.64600003 15392179
-0.041284762 0.15836096 0.64700001 15326118
-0.04005238 0.15836096 0.64700001 15391911
-0.038940005 0.15885049 0.64900005 15260852
-0.037703812 0.15885049 0.64900005 15129266
-0.036523812 0.15909524 0.65000004 14669744
-0.035285715 0.15909524 0.65000004 14603951
-0.034204766 0.15982954 0.65300006 14537881
-0.033011429 0.16007431 0.65400004 14537881
-0.031814288 0.16031905 0.65500003 14077071
-0.03066 0.16080856 0.65700001 14011278
-0.029453335 0.16105334 0.65800005 13880196
-0.02824286 0.1612981 0.65900004 13617024
-0.02711048 0.1620324 0.66200006 14274443
-0.025888573 0.16227715 0.66300005 16775605
-0.024662858 0.16252191 0.66400003 16579281
-0.10340001 0.16230668 0.65800005 15001278
-0.10199143 0.16205999 0.65700001 15523234
-0.10043333 0.16156667 0.65500003 13615237
-0.099034294 0.16132002 0.65400004 13155208
-0.097639054 0.16107334 0.65300006 13286794
-0.096247621 0.16082667 0.65200001 13352830
-0.094568573 0.16008668 0.64900005 13155451
-0.093332388 0.16008668 0.64900005 12892797
-0.091954283 0.15984 0.648 10919007
-0.090580001 0.15959333 0.64700001 10327147
-0.089209527 0.15934667 0.64600003 10392940
-0.087979056 0.15934667 0.64600003 10458467
-0.086748578 0.15934667 0.64600003 10458467
-0.085253336 0.15885335 0.64400005 10392670
-0.08389619 0.15860666 0.64300001 10326877
-0.082671426 0.15860666 0.64300001 10260829
-0.081320003 0.15836 0.64200002 10129243
-0.079972379 0.15811335 0.64100003 9998432
-0.07875143 0.15811335 0.64100003 10327397
-0.077530481 0.15811335 0.64100003 9866592
-0.076309532 0.15811335 0.64100003 9800799
-0.074971437 0.15786667 0.64000005 9734231
-0.073752381 0.15786667 0.64000005 9734231
-0.072533339 0.15786667 0.64000005 9865297
-0.07131429 0.15786667 0.64000005 9931090
-0.070095241 0.15786667 0.64000005 9931603
-0.068876199 0.15786667 0.64000005 10128982
-0.06765715 0.15786667 0.64000005 9864777
-0.066438094 0.15786667 0.64000005 9996363
-0.065219052 0.15786667 0.64000005 9799765
-0.064000003 0.15786667 0.64000005 9733972
-0.062780954 0.15786667 0.64000005 9733970
-0.061561912 0.15786667 0.64000005 9799763
-0.060342859 0.15786667 0.64000005 9800024
-0.059123814 0.15786667 0.64000005 9931610
-0.057904765 0.15786667 0.64000005 9996892
-0.056774288 0.15811335 0.64100003 10062685
-0.055553336 0.15811335 0.64100003 9997655
-0.054332383 0.15811335 0.64100003 10458206
-0.05311143 0.15811335 0.64100003 10195543
-0.051971432 0.15836 0.64200002 10392922
-0.050827619 0.15860666 0.64300001 10392672
-0.049602855 0.15860666 0.64300001 10392672
-0.048378095 0.15860666 0.64300001 10458463
-0.047226671 0.15885335 0.64400005 11840116
-0.046000004 0.15885335 0.64400005 12365690
-0.044773336 0.15885335 0.64400005 14142101
-0.043546669 0.15885335 0.64400005 14470053
-0.04245143 0.15934667 0.64600003 14996397
-0.041284762 0.15959333 0.64700001 15062181
-0.04005238 0.15959333 0.64700001 14996388
-0.038880002 0.15984 0.648 14471336
-0.037703812 0.16008668 0.64900005 14142371
-0.036467623 0.16008668 0.64900005 14142373
-0.03523143 0.16008668 0.64900005 13944994
-0.034047622 0.16033334 0.65000004 13944958
-0.032960951 0.16107334 0.65300006 13681786
-0.031765718 0.16132002 0.65400004 13681786
-0.030566668 0.16156667 0.65500003 13747579
-0.02940857 0.16205999 0.65700001 13616259
-0.028200002 0.16230668 0.65800005 13353087
-0.027069524 0.16304667 0.66100001 14208387
-0.025849525 0.16329335 0.66200006 16774828
-0.024625717 0.16354001 0.66300005 16646105
-0.10324285 0.16331144 0.65700001 14870205
-0.10168096 0.16281429 0.65500003 15194521
-0.10043333 0.16281429 0.65500003 12825973
-0.099034294 0.16256572 0.65400004 12826486
-0.097639054 0.16231716 0.65300006 13089658
-0.096247621 0.16206856 0.65200001 13549453
-0.094568573 0.16132286 0.64900005 13088902
-0.093188569 0.1610743 0.648 12102270
-0.09181238 0.16082571 0.64700001 11115375
-0.090440005 0.16057715 0.64600003 10985073
-0.089209527 0.16057715 0.64600003 10590315
-0.087706678 0.16008002 0.64400005 10260575
-0.086480007 0.16008002 0.64400005 10523747
-0.085120954 0.15983142 0.64300001 10523756
-0.083765715 0.15958287 0.64200002 10392170
-0.082542859 0.15958287 0.64200002 10326627
-0.081193335 0.15933429 0.64100003 10195041
-0.079972379 0.15933429 0.64100003 10129502
-0.07875143 0.15933429 0.64100003 10129502
-0.077409528 0.15908572 0.64000005 9340754
-0.076190479 0.15908572 0.64000005 9801305
-0.074971437 0.15908572 0.64000005 9997655
-0.073752381 0.15908572 0.64000005 9866069
-0.072533339 0.15908572 0.64000005 9996113
-0.071091428 0.15858857 0.63800001 9996113
-0.069876194 0.15858857 0.63800001 9996111
-0.068876199 0.15908572 0.64000005 10325076
-0.06765715 0.15908572 0.64000005 9668683
-0.066438094 0.15908572 0.64000005 9866062
-0.065219052 0.15908572 0.64000005 9865558
-0.0638 0.15858857 0.63800001 9865558
-0.062584765 0.15858857 0.63800001 9997135
-0.061369527 0.15858857 0.63800001 9931342
-0.060154289 0.15858857 0.63800001 9865558
-0.058939047 0.15858857 0.63800001 9997144
-0.057723809 0.15858857 0.63800001 9996892
-0.056508571 0.15858857 0.63800001 10062685
-0.055293337 0.15858857 0.63800001 9997655
-0.054247621 0.15908572 0.64000005 10195034
-0.053028576 0.15908572 0.64000005 9998166
-0.051890481 0.15933429 0.64100003 10195545
-0.050669525 0.15933429 0.64100003 10063446
-0.049448572 0.15933429 0.64100003 10458204
-0.048302859 0.15958287 0.64200002 10589792
-0.047153335 0.15983142 0.64300001 12366203
-0.045928571 0.15983142 0.64300001 13089154
-0.044773336 0.16008002 0.64400005 14273428
-0.043546669 0.16008002 0.64400005 14864284
-0.042320006 0.16008002 0.64400005 14666905
-0.041220952 0.16057715 0.64600003 14404753
-0.04005238 0.16082571 0.64700001 14273167
-0.038880002 0.1610743 0.648 14010515
-0.037645712 0.1610743 0.648 14010515
-0.036411427 0.1610743 0.648 14075547
-0.03523143 0.16132286 0.64900005 14009754
-0.034047622 0.16157143 0.65000004 14075270
-0.032910477 0.16206856 0.65200001 13680512
-0.031717144 0.16231716 0.65300006 13351799
-0.030566668 0.16281429 0.65500003 13220213
-0.02940857 0.16331144 0.65700001 12957822
-0.028200002 0.16356 0.65800005 13352580
-0.02698762 0.16380858 0.65900004 14404989
-0.025810476 0.1643057 0.66100001 16774051
-0.024588574 0.1645543 0.66200006 16646103
-0.10465334 0.16481334 0.65800005 16646099
-0.10292857 0.16406192 0.65500003 14738358
-0.10152572 0.16381145 0.65400004 14142101
-0.10028 0.16381145 0.65400004 12234104
-0.098882869 0.16356096 0.65300006 12300903
-0.097489521 0.16331047 0.65200001 12366696
-0.095952384 0.16280954 0.65000004 12496767
-0.094422854 0.16230856 0.648 12430974
-0.093044758 0.1620581 0.64700001 12233336
-0.091670483 0.16180763 0.64600003 11312234
-0.090160005 0.16130668 0.64400005 10985073
-0.088933334 0.16130668 0.64400005 10721901
-0.087706678 0.16130668 0.64400005 10523756
-0.086345717 0.16105619 0.64300001 10655342
-0.084988572 0.16080572 0.64200002 10720382
-0.083635241 0.16055524 0.64100003 10654589
-0.082414292 0.16055524 0.64100003 10392420
-0.081193335 0.16055524 0.64100003 10392420
-0.079847619 0.16030477 0.64000005 10261088
-0.078628577 0.16030477 0.64000005 10392674
-0.077409528 0.16030477 0.64000005 10064223
-0.076190479 0.16030477 0.64000005 9932637
-0.074971437 0.16030477 0.64000005 10063705
-0.073752381 0.16030477 0.64000005 10063705
-0.07230667 0.15980381 0.63800001 10128982
-0.071091428 0.15980381 0.63800001 9997396
-0.069876194 0.15980381 0.63800001 9931351
-0.068660952 0.15980381 0.63800001 10391902
-0.067445718 0.15980381 0.63800001 10261079
-0.066230476 0.15980381 0.63800001 10063700
-0.065015234 0.15980381 0.63800001 9997144
-0.0638 0.15980381 0.63800001 9931351
-0.062486667 0.15955333 0.63700002 9931846
-0.061273336 0.15955333 0.63700002 10063432
-0.060060002 0.15955333 0.63700002 10326872
-0.058846667 0.15955333 0.63700002 10458458
-0.057633337 0.15955333 0.63700002 10260586
-0.056420002 0.15955333 0.63700002 10326379
-0.055206668 0.15955333 0.63700002 10195034
-0.054078095 0.15980381 0.63800001 10195034
-0.053028576 0.16030477 0.64000005 9998430
-0.051809527 0.16030477 0.64000005 10393188
-0.050590478 0.16030477 0.64000005 10393440
-0.049448572 0.16055524 0.64100003 10327647
-0.048227623 0.16055524 0.64100003 10852192
-0.047006667 0.16055524 0.64100003 12497017
-0.045857143 0.16080572 0.64200002 13154429
-0.044634286 0.16080572 0.64200002 14272910
-0.043479048 0.16105619 0.64300001 14272131
-0.042254284 0.16105619 0.64300001 13943166
-0.041093335 0.16130668 0.64400005 13549950
-0.039990477 0.16180763 0.64600003 13549950
-0.038760003 0.16180763 0.64600003 13221251
-0.037587617 0.1620581 0.64700001 13155458
-0.036355238 0.1620581 0.64700001 13023874
-0.035177141 0.16230856 0.648 12892288
-0.033995241 0.16255906 0.64900005 13023100
-0.032809526 0.16280954 0.65000004 13154686
-0.03166857 0.16331047 0.65200001 12759937
-0.030520001 0.16381145 0.65400004 12496765
-0.02931905 0.16406192 0.65500003 12563080
-0.028200002 0.16481334 0.65800005 13286803
-0.026946669 0.16481334 0.65800005 14207862
-0.025732381 0.16506383 0.65900004 16642203
-0.024551429 0.16556476 0.66100001 16646080
-0.10465334 0.16606668 0.65800005 16646111
-0.10277143 0.16505715 0.65400004 14672321
-0.10137048 0.16480477 0.65300006 13880196
-0.10012668 0.16480477 0.65300006 11972199
-0.098731428 0.16455238 0.65200001 12366437
-0.097489521 0.16455238 0.65200001 12366437
-0.095804766 0.16379525 0.64900005 12430461
-0.094277143 0.16329047 0.64700001 12364668
-0.092900954 0.16303809 0.64600003 11839096
-0.091386676 0.16253334 0.64400005 11181166
-0.090160005 0.16253334 0.64400005 11050852
-0.088795237 0.16228096 0.64300001 10919266
-0.087570474 0.16228096 0.64300001 10655594
-0.086211428 0.16202858 0.64200002 10589801
-0.084856197 0.1617762 0.64100003 10655085
-0.083504766 0.16152382 0.64000005 10589292
-0.082285725 0.16152382 0.64000005 10457945
-0.081066668 0.16152382 0.64000005 10457945
-0.079847619 0.16152382 0.64000005 10326879
-0.078628577 0.16152382 0.64000005 10392672
-0.077167623 0.16101906 0.63800001 10196068
-0.075952381 0.16101906 0.63800001 10196068
-0.074737139 0.16101906 0.63800001 9998180
-0.073521905 0.16101906 0.63800001 9998180
-0.072193332 0.16076668 0.63700002 10589542
-0.070979998 0.16076668 0.63700002 10128991
-0.06976667 0.16076668 0.63700002 9865558
-0.068553336 0.16076668 0.63700002 10260316
-0.067340001 0.16076668 0.63700002 10129498
-0.066126674 0.16076668 0.63700002 10129498
-0.06491334 0.16076668 0.63700002 9997657
-0.063699998 0.16076668 0.63700002 9997657
-0.062486667 0.16076668 0.63700002 9997394
-0.061273336 0.16076668 0.63700002 10128980
-0.060060002 0.16076668 0.63700002 10260834
-0.058846667 0.16076668 0.63700002 10260834
-0.057633337 0.16076668 0.63700002 10194784
-0.056420002 0.16076668 0.63700002 10326370
-0.055206668 0.16076668 0.63700002 10261079
-0.053993333 0.16076668 0.63700002 10195286
-0.052862857 0.16101906 0.63800001 9802075
-0.051647618 0.16101906 0.63800001 10065247
-0.050432384 0.16101906 0.63800001 10393440
-0.049371433 0.16152382 0.64000005 10459233
-0.048152387 0.16152382 0.64000005 11115357
-0.047006667 0.1617762 0.64100003 12431217
-0.045785714 0.1617762 0.64100003 13088897
-0.044564765 0.1617762 0.64100003 13549448
-0.04341143 0.16202858 0.64200002 13417858
-0.04218857 0.16202858 0.64200002 13220479
-0.041029524 0.16228096 0.64300001 13023863
-0.039866671 0.16253334 0.64400005 13023863
-0.038760003 0.16303809 0.64600003 12892545
-0.037529524 0.16303809 0.64600003 12826752
-0.036355238 0.16329047 0.64700001 12433275
-0.035122856 0.16329047 0.64700001 12235896
-0.033942856 0.16354285 0.648 12366194
-0.032809526 0.16404763 0.65000004 12431987
-0.031571429 0.16404763 0.65000004 12366196
-0.030426666 0.16455238 0.65200001 12366196
-0.02931905 0.16530953 0.65500003 12497530
-0.028200002 0.16606668 0.65800005 13352839
-0.026946669 0.16606668 0.65800005 14141565
-0.025693335 0.16606668 0.65800005 16773542
-0.024477145 0.16631906 0.65900004 16579013
-0.10401715 0.16630286 0.65400004 16646109
-0.10245714 0.16579428 0.65200001 14804161
-0.10121524 0.16579428 0.65200001 13945744
-0.099973336 0.16579428 0.65200001 11840368
-0.098428577 0.16528572 0.65000004 11708503
-0.097190477 0.16528572 0.65000004 10984780
-0.095804766 0.16503145 0.64900005 11378286
-0.094277143 0.16452286 0.64700001 11246700
-0.092900954 0.16426858 0.64600003 11312482
-0.091386676 0.16376001 0.64400005 10917724
-0.090020001 0.16350572 0.64300001 10656850
-0.088657148 0.16325143 0.64200002 10920022
-0.087434284 0.16325143 0.64200002 10590049
-0.086077146 0.16299714 0.64100003 10590049
-0.084723815 0.16274285 0.64000005 10720356
-0.083504766 0.16274285 0.64000005 10654563
-0.082028575 0.16223429 0.63800001 10589515
-0.080813333 0.16223429 0.63800001 10589515
-0.079598099 0.16223429 0.63800001 10326877
-0.078382857 0.16223429 0.63800001 10458463
-0.07704667 0.16198 0.63700002 10261856
-0.075833336 0.16198 0.63700002 10130270
-0.074620001 0.16198 0.63700002 10129516
-0.073406667 0.16198 0.63700002 9997930
-0.072080001 0.16172573 0.63600004 10260318
-0.070868574 0.16172573 0.63600004 10326111
-0.069657147 0.16172573 0.63600004 10129248
-0.06844572 0.16172573 0.63600004 10063455
-0.067234285 0.16172573 0.63600004 10063709
-0.066022858 0.16172573 0.63600004 10129502
-0.064811431 0.16172573 0.63600004 10325859
-0.063600004 0.16172573 0.63600004 10391652
-0.062388573 0.16172573 0.63600004 10391132
-0.061177142 0.16172573 0.63600004 10259546
-0.059965719 0.16172573 0.63600004 10063709
-0.058754291 0.16172573 0.63600004 10063709
-0.057633337 0.16198 0.63700002 10063709
-0.056420002 0.16198 0.63700002 10392674
-0.055206668 0.16198 0.63700002 10195536
-0.053993333 0.16198 0.63700002 10195536
-0.052862857 0.16223429 0.63800001 9933407
-0.051647618 0.16223429 0.63800001 10262372
-0.050432384 0.16223429 0.63800001 10722655
-0.049371433 0.16274285 0.64000005 10985827
-0.048152387 0.16274285 0.64000005 11444068
-0.046933334 0.16274285 0.64000005 12430963
-0.045785714 0.16299714 0.64100003 12957309
-0.044564765 0.16299714 0.64100003 12957309
-0.043343812 0.16299714 0.64100003 12628085
-0.04212286 0.16299714 0.64100003 12430706
-0.040965714 0.16325143 0.64200002 12234349
-0.039804764 0.16350572 0.64300001 12300142
-0.038640004 0.16376001 0.64400005 12037490
-0.037529524 0.16426858 0.64600003 11905904
-0.03629905 0.16426858 0.64600003 11905893
-0.035122856 0.16452286 0.64700001 11971686
-0.033942856 0.16477714 0.648 11905893
-0.032759052 0.16503145 0.64900005 11905893
-0.031571429 0.16528572 0.65000004 11905904
-0.030333335 0.16528572 0.65000004 12432248
-0.029229525 0.16604859 0.65300006 12366453
-0.028157143 0.16706572 0.65700001 13221762
-0.026946669 0.16732001 0.65800005 14141572
-0.025693335 0.16732001 0.65800005 16773806
-0.024477145 0.16757429 0.65900004 16579024
-0.10401715 0.16754858 0.65400004 16646111
-0.10245714 0.16703619 0.65200001 15396044
-0.10090476 0.16652381 0.65000004 14275488
-0.099666677 0.16652381 0.65000004 11841147
-0.098428577 0.16652381 0.65000004 11708512
-0.097040959 0.16626762 0.64900005 11313754
-0.095657147 0.16601142 0.648 11444592
-0.094131432 0.16549905 0.64600003 11247213
-0.092613339 0.16498667 0.64400005 11312743
-0.091244757 0.16473047 0.64300001 11049571
-0.089879997 0.16447428 0.64200002 10656344
-0.088519052 0.16421811 0.64100003 10722137
-0.087298095 0.16421811 0.64100003 10458983
-0.085942864 0.16396192 0.64000005 10524776
-0.084723815 0.16396192 0.64000005 10851942
-0.08324381 0.16344953 0.63800001 10786149
-0.081900001 0.16319335 0.63700002 10786903
-0.080686666 0.16319335 0.63700002 10721110
-0.079348572 0.16293715 0.63600004 10457693
-0.078137144 0.16293715 0.63600004 10391900
-0.076925717 0.16293715 0.63600004 10326627
-0.07571429 0.16293715 0.63600004 10260834
-0.074502863 0.16293715 0.63600004 10128737
-0.073291428 0.16293715 0.63600004 10128737
-0.072080001 0.16293715 0.63600004 10325339
-0.070757151 0.16268097 0.63500005 10456925
-0.069547623 0.16268097 0.63500005 10063723
-0.06844572 0.16293715 0.63600004 9866344
-0.067234285 0.16293715 0.63600004 9735762
-0.066022858 0.16293715 0.63600004 9998934
-0.064811431 0.16293715 0.63600004 10326111
-0.063600004 0.16293715 0.63600004 10457697
-0.062388573 0.16293715 0.63600004 10326111
-0.061177142 0.16293715 0.63600004 10128732
-0.059965719 0.16293715 0.63600004 9997662
-0.058754291 0.16293715 0.63600004 9997662
-0.057542857 0.16293715 0.63600004 9997914
-0.05633143 0.16293715 0.63600004 10326879
-0.055120002 0.16293715 0.63600004 10063959
-0.053908575 0.16293715 0.63600004 10195545
-0.052780002 0.16319335 0.63700002 9999200
-0.051566668 0.16319335 0.63700002 10459751
-0.050432384 0.16344953 0.63800001 10722405
-0.049217142 0.16344953 0.63800001 10985577
-0.048152387 0.16396192 0.64000005 12035955
-0.046933334 0.16396192 0.64000005 12167541
-0.045714289 0.16396192 0.64000005 12233336
-0.044564765 0.16421811 0.64100003 11970164
-0.043343812 0.16421811 0.64100003 11641440
-0.04212286 0.16421811 0.64100003 11641440
-0.040965714 0.16447428 0.64200002 12036720
-0.039742857 0.16447428 0.64200002 11839341
-0.038579997 0.16473047 0.64300001 11642469
-0.037413336 0.16498667 0.64400005 11510883
-0.03629905 0.16549905 0.64600003 11379549
-0.035122856 0.16575524 0.64700001 11511135
-0.033942856 0.16601142 0.648 11576419
-0.032759052 0.16626762 0.64900005 11642212
-0.031571429 0.16652381 0.65000004 11642210
-0.030333335 0.16652381 0.65000004 12563312
-0.029229525 0.16729239 0.65300006 12169851
-0.028157143 0.16831714 0.65700001 13222539
-0.026946669 0.16857335 0.65800005 14076292
-0.025693335 0.16857335 0.65800005 16773805
-0.024477145 0.16882953 0.65900004 16579022
-0.10569429 0.16750382 0.64900005 16447705
-0.1044581 0.16750382 0.64900005 16777184
-0.10338096 0.16776191 0.65000004 16646104
-0.10214286 0.16776191 0.65000004 15659721
-0.10090476 0.16776191 0.65000004 14406833
-0.099666677 0.16776191 0.65000004 11972492
-0.098277152 0.16750382 0.64900005 11511928
-0.097040959 0.16750382 0.64900005 11380342
-0.095657147 0.16724572 0.648 11576944
-0.093840003 0.16621335 0.64400005 11182186
-0.092469528 0.16595525 0.64300001 11313006
-0.091102861 0.16569716 0.64200002 11049834
-0.089740001 0.16543905 0.64100003 10853223
-0.088519052 0.16543905 0.64100003 10853223
-0.087161906 0.16518097 0.64000005 10655596
-0.085942864 0.16518097 0.64000005 10655596
-0.084459044 0.16466478 0.63800001 10720874
-0.083113335 0.16440667 0.63700002 10655081
-0.081771433 0.16414857 0.63600004 10589790
-0.080560006 0.16414857 0.63600004 10458204
-0.079348572 0.16414857 0.63600004 10522975
-0.078137144 0.16414857 0.63600004 10522975
-0.076925717 0.16414857 0.63600004 10260834
-0.075595245 0.16389048 0.63500005 10129248
-0.074385718 0.16389048 0.63500005 10062946
-0.073176198 0.16389048 0.63500005 9865567
-0.07196667 0.16389048 0.63500005 10325337
-0.070757151 0.16389048 0.63500005 10456923
-0.069547623 0.16389048 0.63500005 10194806
-0.068338096 0.16389048 0.63500005 9997427
-0.067128576 0.16389048 0.63500005 9998155
-0.065919049 0.16389048 0.63500005 10195534
-0.064709529 0.16389048 0.63500005 10260575
-0.063500002 0.16389048 0.63500005 10326368
-0.062388573 0.16414857 0.63600004 10195043
-0.061080955 0.16389048 0.63500005 10129250
-0.059871431 0.16389048 0.63500005 10063455
-0.058754291 0.16414857 0.63600004 10260834
-0.057542857 0.16414857 0.63600004 10195291
-0.05633143 0.16414857 0.63600004 10458463
-0.055120002 0.16414857 0.63600004 10129498
-0.053908575 0.16414857 0.63600004 10063705
-0.052697148 0.16414857 0.63600004 9998432
-0.051566668 0.16440667 0.63700002 10656362
-0.050353333 0.16440667 0.63700002 10853727
-0.049217142 0.16466478 0.63800001 10985313
-0.048001904 0.16466478 0.63800001 11115114
-0.046786666 0.16466478 0.63800001 10983528
-0.045714289 0.16518097 0.64000005 11180405
-0.044495244 0.16518097 0.64000005 11772542
-0.043276191 0.16518097 0.64000005 11378786
-0.04212286 0.16543905 0.64100003 11378786
-0.040901907 0.16543905 0.64100003 11379047
-0.039680954 0.16543905 0.64100003 11247461
-0.038579997 0.16595525 0.64300001 11313495
-0.037355237 0.16595525 0.64300001 11642460
-0.036186669 0.16621335 0.64400005 11445094
-0.035068572 0.16672952 0.64600003 11576680
-0.033890475 0.16698763 0.64700001 11707503
-0.032759052 0.16750382 0.64900005 11839089
-0.031571429 0.16776191 0.65000004 11773303
-0.030333335 0.16776191 0.65000004 12694405
-0.029229525 0.1685362 0.65300006 12760207
-0.028157143 0.16956857 0.65700001 13747102
-0.026905714 0.16956857 0.65700001 14075772
-0.025693335 0.16982667 0.65800005 16773542
-0.024440002 0.16982667 0.65800005 16579533
-0.10569429 0.16874002 0.64900005 16579809
-0.1044581 0.16874002 0.64900005 16579809
-0.10338096 0.16900001 0.65000004 16579034
-0.10214286 0.16900001 0.65000004 15921104
-0.10090476 0.16900001 0.65000004 14604462
-0.099666677 0.16900001 0.65000004 12301707
-0.098277152 0.16874002 0.64900005 11972981
-0.097040959 0.16874002 0.64900005 11644016
-0.095509529 0.16822 0.64700001 11774589
-0.093694285 0.16718 0.64300001 11050866
-0.092325717 0.16692001 0.64200002 11312743
-0.090960957 0.16666001 0.64100003 11181157
-0.089740001 0.16666001 0.64100003 10919007
-0.088380955 0.16640002 0.64000005 10919007
-0.087161906 0.16640002 0.64000005 10655594
-0.085674286 0.16587999 0.63800001 10655594
-0.084459044 0.16587999 0.63800001 10721137
-0.082982861 0.16536 0.63600004 10655344
-0.081771433 0.16536 0.63600004 10326109
-0.080433339 0.16510001 0.63500005 10457695
-0.079223812 0.16510001 0.63500005 10588509
-0.078014292 0.16510001 0.63500005 10588509
-0.076804765 0.16510001 0.63500005 10326622
-0.075595245 0.16510001 0.63500005 10195036
-0.074385718 0.16510001 0.63500005 10194784
-0.073176198 0.16510001 0.63500005 10063198
-0.071853332 0.16484 0.634 10390878
-0.070645712 0.16484 0.634 10456671
-0.0694381 0.16484 0.634 10260332
-0.068338096 0.16510001 0.63500005 10194539
-0.067128576 0.16510001 0.63500005 10787173
-0.065919049 0.16510001 0.63500005 10260829
-0.064709529 0.16510001 0.63500005 10195295
-0.063500002 0.16510001 0.63500005 10195295
-0.062290482 0.16510001 0.63500005 10129766
-0.061080955 0.16510001 0.63500005 10063973
-0.059871431 0.16510001 0.63500005 10064223
-0.058661908 0.16510001 0.63500005 10064223
-0.057452384 0.16510001 0.63500005 9801305
-0.056242861 0.16510001 0.63500005 10064477
-0.055033337 0.16510001 0.63500005 9932889
-0.053823814 0.16510001 0.63500005 9867096
-0.052697148 0.16536 0.63600004 9603924
-0.051485714 0.16536 0.63600004 10327647
-0.050353333 0.16562 0.63700002 10458967
-0.049139999 0.16562 0.63700002 10590553
-0.048001904 0.16587999 0.63800001 10786399
-0.046786666 0.16587999 0.63800001 10720606
-0.045714289 0.16640002 0.64000005 10852696
-0.044495244 0.16640002 0.64000005 11247454
-0.043276191 0.16640002 0.64000005 10984280
-0.042057145 0.16640002 0.64000005 11115866
-0.040901907 0.16666001 0.64100003 11181150
-0.039680954 0.16666001 0.64100003 11378529
-0.038579997 0.16718 0.64300001 11312984
-0.037355237 0.16718 0.64300001 11444570
-0.036186669 0.16744001 0.64400005 11247452
-0.034960002 0.16744001 0.64400005 11642210
-0.033838097 0.16796 0.64600003 11774059
-0.032708574 0.16848001 0.648 11839852
-0.031571429 0.16900001 0.65000004 12299631
-0.030333335 0.16900001 0.65000004 13023354
-0.029229525 0.16978002 0.65300006 13352069
-0.028157143 0.17082001 0.65700001 13286276
-0.026905714 0.17082001 0.65700001 13679733
-0.025693335 0.17108001 0.65800005 16772518
-0.024440002 0.17108001 0.65800005 16579533
-0.10585715 0.17023811 0.65000004 16447203
-0.10461906 0.17023811 0.65000004 16447203
-0.10369905 0.17076191 0.65200001 16513248
-0.10214286 0.17023811 0.65000004 15789525
-0.10090476 0.17023811 0.65000004 14735785
-0.099666677 0.17023811 0.65000004 12827788
-0.098277152 0.16997619 0.64900005 12038774
-0.097040959 0.16997619 0.64900005 11644016
