# .PCD v0.7 - Point Cloud Data file format
VERSION 0.7
FIELDS x y z rgb
SIZE 4 4 4 4
TYPE F F F F
COUNT 1 1 1 1
WIDTH 1008
HEIGHT 1
VIEWPOINT 0 0 0 1 0 0 0
POINTS 1008
DATA ascii
-0.11242001 0.11242001 0.53900003 1.2729146e-38
-0.11118668 0.11221144 0.53800005 1.3097928e-38
-0.10995714 0.11200285 0.537 1.282243e-38
-0.10893428 0.11200285 0.537 1.3283408e-38
-0.10771047 0.11179429 0.53600001 1.3375241e-38
-0.10668953 0.11179429 0.53600001 1.3467437e-38
-0.10566857 0.11179429 0.53600001 1.3651475e-38
-0.10464762 0.11179429 0.53600001 1.4112453e-38
-0.10343333 0.11158572 0.53500003 1.4020613e-38
-0.10241429 0.11158572 0.53500003 1.4112809e-38
-0.10139524 0.11158572 0.53500003 1.42972e-38
-0.10056381 0.11179429 0.53600001 1.42972e-38
-0.099542864 0.11179429 0.53600001 1.4297923e-38
-0.098338097 0.11158572 0.53500003 1.4482315e-38
-0.097319052 0.11158572 0.53500003 1.4482315e-38
-0.096300006 0.11158572 0.53500003 1.4666706e-38
-0.09528096 0.11158572 0.53500003 1.4850382e-38
-0.094085723 0.11137715 0.53400004 1.4850382e-38
-0.093068577 0.11137715 0.53400004 1.4942228e-38
-0.092051432 0.11137715 0.53400004 1.5218815e-38
-0.091034293 0.11137715 0.53400004 1.5127691e-38
-0.090017147 0.11137715 0.53400004 1.5219887e-38
-0.089166671 0.11158572 0.53500003 1.5311729e-38
-0.088147625 0.11158572 0.53500003 1.5680512e-38
-0.086965717 0.11137715 0.53400004 1.5863115e-38
-0.085948579 0.11137715 0.53400004 1.5586528e-38
-0.084931433 0.11137715 0.53400004 1.5495764e-38
-0.083914295 0.11137715 0.53400004 1.558796e-38
-0.082897149 0.11137715 0.53400004 1.5496133e-38
-0.081880003 0.11137715 0.53400004 1.5219546e-38
-0.080862865 0.11137715 0.53400004 1.5036231e-38
-0.079845719 0.11137715 0.53400004 1.4944035e-38
-0.078828573 0.11137715 0.53400004 1.5036228e-38
-0.077811427 0.11137715 0.53400004 1.4759641e-38
-0.077081911 0.11179429 0.53600001 1.4851114e-38
-0.076060951 0.11179429 0.53600001 1.4758918e-38
-0.075039998 0.11179429 0.53600001 1.4850395e-38
-0.074019045 0.11179429 0.53600001 1.4666004e-38
-0.072998099 0.11179429 0.53600001 1.4481612e-38
-0.071977146 0.11179429 0.53600001 1.4389417e-38
-0.071088567 0.11200285 0.537 1.4113552e-38
-0.070065714 0.11200285 0.537 1.4021356e-38
-0.069300003 0.11242001 0.53900003 1.4021343e-38
-0.068399996 0.11262857 0.54000002 1.3744756e-38
-0.067371435 0.11262857 0.54000002 1.3652921e-38
-0.06634286 0.11262857 0.54000002 1.3284138e-38
-0.065435238 0.11283714 0.54100001 1.3283422e-38
-0.064523816 0.11304572 0.54200006 1.3099031e-38
-0.063491434 0.11304572 0.54200006 1.3099384e-38
-0.06257429 0.11325429 0.54300004 1.2546211e-38
-0.061653331 0.11346287 0.54400003 1.2545494e-38
-0.060728572 0.11367143 0.54500002 1.2453299e-38
-0.059799999 0.11387999 0.546 1.2544767e-38
-0.058760002 0.11387999 0.546 1.1991593e-38
-0.057931431 0.11429715 0.54800004 1.1807566e-38
-0.056991432 0.11450572 0.54900002 1.1438784e-38
-0.056047622 0.11471429 0.55000001 1.1345502e-38
-0.055400003 0.11554857 0.55400002 1.0792329e-38
-0.054639053 0.1161743 0.55700004 1.0792319e-38
-0.053578097 0.1161743 0.55700004 1.0423536e-38
-0.052705716 0.11659143 0.55900002 1.0331694e-38
-0.05164095 0.11659143 0.55900002 8.9487593e-39
-0.050576191 0.11659143 0.55900002 8.8558097e-39
-0.12646762 0.11597238 0.551 1.0051854e-38
-0.12519047 0.11576191 0.55000001 9.6845166e-39
-0.12391715 0.11555143 0.54900002 9.2235385e-39
-0.12264763 0.11534096 0.54800004 9.040229e-39
-0.12138192 0.11513048 0.54700005 1.0330968e-38
-0.12012 0.11492 0.546 1.0332047e-38
-0.11886191 0.11470953 0.54500002 1.1346199e-38
-0.11760762 0.11449905 0.54400003 1.1529881e-38
-0.11635716 0.11428858 0.54300004 1.1898663e-38
-0.1148981 0.11386763 0.54100001 1.2267802e-38
-0.11365715 0.11365715 0.54000002 1.2636584e-38
-0.11242001 0.11344668 0.53900003 1.2729143e-38
-0.11118668 0.1132362 0.53800005 1.300573e-38
-0.10995714 0.11302572 0.537 1.2730235e-38
-0.10893428 0.11302572 0.537 1.3191213e-38
-0.10771047 0.11281524 0.53600001 1.3283048e-38
-0.10668953 0.11281524 0.53600001 1.3283048e-38
-0.10566857 0.11281524 0.53600001 1.3467084e-38
-0.10464762 0.11281524 0.53600001 1.3835866e-38
-0.10343333 0.11260477 0.53500003 1.4020613e-38
-0.10241429 0.11260477 0.53500003 1.4112809e-38
-0.10139524 0.11260477 0.53500003 1.42972e-38
-0.1003762 0.11260477 0.53500003 1.4389396e-38
-0.099357143 0.11260477 0.53500003 1.4297923e-38
-0.098338097 0.11260477 0.53500003 1.4482315e-38
-0.097319052 0.11260477 0.53500003 1.4483033e-38
-0.096300006 0.11260477 0.53500003 1.4667425e-38
-0.095102862 0.11239429 0.53400004 1.4942578e-38
-0.094085723 0.11239429 0.53400004 1.4942578e-38
-0.093068577 0.11239429 0.53400004 1.5126972e-38
-0.092051432 0.11239429 0.53400004 1.5403559e-38
-0.091034293 0.11239429 0.53400004 1.5219887e-38
-0.090017147 0.11239429 0.53400004 1.5312082e-38
-0.089000002 0.11239429 0.53400004 1.5311726e-38
-0.087982863 0.11239429 0.53400004 1.5403922e-38
-0.086965717 0.11239429 0.53400004 1.5495767e-38
-0.085948579 0.11239429 0.53400004 1.5403572e-38
-0.084931433 0.11239429 0.53400004 1.5312089e-38
-0.083914295 0.11239429 0.53400004 1.5312089e-38
-0.082897149 0.11239429 0.53400004 1.5311739e-38
-0.081880003 0.11239429 0.53400004 1.5127348e-38
-0.080862865 0.11239429 0.53400004 1.4944033e-38
-0.079845719 0.11239429 0.53400004 1.4851837e-38
-0.078828573 0.11239429 0.53400004 1.4667446e-38
-0.077811427 0.11239429 0.53400004 1.4759641e-38
-0.077081911 0.11281524 0.53600001 1.4758918e-38
-0.076060951 0.11281524 0.53600001 1.4758918e-38
-0.075039998 0.11281524 0.53600001 1.4574527e-38
-0.074019045 0.11281524 0.53600001 1.4482331e-38
-0.072998099 0.11281524 0.53600001 1.4481968e-38
-0.071977146 0.11281524 0.53600001 1.4297577e-38
-0.071088567 0.11302572 0.537 1.4113549e-38
-0.070065714 0.11302572 0.537 1.3836962e-38
-0.069300003 0.11344668 0.53900003 1.3836599e-38
-0.068399996 0.11365715 0.54000002 1.3560012e-38
-0.067371435 0.11365715 0.54000002 1.3560365e-38
-0.066465713 0.11386763 0.54100001 1.3375974e-38
-0.065435238 0.11386763 0.54100001 1.3099031e-38
-0.064523816 0.1140781 0.54200006 1.2822444e-38
-0.063491434 0.1140781 0.54200006 1.2914277e-38
-0.06257429 0.11428858 0.54300004 1.2453299e-38
-0.061540004 0.11428858 0.54300004 1.2636611e-38
-0.060728572 0.11470953 0.54500002 1.2544415e-38
-0.059799999 0.11492 0.546 1.2177428e-38
-0.058760002 0.11492 0.546 1.171645e-38
-0.057931431 0.11534096 0.54800004 1.1715371e-38
-0.056991432 0.11555143 0.54900002 1.1254393e-38
-0.056047622 0.11576191 0.55000001 1.0976727e-38
-0.055400003 0.11660381 0.55400002 1.0884531e-38
-0.054540958 0.11702477 0.55600005 1.0792682e-38
-0.053578097 0.11723524 0.55700004 1.0239508e-38
-0.052705716 0.11765619 0.55900002 1.0698318e-38
-0.05164095 0.11765619 0.55900002 7.8402537e-39
-0.050576191 0.11765619 0.55900002 7.9306066e-39
-0.1254181 0.1170219 0.551 9.6845194e-39
-0.12414286 0.11680952 0.55000001 9.4079325e-39
-0.12264763 0.11638477 0.54800004 9.2246231e-39
-0.12138192 0.11617239 0.54700005 9.8699925e-39
-0.12012 0.11596 0.546 1.023876e-38
-0.11908 0.11596 0.546 1.1252912e-38
-0.11782381 0.11574762 0.54500002 1.1621356e-38
-0.11635716 0.11532287 0.54300004 1.1897943e-38
-0.1148981 0.1148981 0.54100001 1.2175603e-38
-0.11365715 0.11468572 0.54000002 1.2544386e-38
-0.11242001 0.11447334 0.53900003 1.2636945e-38
-0.11118668 0.11426096 0.53800005 1.2913531e-38
-0.10995714 0.11404857 0.537 1.3006093e-38
-0.10893428 0.11404857 0.537 1.3098288e-38
-0.10771047 0.11383619 0.53600001 1.3373806e-38
-0.10668953 0.11383619 0.53600001 1.3558197e-38
-0.10566857 0.11383619 0.53600001 1.3467084e-38
-0.10464762 0.11383619 0.53600001 1.3467084e-38
-0.10343333 0.11362381 0.53500003 1.3836582e-38
-0.10241429 0.11362381 0.53500003 1.4113169e-38
-0.10139524 0.11362381 0.53500003 1.4297197e-38
-0.1003762 0.11362381 0.53500003 1.4389393e-38
-0.099357143 0.11362381 0.53500003 1.4390475e-38
-0.098338097 0.11362381 0.53500003 1.448267e-38
-0.097319052 0.11362381 0.53500003 1.485109e-38
-0.096120007 0.11341143 0.53400004 1.4758894e-38
-0.095102862 0.11341143 0.53400004 1.4850737e-38
-0.094085723 0.11341143 0.53400004 1.4942933e-38
-0.093068577 0.11341143 0.53400004 1.5034776e-38
-0.092051432 0.11341143 0.53400004 1.5219168e-38
-0.091034293 0.11341143 0.53400004 1.5219887e-38
-0.090017147 0.11341143 0.53400004 1.5312082e-38
-0.089000002 0.11341143 0.53400004 1.5404278e-38
-0.087982863 0.11341143 0.53400004 1.5219887e-38
-0.086965717 0.11341143 0.53400004 1.5127698e-38
-0.085948579 0.11341143 0.53400004 1.5127698e-38
-0.084931433 0.11341143 0.53400004 1.5128054e-38
-0.083914295 0.11341143 0.53400004 1.5128054e-38
-0.082897149 0.11341143 0.53400004 1.4852193e-38
-0.081880003 0.11341143 0.53400004 1.4759997e-38
-0.080862865 0.11341143 0.53400004 1.4759994e-38
-0.079845719 0.11341143 0.53400004 1.4575603e-38
-0.078828573 0.11341143 0.53400004 1.4851114e-38
-0.077957146 0.11362381 0.53500003 1.4851114e-38
-0.0769381 0.11362381 0.53500003 1.4758915e-38
-0.075919047 0.11362381 0.53500003 1.4574524e-38
-0.075039998 0.11383619 0.53600001 1.4666357e-38
-0.074019045 0.11383619 0.53600001 1.4574161e-38
-0.072998099 0.11383619 0.53600001 1.4481968e-38
-0.071977146 0.11383619 0.53600001 1.402099e-38
-0.071088567 0.11404857 0.537 1.4020634e-38
-0.070065714 0.11404857 0.537 1.3928439e-38
-0.069300003 0.11447334 0.53900003 1.3836952e-38
-0.068399996 0.11468572 0.54000002 1.3560365e-38
-0.067371435 0.11468572 0.54000002 1.3376337e-38
-0.06634286 0.11468572 0.54000002 1.3284141e-38
-0.065435238 0.1148981 0.54100001 1.3191227e-38
-0.064404763 0.1148981 0.54100001 1.2822444e-38
-0.063491434 0.11511049 0.54200006 1.2914277e-38
-0.06257429 0.11532287 0.54300004 1.2453299e-38
-0.061540004 0.11532287 0.54300004 1.2544415e-38
-0.060728572 0.11574762 0.54500002 1.2267829e-38
-0.059799999 0.11596 0.546 1.2084153e-38
-0.058867622 0.11617239 0.54700005 1.1715371e-38
-0.057825722 0.11617239 0.54700005 1.1714652e-38
-0.056887619 0.11638477 0.54800004 1.1069283e-38
-0.055945717 0.11659715 0.54900002 1.0977441e-38
-0.055400003 0.11765905 0.55400002 1.1069637e-38
-0.054540958 0.11808382 0.55600005 1.1161101e-38
-0.053578097 0.1182962 0.55700004 9.8703624e-39
-0.052705716 0.11872096 0.55900002 9.4100905e-39
-0.05164095 0.11872096 0.55900002 5.5378741e-39
-0.1254181 0.11807143 0.551 9.6845166e-39
-0.12414286 0.11785714 0.55000001 9.5001254e-39
-0.12264763 0.11742858 0.54800004 9.4997722e-39
-0.12116 0.117 0.546 1.0052946e-38
-0.12012 0.117 0.546 1.0054018e-38
-0.11886191 0.11678571 0.54500002 1.1160366e-38
-0.11760762 0.11657143 0.54400003 1.1344767e-38
-0.11635716 0.11635716 0.54300004 1.1805745e-38
-0.1148981 0.11592857 0.54100001 1.1991215e-38
-0.11365715 0.11571429 0.54000002 1.2452193e-38
-0.11242001 0.11550001 0.53900003 1.2544749e-38
-0.11118668 0.11528572 0.53800005 1.2821336e-38
-0.11016192 0.11528572 0.53800005 1.3006093e-38
-0.10893428 0.11507142 0.537 1.3098288e-38
-0.10771047 0.11485714 0.53600001 1.3190131e-38
-0.10668953 0.11485714 0.53600001 1.3282327e-38
-0.10566857 0.11485714 0.53600001 1.3742589e-38
-0.10464762 0.11485714 0.53600001 1.3834784e-38
-0.10343333 0.11464287 0.53500003 1.3559995e-38
-0.10241429 0.11464287 0.53500003 1.3836582e-38
-0.10139524 0.11464287 0.53500003 1.4205005e-38
-0.1003762 0.11464287 0.53500003 1.4389396e-38
-0.099357143 0.11464287 0.53500003 1.4206084e-38
-0.098338097 0.11464287 0.53500003 1.4298279e-38
-0.096120007 0.11442858 0.53400004 1.4666346e-38
-0.095102862 0.11442858 0.53400004 1.466671e-38
-0.094085723 0.11442858 0.53400004 1.466671e-38
-0.093068577 0.11442858 0.53400004 1.4942578e-38
-0.092051432 0.11442858 0.53400004 1.5034774e-38
-0.091034293 0.11442858 0.53400004 1.4942944e-38
-0.089848578 0.11421429 0.53300005 1.5219531e-38
-0.08883334 0.11421429 0.53300005 1.5403922e-38
-0.087818101 0.11421429 0.53300005 1.5311726e-38
-0.086965717 0.11442858 0.53400004 1.5035502e-38
-0.085948579 0.11442858 0.53400004 1.5035502e-38
-0.084931433 0.11442858 0.53400004 1.5127335e-38
-0.083914295 0.11442858 0.53400004 1.5127335e-38
-0.082897149 0.11442858 0.53400004 1.4943309e-38
-0.081880003 0.11442858 0.53400004 1.4943309e-38
-0.080862865 0.11442858 0.53400004 1.4943309e-38
-0.079845719 0.11442858 0.53400004 1.4758918e-38
-0.078828573 0.11442858 0.53400004 1.4851114e-38
-0.077957146 0.11464287 0.53500003 1.4666723e-38
-0.0769381 0.11464287 0.53500003 1.4206821e-38
-0.075919047 0.11464287 0.53500003 1.4206821e-38
-0.074900001 0.11464287 0.53500003 1.4574164e-38
-0.074019045 0.11485714 0.53600001 1.4574164e-38
-0.072998099 0.11485714 0.53600001 1.4297937e-38
-0.072111428 0.11507142 0.537 1.3929155e-38
-0.071088567 0.11507142 0.537 1.3928795e-38
-0.070196196 0.11528572 0.53800005 1.3928795e-38
-0.069300003 0.11550001 0.53900003 1.4021343e-38
-0.068399996 0.11571429 0.54000002 1.3560365e-38
-0.067371435 0.11571429 0.54000002 1.346817e-38
-0.06634286 0.11571429 0.54000002 1.3283778e-38
-0.065435238 0.11592857 0.54100001 1.3283059e-38
-0.064404763 0.11592857 0.54100001 1.2822081e-38
-0.063491434 0.11614287 0.54200006 1.2914277e-38
-0.06257429 0.11635716 0.54300004 1.2361103e-38
-0.061653331 0.11657143 0.54400003 1.245222e-38
-0.060728572 0.11678571 0.54500002 1.2175633e-38
-0.059799999 0.117 0.546 1.2083434e-38
-0.058867622 0.1172143 0.54700005 1.1806848e-38
-0.057825722 0.1172143 0.54700005 1.1715004e-38
-0.056887619 0.11742858 0.54800004 1.1254026e-38
-0.055945717 0.11764286 0.54900002 1.1161481e-38
-0.055500001 0.11892857 0.55500001 1.0516112e-38
-0.054540958 0.11914287 0.55600005 1.0239495e-38
-0.053578097 0.11935715 0.55700004 9.7785171e-39
-0.052611433 0.11957143 0.55800003 8.5810529e-39
-0.05164095 0.11978571 0.55900002 5.6307928e-39
-0.12414286 0.11890477 0.55000001 9.6830775e-39
-0.12264763 0.11847239 0.54800004 9.7752731e-39
-0.12116 0.11804 0.546 1.0420643e-38
-0.12012 0.11804 0.546 1.0053662e-38
-0.11886191 0.11782381 0.54500002 1.0791227e-38
-0.11760762 0.11760762 0.54400003 1.1344401e-38
-0.11635716 0.11739144 0.54300004 1.1620988e-38
-0.1148981 0.11695904 0.54100001 1.1990492e-38
-0.11365715 0.11674286 0.54000002 1.2267079e-38
-0.11242001 0.11652667 0.53900003 1.2176688e-38
-0.11118668 0.11631048 0.53800005 1.2545471e-38
-0.11016192 0.11631048 0.53800005 1.3005727e-38
-0.10893428 0.11609428 0.537 1.3190118e-38
-0.10771047 0.1158781 0.53600001 1.3281966e-38
-0.10668953 0.1158781 0.53600001 1.3281966e-38
-0.10566857 0.1158781 0.53600001 1.346744e-38
-0.10464762 0.1158781 0.53600001 1.3928418e-38
-0.10343333 0.11566191 0.53500003 1.3744024e-38
-0.10241429 0.11566191 0.53500003 1.3651828e-38
-0.10139524 0.11566191 0.53500003 1.4204283e-38
-0.1003762 0.11566191 0.53500003 1.4296479e-38
-0.099357143 0.11566191 0.53500003 1.4389396e-38
-0.097970486 0.11522953 0.53300005 1.4389396e-38
-0.096773334 0.11501333 0.53200001 1.4666343e-38
-0.096120007 0.11544573 0.53400004 1.4574147e-38
-0.095102862 0.11544573 0.53400004 1.457451e-38
-0.094085723 0.11544573 0.53400004 1.4666706e-38
-0.093068577 0.11544573 0.53400004 1.4942933e-38
-0.091879055 0.11522953 0.53300005 1.5035128e-38
-0.090863824 0.11522953 0.53300005 1.49433e-38
-0.089848578 0.11522953 0.53300005 1.4851104e-38
-0.08883334 0.11522953 0.53300005 1.5127335e-38
-0.087818101 0.11522953 0.53300005 1.4942944e-38
-0.086802863 0.11522953 0.53300005 1.4942947e-38
-0.085787632 0.11522953 0.53300005 1.4942947e-38
-0.084772386 0.11522953 0.53300005 1.4942944e-38
-0.083914295 0.11544573 0.53400004 1.4942944e-38
-0.082897149 0.11544573 0.53400004 1.4851467e-38
-0.081880003 0.11544573 0.53400004 1.457488e-38
-0.080862865 0.11544573 0.53400004 1.4574524e-38
-0.079845719 0.11544573 0.53400004 1.4482329e-38
-0.078828573 0.11544573 0.53400004 1.4481968e-38
-0.077957146 0.11566191 0.53500003 1.4389773e-38
-0.0769381 0.11566191 0.53500003 1.4389773e-38
-0.075919047 0.11566191 0.53500003 1.4481968e-38
-0.074900001 0.11566191 0.53500003 1.4297937e-38
-0.074019045 0.1158781 0.53600001 1.4113546e-38
-0.072998099 0.1158781 0.53600001 1.4206095e-38
-0.072111428 0.11609428 0.537 1.3837312e-38
-0.071088567 0.11609428 0.537 1.4021343e-38
-0.070065714 0.11609428 0.537 1.3929148e-38
-0.069300003 0.11652667 0.53900003 1.3744754e-38
-0.068273336 0.11652667 0.53900003 1.3468167e-38
-0.067371435 0.11674286 0.54000002 1.3375971e-38
-0.06634286 0.11674286 0.54000002 1.3007189e-38
-0.065435238 0.11695904 0.54100001 1.3190501e-38
-0.064404763 0.11695904 0.54100001 1.2821718e-38
-0.063491434 0.11717525 0.54200006 1.263769e-38
-0.06257429 0.11739144 0.54300004 1.2268908e-38
-0.061653331 0.11760762 0.54400003 1.245222e-38
-0.060728572 0.11782381 0.54500002 1.2175633e-38
-0.059799999 0.11804 0.546 1.2083789e-38
-0.058867622 0.1182562 0.54700005 1.1622811e-38
-0.057931431 0.11847239 0.54800004 1.1714638e-38
-0.056991432 0.11868858 0.54900002 1.1622442e-38
-0.056149524 0.11912096 0.551 1.1437705e-38
-0.055500001 0.11998571 0.55500001 9.2250098e-39
-0.054540958 0.12020192 0.55600005 7.9363898e-39
-0.05348191 0.12020192 0.55600005 8.7661504e-39
-0.052611433 0.1206343 0.55800003 9.3168131e-39
-0.051548574 0.1206343 0.55800003 7.3807049e-39
-0.12287143 0.11973429 0.54900002 9.7752675e-39
-0.12116 0.11908 0.546 1.0236246e-38
-0.12012 0.11908 0.546 9.9611035e-39
-0.11886191 0.11886191 0.54500002 1.088306e-38
-0.11760762 0.11864381 0.54400003 1.1067817e-38
-0.11635716 0.11842572 0.54300004 1.1528795e-38
-0.1148981 0.11798953 0.54100001 1.1713905e-38
-0.11365715 0.11777143 0.54000002 1.2174883e-38
-0.11242001 0.11755334 0.53900003 1.2083774e-38
-0.11139334 0.11755334 0.53900003 1.2544752e-38
-0.11016192 0.11733525 0.53800005 1.2637666e-38
-0.10893428 0.11711714 0.537 1.2914253e-38
-0.10771047 0.11689905 0.53600001 1.3190484e-38
-0.10668953 0.11689905 0.53600001 1.3098288e-38
-0.10566857 0.11689905 0.53600001 1.3190853e-38
-0.10464762 0.11689905 0.53600001 1.3651831e-38
-0.10343333 0.11668096 0.53500003 1.3651828e-38
-0.10241429 0.11668096 0.53500003 1.3651828e-38
-0.10139524 0.11668096 0.53500003 1.3744026e-38
-0.10000096 0.11624478 0.53300005 1.4205005e-38
-0.098985724 0.11624478 0.53300005 1.4113172e-38
-0.097970486 0.11624478 0.53300005 1.4205368e-38
-0.096773334 0.11602667 0.53200001 1.4389759e-38
-0.095760003 0.11602667 0.53200001 1.4666346e-38
-0.09492477 0.11624478 0.53300005 1.457451e-38
-0.093909532 0.11624478 0.53300005 1.4666706e-38
-0.092894293 0.11624478 0.53300005 1.4851097e-38
-0.091879055 0.11624478 0.53300005 1.4851097e-38
-0.090863824 0.11624478 0.53300005 1.4759271e-38
-0.089848578 0.11624478 0.53300005 1.4851467e-38
-0.08883334 0.11624478 0.53300005 1.5035139e-38
-0.087818101 0.11624478 0.53300005 1.4942944e-38
-0.086802863 0.11624478 0.53300005 1.4758552e-38
-0.085787632 0.11624478 0.53300005 1.4758552e-38
-0.084772386 0.11624478 0.53300005 1.4851104e-38
-0.083757147 0.11624478 0.53300005 1.4758908e-38
-0.082741909 0.11624478 0.53300005 1.4850751e-38
-0.081880003 0.11646286 0.53400004 1.466636e-38
-0.080862865 0.11646286 0.53400004 1.4574164e-38
-0.079845719 0.11646286 0.53400004 1.4481968e-38
-0.078828573 0.11646286 0.53400004 1.4389773e-38
-0.077811427 0.11646286 0.53400004 1.4389773e-38
-0.0769381 0.11668096 0.53500003 1.4297577e-38
-0.075919047 0.11668096 0.53500003 1.4205382e-38
-0.074900001 0.11668096 0.53500003 1.4113183e-38
-0.074157141 0.11711714 0.537 1.4113183e-38
-0.073134288 0.11711714 0.537 1.4113183e-38
-0.072111428 0.11711714 0.537 1.3928792e-38
-0.071088567 0.11711714 0.537 1.4021343e-38
-0.070065714 0.11711714 0.537 1.3652561e-38
-0.069300003 0.11755334 0.53900003 1.3283778e-38
-0.068273336 0.11755334 0.53900003 1.3375974e-38
-0.067371435 0.11777143 0.54000002 1.3283059e-38
-0.06634286 0.11777143 0.54000002 1.3006473e-38
-0.065435238 0.11798953 0.54100001 1.3006473e-38
-0.064404763 0.11798953 0.54100001 1.2545494e-38
-0.063491434 0.11820763 0.54200006 1.2453299e-38
-0.06257429 0.11842572 0.54300004 1.2268908e-38
-0.061653331 0.11864381 0.54400003 1.2269626e-38
-0.060839999 0.11908 0.546 1.1900844e-38
-0.059799999 0.11908 0.546 1.2083797e-38
-0.058867622 0.1192981 0.54700005 1.1530624e-38
-0.057931431 0.1195162 0.54800004 1.1899029e-38
-0.057095237 0.11995238 0.55000001 1.125366e-38
-0.056251429 0.12038858 0.55200005 1.0791596e-38
-0.055400003 0.12082476 0.55400002 8.7632918e-39
-0.054344762 0.12082476 0.55400002 8.3955603e-39
-0.053385712 0.12104286 0.55500001 9.1331253e-39
-0.052517146 0.12147906 0.55700004 9.5923336e-39
-0.051548574 0.12169715 0.55800003 7.9328123e-39
-0.12287143 0.12078001 0.54900002 9.1291975e-39
-0.12116 0.12012 0.546 1.0235545e-38
-0.12012 0.12012 0.546 1.0145129e-38
-0.11908 0.12012 0.546 1.0790498e-38
-0.11782381 0.1199 0.54500002 1.0975618e-38
-0.11635716 0.11946 0.54300004 1.1252205e-38
-0.1148981 0.11902 0.54100001 1.1713905e-38
-0.11365715 0.11880001 0.54000002 1.1898296e-38
-0.11242001 0.11858001 0.53900003 1.2083411e-38
-0.11139334 0.11858001 0.53900003 1.2452193e-38
-0.11016192 0.11836001 0.53800005 1.2729496e-38
-0.10893428 0.11814 0.537 1.2821692e-38
-0.10771047 0.11792 0.53600001 1.3282314e-38
-0.10668953 0.11792 0.53600001 1.3190118e-38
-0.10566857 0.11792 0.53600001 1.3374162e-38
-0.10464762 0.11792 0.53600001 1.3650749e-38
-0.10343333 0.1177 0.53500003 1.3651825e-38
-0.10241429 0.1177 0.53500003 1.3651825e-38
-0.10139524 0.1177 0.53500003 1.3744024e-38
-0.10000096 0.11726001 0.53300005 1.3836219e-38
-0.098985724 0.11726001 0.53300005 1.4019543e-38
-0.098338097 0.1177 0.53500003 1.4019543e-38
-0.096773334 0.11703999 0.53200001 1.4204649e-38
-0.095760003 0.11703999 0.53200001 1.438904e-38
-0.09492477 0.11726001 0.53300005 1.4297563e-38
-0.093909532 0.11726001 0.53300005 1.4297563e-38
-0.092894293 0.11726001 0.53300005 1.4390123e-38
-0.091879055 0.11726001 0.53300005 1.4297927e-38
-0.090863824 0.11726001 0.53300005 1.4298293e-38
-0.089848578 0.11726001 0.53300005 1.457488e-38
-0.08883334 0.11726001 0.53300005 1.4666357e-38
-0.087818101 0.11726001 0.53300005 1.4574161e-38
-0.086802863 0.11726001 0.53300005 1.4574161e-38
-0.085787632 0.11726001 0.53300005 1.4574161e-38
-0.084772386 0.11726001 0.53300005 1.4481966e-38
-0.083757147 0.11726001 0.53300005 1.438977e-38
-0.082741909 0.11726001 0.53300005 1.4297937e-38
-0.081880003 0.11748001 0.53400004 1.4297937e-38
-0.080862865 0.11748001 0.53400004 1.438977e-38
-0.079845719 0.11748001 0.53400004 1.4297574e-38
-0.078828573 0.11748001 0.53400004 1.429793e-38
-0.077811427 0.11748001 0.53400004 1.4205735e-38
-0.0769381 0.1177 0.53500003 1.4113183e-38
-0.075919047 0.1177 0.53500003 1.4020987e-38
-0.074900001 0.1177 0.53500003 1.411282e-38
-0.074295245 0.11836001 0.53800005 1.3928429e-38
-0.073270477 0.11836001 0.53800005 1.3468179e-38
-0.072111428 0.11814 0.537 1.3375984e-38
-0.071088567 0.11814 0.537 1.3467814e-38
-0.070196196 0.11836001 0.53800005 1.3283422e-38
-0.069300003 0.11858001 0.53900003 1.3283778e-38
-0.068273336 0.11858001 0.53900003 1.3283778e-38
-0.067246668 0.11858001 0.53900003 1.3190861e-38
-0.06634286 0.11880001 0.54000002 1.300647e-38
-0.065314285 0.11880001 0.54000002 1.2822081e-38
-0.064404763 0.11902 0.54100001 1.2453299e-38
-0.063491434 0.11924001 0.54200006 1.2453299e-38
-0.06257429 0.11946 0.54300004 1.2453299e-38
-0.061766669 0.1199 0.54500002 1.2177428e-38
-0.060839999 0.12012 0.546 1.1993037e-38
-0.059799999 0.12012 0.546 1.2636248e-38
-0.058867622 0.12034 0.54700005 1.1806487e-38
-0.057931431 0.12056001 0.54800004 1.1345493e-38
-0.057095237 0.121 0.55000001 9.4093843e-39
-0.056251429 0.12144001 0.55200005 8.3062415e-39
-0.055300001 0.12166 0.55300003 7.7530677e-39
-0.054344762 0.12188 0.55400002 8.1207965e-39
-0.053289525 0.12188 0.55400002 8.9505571e-39
-0.052422862 0.12232002 0.55600005 9.4093815e-39
-0.12309524 0.12204763 0.55000001 9.2202945e-39
-0.12138192 0.12138192 0.54700005 9.7734682e-39
-0.12012 0.12116 0.546 1.042099e-38
-0.11908 0.12116 0.546 1.0881968e-38
-0.11782381 0.12093809 0.54500002 1.0516082e-38
-0.11635716 0.1204943 0.54300004 1.1069256e-38
-0.11511049 0.12027239 0.54200006 1.1344767e-38
-0.11386763 0.12005048 0.54100001 1.1713549e-38
-0.11262857 0.11982857 0.54000002 1.1899017e-38
-0.11139334 0.11960667 0.53900003 1.2359995e-38
-0.11036667 0.11960667 0.53900003 1.2268884e-38
-0.10913715 0.11938477 0.53800005 1.2545471e-38
-0.10791143 0.11916286 0.537 1.2913537e-38
-0.10668953 0.11894095 0.53600001 1.3097928e-38
-0.10566857 0.11894095 0.53600001 1.3190131e-38
-0.10464762 0.11894095 0.53600001 1.3466718e-38
-0.10343333 0.11871905 0.53500003 1.3467437e-38
-0.10241429 0.11871905 0.53500003 1.3467437e-38
-0.10120572 0.11849716 0.53400004 1.3467084e-38
-0.10018858 0.11849716 0.53400004 1.3651475e-38
-0.09917143 0.11849716 0.53400004 1.3743675e-38
-0.098154292 0.11849716 0.53400004 1.383587e-38
-0.096773334 0.11805333 0.53200001 1.4020262e-38
-0.095760003 0.11805333 0.53200001 1.4296848e-38
-0.09492477 0.11827525 0.53300005 1.4297563e-38
-0.093909532 0.11827525 0.53300005 1.4297563e-38
-0.092894293 0.11827525 0.53300005 1.44816e-38
-0.091879055 0.11827525 0.53300005 1.4389404e-38
-0.090863824 0.11827525 0.53300005 1.4205735e-38
-0.089680001 0.11805333 0.53200001 1.4574517e-38
-0.088666663 0.11805333 0.53200001 1.4758552e-38
-0.087653339 0.11805333 0.53200001 1.4574161e-38
-0.08664 0.11805333 0.53200001 1.4574161e-38
-0.085787632 0.11827525 0.53300005 1.4481966e-38
-0.084772386 0.11827525 0.53300005 1.4390489e-38
-0.083757147 0.11827525 0.53300005 1.4298293e-38
-0.082897149 0.11849716 0.53400004 1.4297577e-38
-0.081880003 0.11849716 0.53400004 1.4297577e-38
-0.080862865 0.11849716 0.53400004 1.4297577e-38
-0.079845719 0.11849716 0.53400004 1.4297577e-38
-0.078828573 0.11849716 0.53400004 1.4205379e-38
-0.077957146 0.11871905 0.53500003 1.4020987e-38
-0.0769381 0.11871905 0.53500003 1.4020627e-38
-0.075919047 0.11871905 0.53500003 1.4020627e-38
-0.074900001 0.11871905 0.53500003 1.4020625e-38
-0.074433342 0.11960667 0.53900003 1.3836233e-38
-0.073406667 0.11960667 0.53900003 1.3651842e-38
-0.072245724 0.11938477 0.53800005 1.3559646e-38
-0.071220957 0.11938477 0.53800005 1.3467451e-38
-0.070326671 0.11960667 0.53900003 1.3283059e-38
-0.069300003 0.11960667 0.53900003 1.3190864e-38
-0.068273336 0.11960667 0.53900003 1.3006473e-38
-0.067246668 0.11960667 0.53900003 1.28228e-38
-0.06634286 0.11982857 0.54000002 1.28228e-38
-0.065314285 0.11982857 0.54000002 1.2453299e-38
-0.064404763 0.12005048 0.54100001 1.2453299e-38
-0.063491434 0.12027239 0.54200006 1.2453299e-38
-0.06257429 0.1204943 0.54300004 1.2268908e-38
-0.061766669 0.12093809 0.54500002 1.1992684e-38
-0.060839999 0.12116 0.546 1.1808292e-38
-0.059799999 0.12116 0.546 1.2267815e-38
-0.058867622 0.12138192 0.54700005 1.153025e-38
-0.058037147 0.12182572 0.54900002 9.9654251e-39
-0.057095237 0.12204763 0.55000001 8.5824907e-39
-0.056251429 0.12249144 0.55200005 8.3073177e-39
-0.055300001 0.12271334 0.55300003 7.9385352e-39
-0.054344762 0.12293524 0.55400002 8.1207908e-39
-0.053289525 0.12293524 0.55400002 8.8583559e-39
-0.052328572 0.12315714 0.55500001 9.5926867e-39
-0.12376667 0.12376667 0.55300003 8.8529609e-39
-0.12160382 0.12264763 0.54800004 8.7607653e-39
-0.12034 0.12242382 0.54700005 9.0394975e-39
-0.11908 0.1222 0.546 1.0699019e-38
-0.11804 0.1222 0.546 1.1343325e-38
-0.11657143 0.12175238 0.54400003 1.1619912e-38
-0.11532287 0.12152858 0.54300004 1.1160375e-38
-0.11386763 0.12108095 0.54100001 1.1436962e-38
-0.11262857 0.12085714 0.54000002 1.1899373e-38
-0.1116 0.12085714 0.54000002 1.1991568e-38
-0.11036667 0.12063334 0.53900003 1.2175969e-38
-0.10913715 0.12040953 0.53800005 1.236036e-38
-0.10791143 0.12018571 0.537 1.2544755e-38
-0.10668953 0.11996191 0.53600001 1.2729146e-38
-0.10566857 0.11996191 0.53600001 1.3005733e-38
-0.10464762 0.11996191 0.53600001 1.3005733e-38
-0.10362667 0.11996191 0.53600001 1.3281966e-38
-0.10241429 0.1197381 0.53500003 1.3558553e-38
-0.10120572 0.11951429 0.53400004 1.3558197e-38
-0.10018858 0.11951429 0.53400004 1.3558197e-38
-0.09917143 0.11951429 0.53400004 1.3559279e-38
-0.098154292 0.11951429 0.53400004 1.3559279e-38
-0.096773334 0.11906667 0.53200001 1.3559646e-38
-0.095760003 0.11906667 0.53200001 1.3836233e-38
-0.094746664 0.11906667 0.53200001 1.383623e-38
-0.093909532 0.11929049 0.53300005 1.3744035e-38
-0.092894293 0.11929049 0.53300005 1.3928429e-38
-0.091879055 0.11929049 0.53300005 1.411282e-38
-0.090863824 0.11929049 0.53300005 1.4021343e-38
-0.089680001 0.11906667 0.53200001 1.4113539e-38
-0.088666663 0.11906667 0.53200001 1.402135e-38
-0.087653339 0.11906667 0.53200001 1.3929155e-38
-0.08664 0.11906667 0.53200001 1.402135e-38
-0.085787632 0.11929049 0.53300005 1.3929155e-38
-0.084772386 0.11929049 0.53300005 1.4113183e-38
-0.083757147 0.11929049 0.53300005 1.4113183e-38
-0.082897149 0.11951429 0.53400004 1.3928439e-38
-0.081880003 0.11951429 0.53400004 1.3836243e-38
-0.080862865 0.11951429 0.53400004 1.3928795e-38
-0.079845719 0.11951429 0.53400004 1.3836599e-38
-0.078828573 0.11951429 0.53400004 1.3928076e-38
-0.077957146 0.1197381 0.53500003 1.383588e-38
-0.0769381 0.1197381 0.53500003 1.3928426e-38
-0.075919047 0.1197381 0.53500003 1.3928426e-38
-0.074900001 0.1197381 0.53500003 1.3744035e-38
-0.074295245 0.12040953 0.53800005 1.3467448e-38
-0.073270477 0.12040953 0.53800005 1.3467451e-38
-0.072245724 0.12040953 0.53800005 1.3375255e-38
-0.071220957 0.12040953 0.53800005 1.3283059e-38
-0.070326671 0.12063334 0.53900003 1.3098668e-38
-0.069300003 0.12063334 0.53900003 1.282316e-38
-0.068273336 0.12063334 0.53900003 1.282316e-38
-0.067246668 0.12063334 0.53900003 1.28228e-38
-0.06634286 0.12085714 0.54000002 1.2638409e-38
-0.065435238 0.12108095 0.54100001 1.2546211e-38
-0.064523816 0.12130477 0.54200006 1.2638406e-38
-0.063608572 0.12152858 0.54300004 1.2822433e-38
-0.062689528 0.12175238 0.54400003 1.2545846e-38
-0.061766669 0.12197619 0.54500002 1.2636608e-38
-0.060839999 0.1222 0.546 1.07005e-38
-0.059799999 0.1222 0.546 9.1353351e-39
-0.058975242 0.12264763 0.54800004 8.8587482e-39
-0.058037147 0.12287143 0.54900002 8.5842577e-39
-0.057095237 0.12309524 0.55000001 8.4920621e-39
-0.056251429 0.12354288 0.55200005 8.7675826e-39
-0.055300001 0.12376667 0.55300003 8.5831913e-39
-0.054344762 0.12399048 0.55400002 8.3058912e-39
-0.053289525 0.12399048 0.55400002 8.7668693e-39
-0.052234285 0.12399048 0.55400002 9.3168187e-39
-0.12678382 0.12572286 0.55700004 1.0052563e-38
-0.12572286 0.12572286 0.55700004 9.3149984e-39
-0.12466191 0.12572286 0.55700004 8.7629134e-39
-0.12204763 0.12414286 0.55000001 8.3019353e-39
-0.12034 0.12346572 0.54700005 8.67068e-39
-0.11908 0.12324001 0.546 1.0514593e-38
-0.11804 0.12324001 0.546 1.1343309e-38
-0.11678571 0.12301429 0.54500002 1.1343309e-38
-0.11532287 0.12256286 0.54300004 1.106818e-38
-0.11386763 0.12211142 0.54100001 1.1713549e-38
-0.11262857 0.12188572 0.54000002 1.1991568e-38
-0.1116 0.12188572 0.54000002 1.1991568e-38
-0.11036667 0.12166001 0.53900003 1.1899382e-38
-0.10913715 0.12143429 0.53800005 1.2268165e-38
-0.10791143 0.12120857 0.537 1.236036e-38
-0.10688857 0.12120857 0.537 1.2452556e-38
-0.10566857 0.12098286 0.53600001 1.3280878e-38
-0.10464762 0.12098286 0.53600001 1.3373073e-38
-0.10362667 0.12098286 0.53600001 1.3097928e-38
-0.10260572 0.12098286 0.53600001 1.328232e-38
-0.10139524 0.12075715 0.53500003 1.3466002e-38
-0.1003762 0.12075715 0.53500003 1.3466002e-38
-0.099357143 0.12075715 0.53500003 1.3742589e-38
-0.098338097 0.12075715 0.53500003 1.3742589e-38
-0.096773334 0.12008 0.53200001 1.3559283e-38
-0.095760003 0.12008 0.53200001 1.3651479e-38
-0.094746664 0.12008 0.53200001 1.3743675e-38
-0.093909532 0.12030572 0.53300005 1.3743675e-38
-0.092894293 0.12030572 0.53300005 1.383623e-38
-0.091879055 0.12030572 0.53300005 1.3928426e-38
-0.090863824 0.12030572 0.53300005 1.4112817e-38
-0.089680001 0.12008 0.53200001 1.4205013e-38
-0.088666663 0.12008 0.53200001 1.4113539e-38
-0.087488577 0.11985429 0.53100002 1.4113539e-38
-0.086477146 0.11985429 0.53100002 1.4113183e-38
-0.085787632 0.12030572 0.53300005 1.4113183e-38
-0.084772386 0.12030572 0.53300005 1.4205019e-38
-0.083757147 0.12030572 0.53300005 1.4112823e-38
-0.082897149 0.12053143 0.53400004 1.3744403e-38
-0.081880003 0.12053143 0.53400004 1.3836599e-38
-0.080862865 0.12053143 0.53400004 1.4020627e-38
-0.079995237 0.12075715 0.53500003 1.3928432e-38
-0.078976192 0.12075715 0.53500003 1.3744756e-38
-0.077957146 0.12075715 0.53500003 1.3652561e-38
-0.0769381 0.12075715 0.53500003 1.3744038e-38
-0.075919047 0.12075715 0.53500003 1.3559646e-38
-0.074900001 0.12075715 0.53500003 1.3557849e-38
-0.074295245 0.12143429 0.53800005 1.3557849e-38
-0.073270477 0.12143429 0.53800005 1.3466732e-38
-0.072245724 0.12143429 0.53800005 1.3282341e-38
-0.071220957 0.12143429 0.53800005 1.3282341e-38
-0.070326671 0.12166001 0.53900003 1.3282341e-38
-0.069300003 0.12166001 0.53900003 1.2914996e-38
-0.068273336 0.12166001 0.53900003 1.2914996e-38
-0.067246668 0.12166001 0.53900003 1.2638769e-38
-0.06634286 0.12188572 0.54000002 1.2638769e-38
-0.065435238 0.12211142 0.54100001 1.2638769e-38
-0.064523816 0.12233715 0.54200006 1.2546573e-38
-0.063608572 0.12256286 0.54300004 1.300574e-38
-0.062804759 0.12301429 0.54500002 1.2452566e-38
-0.06188 0.12324001 0.546 1.1440565e-38
-0.060839999 0.12324001 0.546 9.4122611e-39
-0.059799999 0.12324001 0.546 8.7679609e-39
-0.058975242 0.12369143 0.54800004 8.5835697e-39
-0.058037147 0.12391715 0.54900002 8.8601313e-39
-0.057199046 0.12436858 0.551 8.8601313e-39
-0.056149524 0.12436858 0.551 8.676103e-39
-0.055300001 0.12482 0.55300003 8.3073205e-39
-0.054344762 0.12504572 0.55400002 8.5817564e-39
-0.053289525 0.12504572 0.55400002 9.0427345e-39
-0.052234285 0.12504572 0.55400002 9.2246231e-39
-0.1280743 0.12701143 0.55800003 1.0051504e-38
-0.12678382 0.12678382 0.55700004 1.0051842e-38
-0.12572286 0.12678382 0.55700004 9.4064724e-39
-0.12466191 0.12678382 0.55700004 9.1306072e-39
-0.12204763 0.12519047 0.55000001 7.3788902e-39
-0.12056001 0.12473525 0.54800004 7.9320486e-39
-0.1192981 0.12450764 0.54700005 9.6837655e-39
-0.11804 0.12428 0.546 1.078939e-38
-0.11678571 0.12405238 0.54500002 1.1619151e-38
-0.11532287 0.12359715 0.54300004 1.1620637e-38
-0.1140781 0.12336953 0.54200006 1.2173811e-38
-0.11262857 0.12291428 0.54000002 1.2084111e-38
-0.1116 0.12291428 0.54000002 1.189972e-38
-0.11036667 0.12268668 0.53900003 1.189938e-38
-0.10934 0.12268668 0.53900003 1.2175966e-38
-0.10811239 0.12245906 0.53800005 1.2452553e-38
-0.10708763 0.12245906 0.53800005 1.2452553e-38
-0.10586571 0.12223143 0.537 1.3005364e-38
-0.10464762 0.12200381 0.53600001 1.3005364e-38
-0.10362667 0.12200381 0.53600001 1.3097928e-38
-0.10260572 0.12200381 0.53600001 1.3097928e-38
-0.10139524 0.12177619 0.53500003 1.3189415e-38
-0.10018858 0.12154858 0.53400004 1.3281611e-38
-0.09917143 0.12154858 0.53400004 1.3283048e-38
-0.098154292 0.12154858 0.53400004 1.3283048e-38
-0.097137153 0.12154858 0.53400004 1.3374888e-38
-0.095940009 0.12132096 0.53300005 1.3559279e-38
-0.09492477 0.12132096 0.53300005 1.3744026e-38
-0.093909532 0.12132096 0.53300005 1.3651831e-38
-0.092894293 0.12132096 0.53300005 1.3559646e-38
-0.091879055 0.12132096 0.53300005 1.3744038e-38
-0.090863824 0.12132096 0.53300005 1.4112453e-38
-0.089680001 0.12109333 0.53200001 1.4112453e-38
-0.088500001 0.12086572 0.53100002 1.3744756e-38
-0.087323815 0.1206381 0.53000003 1.3744756e-38
-0.086314291 0.1206381 0.53000003 1.3744756e-38
-0.085465722 0.12086572 0.53100002 1.3744756e-38
-0.084613331 0.12109333 0.53200001 1.3744403e-38
-0.083757147 0.12132096 0.53300005 1.3652208e-38
-0.082897149 0.12154858 0.53400004 1.3651489e-38
-0.081880003 0.12154858 0.53400004 1.3743685e-38
-0.080862865 0.12154858 0.53400004 1.3651842e-38
-0.079995237 0.12177619 0.53500003 1.3651842e-38
-0.078976192 0.12177619 0.53500003 1.3651842e-38
-0.077957146 0.12177619 0.53500003 1.3559646e-38
-0.0769381 0.12177619 0.53500003 1.3558928e-38
-0.076486669 0.12268668 0.53900003 1.3466732e-38
-0.075460002 0.12268668 0.53900003 1.3466732e-38
-0.074433342 0.12268668 0.53900003 1.3466732e-38
-0.073406667 0.12268668 0.53900003 1.3467088e-38
-0.072380006 0.12268668 0.53900003 1.3282697e-38
-0.071353339 0.12268668 0.53900003 1.3099384e-38
-0.070326671 0.12268668 0.53900003 1.3099384e-38
-0.069300003 0.12268668 0.53900003 1.3375252e-38
-0.068273336 0.12268668 0.53900003 1.3283057e-38
-0.067246668 0.12268668 0.53900003 1.3283048e-38
-0.06634286 0.12291428 0.54000002 1.3098657e-38
-0.065435238 0.1231419 0.54100001 1.2546211e-38
-0.064642861 0.12359715 0.54300004 1.107108e-38
-0.063725717 0.12382477 0.54400003 9.5062729e-39
-0.062920004 0.12428 0.546 8.7687078e-39
-0.06188 0.12428 0.546 8.5853493e-39
-0.060839999 0.12428 0.546 8.5853493e-39
-0.059799999 0.12428 0.546 9.137084e-39
-0.058975242 0.12473525 0.54800004 8.9526927e-39
-0.058037147 0.12496285 0.54900002 9.0445226e-39
-0.057199046 0.1254181 0.551 8.952327e-39
-0.056149524 0.1254181 0.551 8.4917117e-39
-0.055200007 0.12564573 0.55200005 7.938538e-39
-0.054344762 0.12610096 0.55400002 8.3973651e-39
-0.053289525 0.12610096 0.55400002 8.8583433e-39
-0.12761526 0.12761526 0.55600005 1.0143337e-38
-0.1265562 0.12761526 0.55600005 1.0419188e-38
-0.12549716 0.12761526 0.55600005 9.8660142e-39
-0.12399048 0.1271562 0.55400002 9.4983177e-39
-0.12226952 0.12646762 0.551 7.6544051e-39
-0.121 0.12623809 0.55000001 7.7462154e-39
-0.1192981 0.12554954 0.54700005 9.0369542e-39
-0.11804 0.12532 0.546 9.9581818e-39
-0.11678571 0.12509048 0.54500002 1.1341116e-38
-0.11553524 0.12486096 0.54400003 1.1529123e-38
-0.1140781 0.12440191 0.54200006 1.2082297e-38
-0.11283714 0.12417237 0.54100001 1.1623852e-38
-0.1116 0.12394285 0.54000002 1.1623852e-38
-0.11057144 0.12394285 0.54000002 1.2083774e-38
-0.10934 0.12371334 0.53900003 1.2268165e-38
-0.10811239 0.12348381 0.53800005 1.2268884e-38
-0.10708763 0.12348381 0.53800005 1.2361079e-38
-0.10586571 0.12325429 0.537 1.2820976e-38
-0.10484286 0.12325429 0.537 1.2913171e-38
-0.10362667 0.12302477 0.53600001 1.2913537e-38
-0.10260572 0.12302477 0.53600001 1.3005733e-38
-0.10139524 0.12279525 0.53500003 1.3005743e-38
-0.10018858 0.12256573 0.53400004 1.3190134e-38
-0.09917143 0.12256573 0.53400004 1.3006822e-38
-0.098154292 0.12256573 0.53400004 1.3006822e-38
-0.097137153 0.12256573 0.53400004 1.3282692e-38
-0.095940009 0.12233621 0.53300005 1.3467084e-38
-0.09492477 0.12233621 0.53300005 1.3652191e-38
-0.093909532 0.12233621 0.53300005 1.3559995e-38
-0.092894293 0.12233621 0.53300005 1.3283776e-38
-0.091879055 0.12233621 0.53300005 1.3468167e-38
-0.090863824 0.12233621 0.53300005 1.383623e-38
-0.089680001 0.12210667 0.53200001 1.383623e-38
-0.088500001 0.12187714 0.53100002 1.3560365e-38
-0.087323815 0.12164763 0.53000003 1.3652561e-38
-0.086314291 0.12164763 0.53000003 1.3836233e-38
-0.085465722 0.12187714 0.53100002 1.3744038e-38
-0.084613331 0.12210667 0.53200001 1.3744038e-38
-0.083757147 0.12233621 0.53300005 1.3651842e-38
-0.082897149 0.12256573 0.53400004 1.3651842e-38
-0.081880003 0.12256573 0.53400004 1.3559646e-38
-0.080862865 0.12256573 0.53400004 1.3559646e-38
-0.079995237 0.12279525 0.53500003 1.3559646e-38
-0.078976192 0.12279525 0.53500003 1.3559646e-38
-0.077957146 0.12279525 0.53500003 1.3375255e-38
-0.077369526 0.12348381 0.53800005 1.3375255e-38
-0.076344773 0.12348381 0.53800005 1.3375255e-38
-0.075460002 0.12371334 0.53900003 1.3283059e-38
-0.074433342 0.12371334 0.53900003 1.3283059e-38
-0.073406667 0.12371334 0.53900003 1.3283059e-38
-0.072380006 0.12371334 0.53900003 1.3283059e-38
-0.071353339 0.12371334 0.53900003 1.3190864e-38
-0.070326671 0.12371334 0.53900003 1.3190864e-38
-0.069300003 0.12371334 0.53900003 1.3283411e-38
-0.068399996 0.12394285 0.54000002 1.3006824e-38
-0.067371435 0.12394285 0.54000002 1.2823134e-38
-0.06634286 0.12394285 0.54000002 1.2730938e-38
-0.065556198 0.12440191 0.54200006 1.1350171e-38
-0.064642861 0.12463143 0.54300004 9.7828457e-39
-0.063725717 0.12486096 0.54400003 9.0470659e-39
-0.062920004 0.12532 0.546 8.4938922e-39
-0.06188 0.12532 0.546 9.0441695e-39
-0.060839999 0.12532 0.546 9.2285607e-39
-0.05990953 0.12554954 0.54700005 9.3207592e-39
-0.059082858 0.12600857 0.54900002 8.9519766e-39
-0.058037147 0.12600857 0.54900002 8.7679483e-39
-0.057095237 0.12623809 0.55000001 8.5835571e-39
-0.056047622 0.12623809 0.55000001 8.0303833e-39
-0.055099998 0.12646762 0.551 7.5694051e-39
-0.054344762 0.1271562 0.55400002 7.8452633e-39
-0.053289525 0.1271562 0.55400002 8.5828284e-39
-0.12761526 0.1286743 0.55600005 9.9592986e-39
-0.1265562 0.1286743 0.55600005 9.959649e-39
-0.12549716 0.1286743 0.55600005 9.8674533e-39
-0.12399048 0.12821144 0.55400002 9.4986806e-39
-0.12226952 0.12751715 0.551 7.3781811e-39
-0.121 0.12728572 0.55000001 7.1026536e-39
-0.1192981 0.12659143 0.54700005 7.4714361e-39
-0.11804 0.12636 0.546 8.6717366e-39
-0.117 0.12636 0.546 9.0405191e-39
-0.11574762 0.12612857 0.54500002 9.9628089e-39
-0.11428858 0.12566572 0.54300004 1.1161352e-38
-0.11283714 0.12520285 0.54100001 1.1990454e-38
-0.11180667 0.12520285 0.54100001 1.2451432e-38
-0.11057144 0.12497143 0.54000002 1.2911729e-38
-0.10934 0.12474 0.53900003 1.2819534e-38
-0.10811239 0.12450858 0.53800005 1.2727701e-38
-0.10708763 0.12450858 0.53800005 1.254331e-38
-0.10586571 0.12427714 0.537 1.2728777e-38
-0.10484286 0.12427714 0.537 1.2820973e-38
-0.10382 0.12427714 0.537 1.2821339e-38
-0.10260572 0.12404571 0.53600001 1.2913534e-38
-0.10139524 0.12381429 0.53500003 1.2913544e-38
-0.1003762 0.12381429 0.53500003 1.3097935e-38
-0.099357143 0.12381429 0.53500003 1.3189771e-38
-0.098338097 0.12381429 0.53500003 1.3281966e-38
-0.097137153 0.12358286 0.53400004 1.3190853e-38
-0.095940009 0.12335144 0.53300005 1.3190853e-38
-0.09492477 0.12335144 0.53300005 1.309938e-38
-0.093909532 0.12335144 0.53300005 1.3283771e-38
-0.093068577 0.12358286 0.53400004 1.3375607e-38
-0.091879055 0.12335144 0.53300005 1.3283411e-38
-0.090863824 0.12335144 0.53300005 1.3283776e-38
-0.090017147 0.12358286 0.53400004 1.3283776e-38
-0.089000002 0.12358286 0.53400004 1.3467451e-38
-0.087323815 0.12265715 0.53000003 1.3559646e-38
-0.086314291 0.12265715 0.53000003 1.3559646e-38
-0.085787632 0.12335144 0.53300005 1.3559646e-38
-0.084772386 0.12335144 0.53300005 1.3559646e-38
-0.083757147 0.12335144 0.53300005 1.3559646e-38
-0.082897149 0.12358286 0.53400004 1.3559646e-38
-0.081880003 0.12358286 0.53400004 1.3559646e-38
-0.080862865 0.12358286 0.53400004 1.3559646e-38
-0.079995237 0.12381429 0.53500003 1.3467451e-38
-0.078976192 0.12381429 0.53500003 1.3468167e-38
-0.078102857 0.12404571 0.53600001 1.3468167e-38
-0.077369526 0.12450858 0.53800005 1.3651839e-38
-0.076344773 0.12450858 0.53800005 1.3559644e-38
-0.075460002 0.12474 0.53900003 1.3651479e-38
-0.074433342 0.12474 0.53900003 1.3559283e-38
-0.073406667 0.12474 0.53900003 1.3559644e-38
-0.072380006 0.12474 0.53900003 1.3559644e-38
-0.071485721 0.12497143 0.54000002 1.3467448e-38
-0.070457146 0.12497143 0.54000002 1.23611e-38
-0.069428571 0.12497143 0.54000002 1.1165081e-38
-0.068399996 0.12497143 0.54000002 1.0796298e-38
-0.067371435 0.12497143 0.54000002 9.2311069e-39
-0.066588581 0.12543429 0.54200006 9.2311069e-39
-0.065798096 0.12589714 0.54400003 9.2307313e-39
-0.064880952 0.12612857 0.54500002 8.7697532e-39
-0.063959993 0.12636 0.546 8.9548549e-39
-0.062920004 0.12636 0.546 8.9548549e-39
-0.06188 0.12636 0.546 9.4133149e-39
-0.06095143 0.12659143 0.54700005 9.2289237e-39
-0.06001905 0.12682287 0.54800004 9.1363651e-39
-0.059082858 0.1270543 0.54900002 8.5831913e-39
-0.058037147 0.1270543 0.54900002 8.2140683e-39
-0.057095237 0.12728572 0.55000001 7.9374814e-39
-0.056047622 0.12728572 0.55000001 7.7534461e-39
-0.055099998 0.12751715 0.551 7.6612504e-39
-0.055031434 0.12983143 0.56100005 7.8452633e-39
-0.05396286 0.12983143 0.56100005 8.3984371e-39
-0.12678382 0.12996668 0.55700004 9.6834278e-39
-0.12549716 0.12973335 0.55600005 9.8678191e-39
-0.12421428 0.1295 0.55500001 9.3160872e-39
-0.12226952 0.12856667 0.551 7.0111965e-39
-0.121 0.12833333 0.55000001 6.277209e-39
-0.1195162 0.12786667 0.54800004 6.6459915e-39
-0.1182562 0.12763335 0.54700005 6.4623163e-39
-0.117 0.1274 0.546 6.1857294e-39
-0.11574762 0.12716667 0.54500002 7.5657225e-39
-0.11428858 0.1267 0.54300004 9.8706133e-39
-0.11325429 0.1267 0.54300004 1.1251439e-38
-0.11201335 0.12646668 0.54200006 1.2449982e-38
-0.11098097 0.12646668 0.54200006 1.2083391e-38
-0.10974571 0.12623332 0.54100001 1.2544369e-38
-0.10831334 0.12576668 0.53900003 1.217632e-38
-0.10728668 0.12576668 0.53900003 1.2268515e-38
-0.10606287 0.12553334 0.53800005 1.2452553e-38
-0.10484286 0.12530001 0.537 1.272914e-38
-0.10382 0.12530001 0.537 1.2729153e-38
-0.10279714 0.12530001 0.537 1.2821348e-38
-0.10158476 0.12506667 0.53600001 1.2821348e-38
-0.1003762 0.12483335 0.53500003 1.3097935e-38
-0.099357143 0.12483335 0.53500003 1.3005743e-38
-0.098338097 0.12483335 0.53500003 1.3097938e-38
-0.097319052 0.12483335 0.53500003 1.3373806e-38
-0.096300006 0.12483335 0.53500003 1.3373806e-38
-0.09528096 0.12483335 0.53500003 1.3006824e-38
-0.094261907 0.12483335 0.53500003 1.3191216e-38
-0.093242861 0.12483335 0.53500003 1.3467084e-38
-0.092051432 0.12460002 0.53400004 1.3374888e-38
-0.091034293 0.12460002 0.53400004 1.3375607e-38
-0.090017147 0.12460002 0.53400004 1.3467802e-38
-0.089000002 0.12460002 0.53400004 1.3467448e-38
-0.087982863 0.12460002 0.53400004 1.3559644e-38
-0.086965717 0.12460002 0.53400004 1.3559646e-38
-0.085948579 0.12460002 0.53400004 1.3467451e-38
-0.084931433 0.12460002 0.53400004 1.3467814e-38
-0.084071428 0.12483335 0.53500003 1.3375618e-38
-0.083052382 0.12483335 0.53500003 1.3375974e-38
-0.082033336 0.12483335 0.53500003 1.3375974e-38
-0.08101429 0.12483335 0.53500003 1.3375974e-38
-0.080144763 0.12506667 0.53600001 1.3375974e-38
-0.07912381 0.12506667 0.53600001 1.346817e-38
-0.078102857 0.12506667 0.53600001 1.3375974e-38
-0.077369526 0.12553334 0.53800005 1.3744389e-38
-0.076486669 0.12576668 0.53900003 1.3652194e-38
-0.075460002 0.12576668 0.53900003 1.3744024e-38
-0.074433342 0.12576668 0.53900003 1.3467437e-38
-0.073406667 0.12576668 0.53900003 1.3283043e-38
-0.072380006 0.12576668 0.53900003 1.3006456e-38
-0.071485721 0.126 0.54000002 1.2638395e-38
-0.070457146 0.126 0.54000002 1.1993026e-38
-0.069428571 0.126 0.54000002 1.0797351e-38
-0.068399996 0.126 0.54000002 9.9675901e-39
-0.067496195 0.12623332 0.54100001 9.2307257e-39
-0.066711433 0.1267 0.54300004 9.1385301e-39
-0.065798096 0.12693335 0.54400003 9.7813814e-39
-0.064999998 0.1274 0.546 9.5969901e-39
-0.063959993 0.1274 0.546 9.5058735e-39
-0.062920004 0.1274 0.546 9.3214822e-39
-0.061993334 0.12763335 0.54700005 9.137091e-39
-0.061062861 0.12786667 0.54800004 8.8605041e-39
-0.060128573 0.12810001 0.54900002 8.4917216e-39
-0.059082858 0.12810001 0.54900002 8.3073303e-39
-0.058142859 0.12833333 0.55000001 8.3980868e-39
-0.057095237 0.12833333 0.55000001 8.1214999e-39
-0.056047622 0.12833333 0.55000001 8.0285854e-39
-0.055099998 0.12856667 0.551 8.120781e-39
-0.055031434 0.13090001 0.56100005 8.4888349e-39
-0.05396286 0.13090001 0.56100005 8.8576174e-39
-0.052988574 0.13113333 0.56200004 8.765447e-39
-0.12678382 0.13102762 0.55700004 9.7749046e-39
-0.12549716 0.13079239 0.55600005 9.9592958e-39
-0.12421428 0.13055715 0.55500001 9.5908763e-39
-0.12271334 0.13008668 0.55300003 7.3781811e-39
-0.12144001 0.12985143 0.55200005 6.4605282e-39
-0.12017047 0.12961619 0.551 6.9215064e-39
-0.11847239 0.12891048 0.54800004 6.554156e-39
-0.117 0.12843999 0.546 4.8946346e-39
-0.11596 0.12843999 0.546 5.3573728e-39
-0.11470953 0.12820476 0.54500002 6.9246985e-39
-0.11325429 0.1277343 0.54300004 7.8434178e-39
-0.11222 0.1277343 0.54300004 8.8575698e-39
-0.11098097 0.12749906 0.54200006 8.8576174e-39
-0.10974571 0.12726381 0.54100001 1.0424943e-38
-0.10851429 0.12702857 0.54000002 1.0977764e-38
-0.10748572 0.12702857 0.54000002 1.1715329e-38
-0.10626 0.12679334 0.53900003 1.2820237e-38
-0.1050381 0.12655811 0.53800005 1.3096824e-38
-0.10382 0.12632287 0.537 1.3649297e-38
-0.10279714 0.12632287 0.537 1.3464906e-38
-0.10158476 0.12608762 0.53600001 1.3373796e-38
-0.1003762 0.12585239 0.53500003 1.3558188e-38
-0.099357143 0.12585239 0.53500003 1.3373806e-38
-0.098338097 0.12585239 0.53500003 1.3373806e-38
-0.097319052 0.12585239 0.53500003 1.3650393e-38
