# .PCD v0.7 - Point Cloud Data file format
VERSION 0.7
FIELDS x y z rgba
SIZE 4 4 4 4
TYPE F F F U
COUNT 1 1 1 1
WIDTH 1096
HEIGHT 1
VIEWPOINT 0 0 0 1 0 0 0
POINTS 1096
DATA ascii
-0.086118095 0.084182858 1.016 14864270
-0.084431432 0.084431432 1.0190001 14798741
-0.082490481 0.084431432 1.0190001 15456671
-0.080549523 0.084431432 1.0190001 15127183
-0.078840002 0.084680006 1.0220001 15061390
-0.076893337 0.084680006 1.0220001 15192454
-0.074946672 0.084680006 1.0220001 15455626
-0.073000006 0.084680006 1.0220001 15521160
-0.071053334 0.084680006 1.0220001 15915918
-0.069106668 0.084680006 1.0220001 16178831
-0.067160003 0.084680006 1.0220001 16507796
-0.065213338 0.084680006 1.0220001 16443820
-0.063266672 0.084680006 1.0220001 16509613
-0.061319999 0.084680006 1.0220001 16444606
-0.059373334 0.084680006 1.0220001 16510399
-0.057426669 0.084680006 1.0220001 16445353
-0.055317145 0.084431432 1.0190001 16511146
-0.053219046 0.084182858 1.016 16444588
-0.051283814 0.084182858 1.016 16707760
-0.049202859 0.083934292 1.013 16510651
-0.047273334 0.083934292 1.013 16775108
-0.045209523 0.083685718 1.01 15852226
-0.043285716 0.083685718 1.01 15128503
-0.041361906 0.083685718 1.01 13417375
-0.036939051 0.078382857 0.94600004 12891031
-0.035137143 0.078382857 0.94600004 13286015
-0.033405717 0.078548573 0.94800007 14536082
-0.031600002 0.078548573 0.94800007 13419103
-0.10963333 0.084846668 1.001 15849873
-0.10740381 0.08459238 0.99800003 16573596
-0.10550286 0.08459238 0.99800003 16376748
-0.10360191 0.08459238 0.99800003 16245162
-0.10231239 0.085100956 1.0040001 16376487
-0.101 0.085609525 1.01 16376487
-0.09937048 0.085863806 1.013 16444349
-0.097440958 0.085863806 1.013 16312763
-0.095794283 0.086118095 1.016 16050618
-0.093859047 0.086118095 1.016 15787446
-0.091923811 0.086118095 1.016 14866862
-0.089722857 0.085863806 1.013 14801069
-0.087793328 0.085863806 1.013 15061913
-0.086118095 0.086118095 1.016 15061913
-0.084182858 0.086118095 1.016 15259017
-0.082490481 0.086372383 1.0190001 15456396
-0.080549523 0.086372383 1.0190001 15259278
-0.078840002 0.086626671 1.0220001 15127692
-0.076893337 0.086626671 1.0220001 15258499
-0.075166672 0.08688096 1.0250001 15850636
-0.073214293 0.08688096 1.0250001 16244620
-0.071053334 0.086626671 1.0220001 16773277
-0.069106668 0.086626671 1.0220001 16576962
-0.067160003 0.086626671 1.0220001 16576962
-0.065213338 0.086626671 1.0220001 16577232
-0.063266672 0.086626671 1.0220001 16445646
-0.061319999 0.086626671 1.0220001 16577238
-0.059373334 0.086626671 1.0220001 16116687
-0.057426669 0.086626671 1.0220001 16377525
-0.055317145 0.086372383 1.0190001 16509111
-0.053219046 0.086118095 1.016 16444336
-0.051283814 0.086118095 1.016 16575922
-0.049202859 0.085863806 1.013 16444606
-0.04713333 0.085609525 1.01 16115641
-0.042344764 0.080184758 0.94600004 14605244
-0.04054286 0.080184758 0.94600004 13420970
-0.038740952 0.080184758 0.94600004 12696424
-0.036939051 0.080184758 0.94600004 12038494
-0.035137143 0.080184758 0.94600004 12497503
-0.033405717 0.080354296 0.94800007 12365917
-0.031800002 0.080862865 0.95400006 11906844
-0.030140001 0.081286669 0.95900005 12564774
-0.028313335 0.081286669 0.95900005 14605714
-0.10288381 0.082853332 0.95600003 14471052
-0.10053429 0.082419999 0.95100003 14074223
-0.098411433 0.082160003 0.94800007 13218914
-0.10322952 0.087793328 1.013 13547647
-0.10129999 0.087793328 1.013 15192472
-0.09937048 0.087793328 1.013 16179351
-0.097440958 0.087793328 1.013 16179351
-0.095794283 0.088053331 1.016 16444054
-0.093859047 0.088053331 1.016 16641433
-0.091923811 0.088053331 1.016 16378815
-0.089722857 0.087793328 1.013 16576194
-0.087793328 0.087793328 1.013 16378545
-0.085863806 0.087793328 1.013 16312752
-0.084182858 0.088053331 1.016 16444045
-0.082490481 0.088313334 1.0190001 16773010
-0.080549523 0.088313334 1.0190001 16510381
-0.072128579 0.081033342 0.93500006 16641967
-0.070347622 0.081033342 0.93500006 16445601
-0.068566665 0.081033342 0.93500006 16775080
-0.066785723 0.081033342 0.93500006 16512409
-0.071261905 0.08883334 1.0250001 16775838
-0.069106668 0.088573337 1.0220001 16445333
-0.067160003 0.088573337 1.0220001 14997887
-0.065213338 0.088573337 1.0220001 14864543
-0.063266672 0.088573337 1.0220001 14667164
-0.061319999 0.088573337 1.0220001 14141853
-0.059373334 0.088573337 1.0220001 13747095
-0.05298762 0.08172667 0.94300002 14469001
-0.051191427 0.08172667 0.94300002 14797966
-0.049395241 0.08172667 0.94300002 15192177
-0.047599047 0.08172667 0.94300002 15323763
-0.045802858 0.08172667 0.94300002 13681541
-0.044006668 0.08172667 0.94300002 13484162
-0.042344764 0.081986673 0.94600004 13419148
-0.04054286 0.081986673 0.94600004 12827011
-0.038740952 0.081986673 0.94600004 12827220
-0.037134286 0.082419999 0.95100003 11840325
-0.035322856 0.082419999 0.95100003 11446648
-0.033617143 0.082680002 0.95400006 10722925
-0.03186667 0.082853332 0.95600003 10462011
-0.030140001 0.083113335 0.95900005 11843664
-0.028313335 0.083113335 0.95900005 14342814
-0.026486667 0.083113335 0.95900005 16777159
-0.024660001 0.083113335 0.95900005 16646104
-0.10652572 0.084674291 0.95600003 11249262
-0.10470476 0.084674291 0.95600003 11448145
-0.10288381 0.084674291 0.95600003 12895591
-0.10053429 0.084231429 0.95100003 13549941
-0.098411433 0.083965719 0.94800007 12299874
-0.096401908 0.083788574 0.94600004 12366424
-0.094599999 0.083788574 0.94600004 14077042
-0.092503816 0.083522864 0.94300002 14535571
-0.090419047 0.083257146 0.94000006 14601364
-0.088628575 0.083257146 0.94000006 14995064
-0.093859047 0.089988574 1.016 15652994
-0.091652378 0.089722857 1.013 15588268
-0.082814291 0.082814291 0.93500006 15983026
-0.081033342 0.082814291 0.93500006 15852208
-0.079252385 0.082814291 0.93500006 15589036
-0.077471435 0.082814291 0.93500006 15718805
-0.075690478 0.082814291 0.93500006 16376735
-0.073909529 0.082814291 0.93500006 16245923
-0.072128579 0.082814291 0.93500006 16311716
-0.070347622 0.082814291 0.93500006 16180130
-0.068566665 0.082814291 0.93500006 14864270
-0.066785723 0.082814291 0.93500006 14206313
-0.065004766 0.082814291 0.93500006 14337899
-0.063426666 0.083080001 0.93800002 14272633
-0.061442863 0.082814291 0.93500006 14404219
-0.05966191 0.082814291 0.93500006 13616529
-0.058066666 0.083080001 0.93800002 12037497
-0.056400005 0.083257146 0.94000006 11971684
-0.054609526 0.083257146 0.94000006 11774305
-0.052819051 0.083257146 0.94000006 12826459
-0.051191427 0.083522864 0.94300002 14537077
-0.049395241 0.083522864 0.94300002 14733711
-0.047599047 0.083522864 0.94300002 13220472
-0.045802858 0.083522864 0.94300002 12235353
-0.044006668 0.083522864 0.94300002 12103767
-0.042344764 0.083788574 0.94600004 13550461
-0.04054286 0.083788574 0.94600004 13418875
-0.03882286 0.083965719 0.94800007 13417844
-0.037134286 0.084231429 0.95100003 13417844
-0.035322856 0.084231429 0.95100003 11974012
-0.033617143 0.084497146 0.95400006 8289604
-0.031966668 0.084940001 0.95900005 8750848
-0.030234287 0.085205719 0.96200007 12435237
-0.028313335 0.084940001 0.95900005 14276501
-0.026486667 0.084940001 0.95900005 16777153
-0.024788573 0.085382864 0.96400005 16711650
-0.11016762 0.086495236 0.95600003 15462088
-0.10834666 0.086495236 0.95600003 14341790
-0.10652572 0.086495236 0.95600003 10920554
-0.10470476 0.086495236 0.95600003 11250800
-0.10266858 0.086314291 0.95400006 12369281
-0.10053429 0.086042859 0.95100003 13221233
-0.098411433 0.085771434 0.94800007 12168545
-0.096401908 0.085590474 0.94600004 13087596
-0.094599999 0.085590474 0.94600004 14732421
-0.092503816 0.085319042 0.94300002 14142344
-0.090419047 0.085047618 0.94000006 11905382
-0.088440001 0.084866665 0.93800002 12037211
-0.086653329 0.084866665 0.93800002 12892520
-0.084595241 0.084595241 0.93500006 13285763
-0.082814291 0.084595241 0.93500006 14601623
-0.081033342 0.084595241 0.93500006 13483903
-0.079252385 0.084595241 0.93500006 12760180
-0.077471435 0.084595241 0.93500006 12761213
-0.075690478 0.084595241 0.93500006 13287557
-0.073909529 0.084595241 0.93500006 14074232
-0.072128579 0.084595241 0.93500006 15192713
-0.070347622 0.084595241 0.93500006 14732918
-0.068566665 0.084595241 0.93500006 13811816
-0.066785723 0.084595241 0.93500006 13089901
-0.065004766 0.084595241 0.93500006 12826729
-0.063426666 0.084866665 0.93800002 13286015
-0.061442863 0.084595241 0.93500006 14667668
-0.05966191 0.084595241 0.93500006 13944708
-0.058066666 0.084866665 0.93800002 11115609
-0.056400005 0.085047618 0.94000006 9934431
-0.054609526 0.085047618 0.94000006 9013329
-0.052819051 0.085047618 0.94000006 12367422
-0.051191427 0.085319042 0.94300002 14078040
-0.049395241 0.085319042 0.94300002 13550466
-0.047599047 0.085319042 0.94300002 11576676
-0.045948572 0.085590474 0.94600004 10330711
-0.044146664 0.085590474 0.94600004 10133332
-0.042344764 0.085590474 0.94600004 11052887
-0.04054286 0.085590474 0.94600004 12631919
-0.03882286 0.085771434 0.94800007 13352587
-0.037134286 0.086042859 0.95100003 13878931
-0.035322856 0.086042859 0.95100003 11908975
-0.033687621 0.086495236 0.95600003 7829809
-0.031966668 0.086766668 0.95900005 7898441
-0.030234287 0.0870381 0.96200007 12306572
-0.028401908 0.0870381 0.96200007 14343071
-0.026569527 0.0870381 0.96200007 16777159
-0.024788573 0.087219052 0.96400005 16646120
-0.11016762 0.088316195 0.95600003 15790804
-0.10834666 0.088316195 0.95600003 14341783
-0.10652572 0.088316195 0.95600003 10854754
-0.10470476 0.088316195 0.95600003 10199915
-0.10266858 0.088131428 0.95400006 10726259
-0.10053429 0.087854289 0.95100003 13155960
-0.098411433 0.087577149 0.94800007 13419132
-0.096401908 0.087392382 0.94600004 13547145
-0.094599999 0.087392382 0.94600004 14928798
-0.092503816 0.087115236 0.94300002 13683617
-0.090419047 0.086838104 0.94000006 9341279
-0.088440001 0.086653329 0.93800002 9211444
-0.086653329 0.086653329 0.93800002 9803581
-0.084595241 0.086376198 0.93500006 12891216
-0.082814291 0.086376198 0.93500006 13417560
-0.081033342 0.086376198 0.93500006 13090428
-0.079252385 0.086376198 0.93500006 11774568
-0.077471435 0.086376198 0.93500006 10332744
-0.075690478 0.086376198 0.93500006 11451225
-0.073909529 0.086376198 0.93500006 13023334
-0.072128579 0.086376198 0.93500006 14470780
-0.070347622 0.086376198 0.93500006 14338190
-0.068566665 0.086376198 0.93500006 12495986
-0.066785723 0.086376198 0.93500006 10919761
-0.065004766 0.086376198 0.93500006 11446105
-0.063426666 0.086653329 0.93800002 13023084
-0.061442863 0.086376198 0.93500006 14141565
-0.05966191 0.086376198 0.93500006 14076285
-0.058066666 0.086653329 0.93800002 11641944
-0.056280002 0.086653329 0.93800002 10328133
-0.054609526 0.086838104 0.94000006 10064961
-0.05298762 0.087115236 0.94300002 12432217
-0.051191427 0.087115236 0.94300002 13090147
-0.049395241 0.087115236 0.94300002 12302457
-0.047750477 0.087392382 0.94600004 10262874
-0.045948572 0.087392382 0.94600004 9215312
-0.044146664 0.087392382 0.94600004 9215312
-0.042344764 0.087392382 0.94600004 9673528
-0.040628575 0.087577149 0.94800007 11120974
-0.03882286 0.087577149 0.94800007 13023881
-0.037134286 0.087854289 0.95100003 13287053
-0.035322856 0.087854289 0.95100003 11250289
-0.033687621 0.088316195 0.95600003 7500088
-0.031966668 0.088593334 0.95900005 7176462
-0.030297145 0.08905524 0.96400005 13032039
-0.028460953 0.08905524 0.96400005 14606243
-0.026624763 0.08905524 0.96400005 16777159
-0.024865715 0.089332387 0.96700007 16711650
-0.11051334 0.09042 0.95900005 15725263
-0.10834666 0.090137146 0.95600003 14737059
-0.10652572 0.090137146 0.95600003 10460514
-0.10470476 0.090137146 0.95600003 10068602
-0.10266858 0.08994858 0.95400006 9937016
-0.10053429 0.089665718 0.95100003 12235642
-0.098411433 0.089382865 0.94800007 14209432
-0.096401908 0.08919429 0.94600004 14206854
-0.094599999 0.08919429 0.94600004 12101478
-0.092503816 0.088911429 0.94300002 8947839
-0.090419047 0.088628575 0.94000006 6908256
-0.088628575 0.088628575 0.94000006 6257469
-0.086653329 0.088440001 0.93800002 5731125
-0.084866665 0.088440001 0.93800002 9540372
-0.082814291 0.088157147 0.93500006 12435264
-0.081033342 0.088157147 0.93500006 12498818
-0.079252385 0.088157147 0.93500006 12301439
-0.077471435 0.088157147 0.93500006 12500320
-0.075690478 0.088157147 0.93500006 13092457
-0.073909529 0.088157147 0.93500006 13681284
-0.072128579 0.088157147 0.93500006 13023354
-0.070573337 0.088440001 0.93800002 11640958
-0.068786673 0.088440001 0.93800002 9996133
-0.066999994 0.088440001 0.93800002 9274184
-0.06521333 0.088440001 0.93800002 9142598
-0.063426666 0.088440001 0.93800002 9995338
-0.061442863 0.088157147 0.93500006 11640163
-0.05966191 0.088157147 0.93500006 12364890
-0.058066666 0.088440001 0.93800002 14338680
-0.056280002 0.088440001 0.93800002 13617015
-0.054609526 0.088628575 0.94000006 13485429
-0.05298762 0.088911429 0.94300002 12631415
-0.051191427 0.088911429 0.94300002 11710313
-0.049395241 0.088911429 0.94300002 10529117
-0.047750477 0.08919429 0.94600004 9871187
-0.045948572 0.08919429 0.94600004 9413477
-0.044146664 0.08919429 0.94600004 9610856
-0.042344764 0.08919429 0.94600004 9674591
-0.040628575 0.089382865 0.94800007 9740384
-0.03882286 0.089382865 0.94800007 11841899
-0.037134286 0.089665718 0.95100003 12236657
-0.035322856 0.089665718 0.95100003 10725235
-0.033687621 0.090137146 0.95600003 7238206
-0.032066669 0.090702862 0.96200007 7046185
-0.030297145 0.090891428 0.96400005 13362313
-0.028460953 0.090891428 0.96400005 14869415
-0.026624763 0.090891428 0.96400005 16777159
-0.024865715 0.091174297 0.96700007 16646106
-0.02302381 0.091174297 0.96700007 16580569
-0.11085905 0.09253525 0.96200007 16711646
-0.10868668 0.092246674 0.95900005 14870201
-0.10652572 0.091958091 0.95600003 10988414
-0.10470476 0.091958091 0.95600003 10463612
-0.10266858 0.091765717 0.95400006 9805682
-0.10053429 0.091477141 0.95100003 11380562
-0.09872286 0.091477141 0.95100003 14143868
-0.096605718 0.09118858 0.94800007 13552035
-0.094599999 0.090996191 0.94600004 9012318
-0.092798099 0.090996191 0.94600004 8029010
-0.090707622 0.090707622 0.94300002 6976322
-0.088628575 0.090419047 0.94000006 5864526
-0.086838104 0.090419047 0.94000006 5403975
-0.084866665 0.090226665 0.93800002 7176448
-0.083080001 0.090226665 0.93800002 9676571
-0.081293337 0.090226665 0.93800002 12695409
-0.079252385 0.089938097 0.93500006 13484925
-0.077471435 0.089938097 0.93500006 13813122
-0.075690478 0.089938097 0.93500006 14010501
-0.073909529 0.089938097 0.93500006 14273178
-0.072128579 0.089938097 0.93500006 11444079
-0.070573337 0.090226665 0.93800002 10852201
-0.068786673 0.090226665 0.93800002 9141583
-0.066999994 0.090226665 0.93800002 9142339
-0.06521333 0.090226665 0.93800002 9142339
-0.063426666 0.090226665 0.93800002 9404194
-0.061639998 0.090226665 0.93800002 9075229
-0.059853334 0.090226665 0.93800002 11507239
-0.058066666 0.090226665 0.93800002 14467924
-0.056400005 0.090419047 0.94000006 14404235
-0.054609526 0.090419047 0.94000006 14206856
-0.05298762 0.090707622 0.94300002 12500356
-0.051191427 0.090707622 0.94300002 10329187
-0.049552381 0.090996191 0.94600004 9675856
-0.047750477 0.090996191 0.94600004 9675856
-0.045948572 0.090996191 0.94600004 9479272
-0.044240002 0.09118858 0.94800007 9479272
-0.04243429 0.09118858 0.94800007 9216350
-0.040628575 0.09118858 0.94800007 9150557
-0.038945716 0.091477141 0.95100003 11185007
-0.037251431 0.091765717 0.95400006 11777144
-0.035434287 0.091765717 0.95400006 10199920
-0.033687621 0.091958091 0.95600003 6910270
-0.032133333 0.092727624 0.96400005 7439616
-0.030297145 0.092727624 0.96400005 14413665
-0.028549524 0.0930162 0.96700007 15132085
-0.026707619 0.0930162 0.96700007 16777169
-0.024865715 0.0930162 0.96700007 16646106
-0.11085905 0.094367623 0.96200007 16711643
-0.10868668 0.09407334 0.95900005 15790269
-0.10686 0.09407334 0.95900005 12040068
-0.10470476 0.09377905 0.95600003 10660480
-0.10288381 0.09377905 0.95600003 9936757
-0.10085143 0.093582861 0.95400006 11052381
-0.09872286 0.093288571 0.95100003 12828792
-0.09691143 0.093288571 0.95100003 12763512
-0.09480001 0.092994288 0.94800007 8026416
-0.092798099 0.092798099 0.94600004 6125911
-0.090707622 0.092503816 0.94300002 6323290
-0.088911429 0.092503816 0.94300002 6192726
-0.086838104 0.092209533 0.94000006 6061140
-0.085047618 0.092209533 0.94000006 6586170
-0.083257146 0.092209533 0.94000006 6454584
-0.081293337 0.092013337 0.93800002 9474625
-0.079506665 0.092013337 0.93800002 13093240
-0.077720001 0.092013337 0.93800002 13747343
-0.075933337 0.092013337 0.93800002 13418378
-0.074146673 0.092013337 0.93800002 12432239
-0.072360002 0.092013337 0.93800002 9274175
-0.070573337 0.092013337 0.93800002 9274443
-0.068786673 0.092013337 0.93800002 9077064
-0.066999994 0.092013337 0.93800002 9208400
-0.06521333 0.092013337 0.93800002 9997916
-0.063426666 0.092013337 0.93800002 9405007
-0.061639998 0.092013337 0.93800002 8944456
-0.059853334 0.092013337 0.93800002 9337933
-0.058190476 0.092209533 0.94000006 12232825
-0.056400005 0.092209533 0.94000006 13220211
-0.05478381 0.092503816 0.94300002 13483383
-0.05298762 0.092503816 0.94300002 12434288
-0.051191427 0.092503816 0.94300002 10328912
-0.049552381 0.092798099 0.94600004 9348177
-0.047750477 0.092798099 0.94600004 9545556
-0.046045717 0.092994288 0.94800007 9610847
-0.044240002 0.092994288 0.94800007 9018710
-0.042568572 0.093288571 0.95100003 9740391
-0.040757146 0.093288571 0.95100003 10332528
-0.039068572 0.093582861 0.95400006 12302200
-0.037251431 0.093582861 0.95400006 13749646
-0.035434287 0.093582861 0.95400006 12107122
-0.033687621 0.09377905 0.95600003 8620093
-0.032133333 0.094563812 0.96400005 9279077
-0.030297145 0.094563812 0.96400005 15068861
-0.028549524 0.094858103 0.96700007 15658181
-0.026707619 0.094858103 0.96700007 16777177
-0.11085905 0.096200012 0.96200007 16777167
-0.10868668 0.095900007 0.95900005 15790278
-0.10686 0.095900007 0.95900005 12040077
-0.10470476 0.095600002 0.95600003 11646587
-0.10288381 0.095600002 0.95600003 10264934
-0.10085143 0.095400006 0.95400006 10659165
-0.099034294 0.095400006 0.95400006 13093506
-0.09691143 0.095100001 0.95100003 12306320
-0.09480001 0.09480001 0.94800007 7371845
-0.092798099 0.094599999 0.94600004 6060596
-0.090707622 0.094300002 0.94300002 6389561
-0.088911429 0.094300002 0.94300002 6324055
-0.087115236 0.094300002 0.94300002 6324055
-0.085047618 0.094000004 0.94000006 6061384
-0.083257146 0.094000004 0.94000006 5469247
-0.081466675 0.094000004 0.94000006 7634953
-0.079676196 0.094000004 0.94000006 12635221
-0.077885717 0.094000004 0.94000006 13026723
-0.075933337 0.093800001 0.93800002 12566172
-0.074146673 0.093800001 0.93800002 10789724
-0.072360002 0.093800001 0.93800002 8881727
-0.070573337 0.093800001 0.93800002 9012298
-0.068786673 0.093800001 0.93800002 8880712
-0.067142867 0.094000004 0.94000006 9011017
-0.06535238 0.094000004 0.94000006 9537361
-0.063561909 0.094000004 0.94000006 9208650
-0.06177143 0.094000004 0.94000006 8879685
-0.059980955 0.094000004 0.94000006 8682540
-0.058376193 0.094300002 0.94300002 11774811
-0.05658 0.094300002 0.94300002 11971697
-0.05478381 0.094300002 0.94300002 12629627
-0.053156193 0.094599999 0.94600004 11316336
-0.051354285 0.094599999 0.94600004 10263648
-0.049552381 0.094599999 0.94600004 9675602
-0.047851432 0.09480001 0.94800007 9807188
-0.046045717 0.09480001 0.94800007 9872742
-0.044240002 0.09480001 0.94800007 9412191
-0.042568572 0.095100001 0.95100003 10067793
-0.040757146 0.095100001 0.95100003 11383653
-0.039068572 0.095400006 0.95400006 12957309
-0.037251431 0.095400006 0.95400006 14273169
-0.035434287 0.095400006 0.95400006 12961431
-0.033687621 0.095600002 0.95600003 9342816
-0.032133333 0.0964 0.96400005 10197063
-0.030297145 0.0964 0.96400005 15723675
-0.028549524 0.096700005 0.96700007 15986372
-0.026707619 0.096700005 0.96700007 16777173
-0.11085905 0.098032385 0.96200007 16777154
-0.10902668 0.098032385 0.96200007 15790278
-0.10686 0.097726673 0.95900005 11711112
-0.10470476 0.097420953 0.95600003 11384435
-0.10288381 0.097420953 0.95600003 10134368
-0.10085143 0.097217143 0.95400006 10987130
-0.099034294 0.097217143 0.95400006 13421471
-0.09691143 0.09691143 0.95100003 13355397
-0.095100001 0.09691143 0.95100003 10921056
-0.092994288 0.096605718 0.94800007 6586198
-0.090707622 0.096096188 0.94300002 6191440
-0.088911429 0.096096188 0.94300002 5930331
-0.087115236 0.096096188 0.94300002 6259296
-0.085319042 0.096096188 0.94300002 6061135
-0.083257146 0.095790483 0.94000006 5534791
-0.081466675 0.095790483 0.94000006 7175229
-0.079676196 0.095790483 0.94000006 10399086
-0.077885717 0.095790483 0.94000006 12894580
-0.076095238 0.095790483 0.94000006 11578720
-0.074304767 0.095790483 0.94000006 10262363
-0.072514288 0.095790483 0.94000006 9209675
-0.070723809 0.095790483 0.94000006 9078602
-0.068933338 0.095790483 0.94000006 9210188
-0.067142867 0.095790483 0.94000006 9537615
-0.06535238 0.095790483 0.94000006 9603408
-0.063561909 0.095790483 0.94000006 9339982
-0.06177143 0.095790483 0.94000006 9142603
-0.060172379 0.096096188 0.94300002 9142857
-0.058376193 0.096096188 0.94300002 11774577
-0.05658 0.096096188 0.94300002 13155190
-0.05478381 0.096096188 0.94300002 13418362
-0.053156193 0.096401908 0.94600004 12105087
-0.051354285 0.096401908 0.94600004 10789227
-0.049657144 0.096605718 0.94800007 9544279
-0.047851432 0.096605718 0.94800007 8886349
-0.046045717 0.096605718 0.94800007 9544550
-0.044380002 0.09691143 0.95100003 9478757
-0.042568572 0.09691143 0.95100003 11053403
-0.040885717 0.097217143 0.95400006 12632435
-0.039068572 0.097217143 0.95400006 13089399
-0.037251431 0.097217143 0.95400006 13220985
-0.035434287 0.097217143 0.95400006 13025428
-0.033687621 0.097420953 0.95600003 12433291
-0.032133333 0.098236188 0.96400005 12434038
-0.030297145 0.098236188 0.96400005 15131551
-0.028549524 0.098541915 0.96700007 16184255
-0.026707619 0.098541915 0.96700007 16777164
-0.10902668 0.099864773 0.96200007 15855808
-0.10686 0.099553339 0.95900005 11645056
-0.10470476 0.099241905 0.95600003 11516007
-0.10288381 0.099241905 0.95600003 11516007
-0.10106286 0.099241905 0.95600003 12170364
-0.099034294 0.099034294 0.95400006 13486224
-0.097217143 0.099034294 0.95400006 14077314
-0.095100001 0.09872286 0.95100003 13090419
-0.092994288 0.098411433 0.94800007 8952443
-0.090996191 0.098203816 0.94600004 6386516
-0.088911429 0.097892381 0.94300002 5798471
-0.087115236 0.097892381 0.94300002 5798471
-0.085319042 0.097892381 0.94300002 5798444
-0.083257146 0.097580954 0.94000006 5666858
-0.081466675 0.097580954 0.94000006 6649903
-0.079676196 0.097580954 0.94000006 11584378
-0.077885717 0.097580954 0.94000006 12697735
-0.076095238 0.097580954 0.94000006 12302977
-0.074304767 0.097580954 0.94000006 10131290
-0.072514288 0.097580954 0.94000006 9078602
-0.070723809 0.097580954 0.94000006 9340488
-0.068933338 0.097580954 0.94000006 9537867
-0.067142867 0.097580954 0.94000006 9603154
-0.06535238 0.097580954 0.94000006 9537361
-0.063561909 0.097580954 0.94000006 9077832
-0.06177143 0.097580954 0.94000006 8880453
-0.060172379 0.097892381 0.94300002 9208648
-0.058376193 0.097892381 0.94300002 12761470
-0.05658 0.097892381 0.94300002 13352065
-0.05478381 0.097892381 0.94300002 13549444
-0.053156193 0.098203816 0.94600004 12959369
-0.051354285 0.098203816 0.94600004 11972474
-0.049657144 0.098411433 0.94800007 10070392
-0.047851432 0.098411433 0.94800007 9280876
-0.046045717 0.098411433 0.94800007 9412934
-0.044380002 0.09872286 0.95100003 9807692
-0.042568572 0.09872286 0.95100003 12038515
-0.040885717 0.099034294 0.95400006 12630652
-0.039068572 0.099034294 0.95400006 12759671
-0.037251431 0.099034294 0.95400006 12628085
-0.035508573 0.099241905 0.95600003 13418371
-0.033793334 0.099553339 0.95900005 13681543
-0.032233335 0.10038382 0.96700007 13616252
-0.03039143 0.10038382 0.96700007 15524249
-0.028549524 0.10038382 0.96700007 16053182
-0.10902668 0.10169715 0.96200007 16185286
-0.10686 0.10138001 0.95900005 11513983
-0.10503334 0.10138001 0.95900005 11909495
-0.10288381 0.10106286 0.95600003 13291148
-0.10106286 0.10106286 0.95600003 13749101
-0.099034294 0.10085143 0.95400006 12104276
-0.097217143 0.10085143 0.95400006 13286006
-0.095100001 0.10053429 0.95100003 14207108
-0.093288571 0.10053429 0.95100003 12236664
-0.090996191 0.10000572 0.94600004 9012807
-0.08919429 0.10000572 0.94600004 6455120
-0.087115236 0.099688575 0.94300002 6060362
-0.085319042 0.099688575 0.94300002 5995825
-0.083522864 0.099688575 0.94300002 7048513
-0.08172667 0.099688575 0.94300002 9013625
-0.079930477 0.099688575 0.94300002 13290170
-0.078134283 0.099688575 0.94300002 13879690
-0.076095238 0.099371433 0.94000006 14011276
-0.074304767 0.099371433 0.94000006 12629382
-0.072514288 0.099371433 0.94000006 10260834
-0.070723809 0.099371433 0.94000006 9209936
-0.068933338 0.099371433 0.94000006 8946764
-0.067142867 0.099371433 0.94000006 9078102
-0.065560959 0.099688575 0.94300002 9078102
-0.063764766 0.099688575 0.94300002 9668422
-0.061968572 0.099688575 0.94300002 10786903
-0.060172379 0.099688575 0.94300002 12036214
-0.058376193 0.099688575 0.94300002 14075797
-0.05658 0.099688575 0.94300002 13155699
-0.05478381 0.099688575 0.94300002 12892527
-0.053156193 0.10000572 0.94600004 13090176
-0.051354285 0.10000572 0.94600004 13616520
-0.049657144 0.10021715 0.94800007 12303247
-0.047851432 0.10021715 0.94800007 10790008
-0.046191432 0.10053429 0.95100003 10595425
-0.044380002 0.10053429 0.95100003 12240250
-0.042568572 0.10053429 0.95100003 13156723
-0.040885717 0.10085143 0.95400006 11446105
-0.039068572 0.10085143 0.95400006 9996124
-0.037329525 0.10106286 0.95600003 9140815
-0.035508573 0.10106286 0.95600003 10588752
-0.033793334 0.10138001 0.95900005 13681023
-0.032133333 0.10190857 0.96400005 13353591
-0.030297145 0.10190857 0.96400005 15590553
-0.028549524 0.10222572 0.96700007 16250548
-0.10902668 0.10352953 0.96200007 16317901
-0.10686 0.10320667 0.95900005 11317633
-0.10503334 0.10320667 0.95900005 11842671
-0.10320667 0.10320667 0.95900005 13882254
-0.10106286 0.10288381 0.95600003 14340252
-0.099241905 0.10288381 0.95600003 10655844
-0.097217143 0.10266858 0.95400006 11835712
-0.095400006 0.10266858 0.95400006 13612123
-0.093288571 0.10234572 0.95100003 14142875
-0.090996191 0.10180762 0.94600004 11774327
-0.08919429 0.10180762 0.94600004 7246158
-0.087115236 0.10148477 0.94300002 5206575
-0.085319042 0.10148477 0.94300002 6192384
-0.083522864 0.10148477 0.94300002 8166160
-0.08172667 0.10148477 0.94300002 12167550
-0.079930477 0.10148477 0.94300002 14141340
-0.078134283 0.10148477 0.94300002 14010492
-0.07633809 0.10148477 0.94300002 14207871
-0.074304767 0.10116191 0.94000006 13879965
-0.072514288 0.10116191 0.94000006 12432519
-0.070723809 0.10116191 0.94000006 9804653
-0.068933338 0.10116191 0.94000006 8159828
-0.067357138 0.10148477 0.94300002 8617508
-0.065560959 0.10148477 0.94300002 9078059
-0.063764766 0.10148477 0.94300002 9733934
-0.061968572 0.10148477 0.94300002 11905103
-0.060172379 0.10148477 0.94300002 13087880
-0.058376193 0.10148477 0.94300002 13153673
-0.056760002 0.10180762 0.94600004 12104819
-0.054958098 0.10180762 0.94600004 11512682
-0.053156193 0.10180762 0.94600004 12498282
-0.051354285 0.10180762 0.94600004 13682556
-0.049657144 0.10202286 0.94800007 13354136
-0.047851432 0.10202286 0.94800007 12235655
-0.046191432 0.10234572 0.95100003 11252342
-0.044380002 0.10234572 0.95100003 12699788
-0.042702857 0.10266858 0.95400006 13550736
-0.040971428 0.10288381 0.95600003 9603156
-0.039150476 0.10288381 0.95600003 9930563
-0.037329525 0.10288381 0.95600003 9535805
-0.035508573 0.10288381 0.95600003 9799461
-0.03389905 0.10352953 0.96200007 12628560
-0.032133333 0.10374477 0.96400005 13024365
-0.030297145 0.10374477 0.96400005 15721878
-0.028549524 0.10406763 0.96700007 16250570
-0.10686 0.10503334 0.95900005 11646596
-0.10503334 0.10503334 0.95900005 11645812
-0.10320667 0.10503334 0.95900005 12764293
-0.10106286 0.10470476 0.95600003 13221492
-0.099241905 0.10470476 0.95600003 9537084
-0.097217143 0.10448572 0.95400006 10127438
-0.095400006 0.10448572 0.95400006 11377505
-0.093288571 0.10415715 0.95100003 12694628
-0.090996191 0.10360952 0.94600004 14142074
-0.08919429 0.10360952 0.94600004 11712359
-0.087392382 0.10360952 0.94600004 9541190
-0.085319042 0.10328095 0.94300002 11185761
-0.083522864 0.10328095 0.94300002 13685895
-0.08172667 0.10328095 0.94300002 13879942
-0.079930477 0.10328095 0.94300002 12761461
-0.078134283 0.10328095 0.94300002 12037722
-0.07633809 0.10328095 0.94300002 12103515
-0.074541911 0.10328095 0.94300002 13221496
-0.072745718 0.10328095 0.94300002 14339977
-0.070949525 0.10328095 0.94300002 13090689
-0.069153331 0.10328095 0.94300002 10985313
-0.067357138 0.10328095 0.94300002 10458956
-0.065560959 0.10328095 0.94300002 10393163
-0.063764766 0.10328095 0.94300002 11575645
-0.061968572 0.10328095 0.94300002 14273158
-0.060172379 0.10328095 0.94300002 13089413
-0.058561906 0.10360952 0.94600004 10655072
-0.056760002 0.10360952 0.94600004 7765579
-0.054958098 0.10360952 0.94600004 6844477
-0.053156193 0.10360952 0.94600004 8750659
-0.051354285 0.10360952 0.94600004 11908723
-0.049657144 0.10382858 0.94800007 13287294
-0.048002861 0.10415715 0.95100003 13879431
-0.046191432 0.10415715 0.95100003 13814394
-0.044380002 0.10415715 0.95100003 13024878
-0.042702857 0.10448572 0.95400006 12169049
-0.040971428 0.10470476 0.95600003 9405743
-0.039150476 0.10470476 0.95600003 9602647
-0.037329525 0.10470476 0.95600003 9668440
-0.035508573 0.10470476 0.95600003 9668438
-0.033969525 0.10558096 0.96400005 11971193
-0.032133333 0.10558096 0.96400005 12827758
-0.03039143 0.10590953 0.96700007 15788443
-0.028549524 0.10590953 0.96700007 16447446
-0.10719429 0.10719429 0.96200007 12238231
-0.10536191 0.10719429 0.96200007 10594151
-0.10320667 0.10686 0.95900005 11581046
-0.10138001 0.10686 0.95900005 12234851
-0.099241905 0.10652572 0.95600003 9603131
-0.097420953 0.10652572 0.95600003 9471786
-0.095400006 0.10630286 0.95400006 9866544
-0.093582861 0.10630286 0.95400006 11506737
-0.091477141 0.10596858 0.95100003 14335836
-0.08919429 0.10541143 0.94600004 13682320
-0.087392382 0.10541143 0.94600004 12892804
-0.085590474 0.10541143 0.94600004 12368270
-0.083522864 0.10507714 0.94300002 13947302
-0.08172667 0.10507714 0.94300002 13879967
-0.079930477 0.10507714 0.94300002 11643005
-0.078134283 0.10507714 0.94300002 10658629
-0.07633809 0.10507714 0.94300002 10790215
-0.074541911 0.10507714 0.94300002 13088102
-0.072745718 0.10507714 0.94300002 14469755
-0.070949525 0.10507714 0.94300002 14339223
-0.069153331 0.10507714 0.94300002 12628605
-0.067357138 0.10507714 0.94300002 11049555
-0.065560959 0.10507714 0.94300002 11378520
-0.063764766 0.10507714 0.94300002 13218684
-0.061968572 0.10507714 0.94300002 13876614
-0.060172379 0.10507714 0.94300002 12565388
-0.058561906 0.10541143 0.94600004 8223050
-0.056760002 0.10541143 0.94600004 6060067
-0.054958098 0.10541143 0.94600004 5796895
-0.053156193 0.10541143 0.94600004 6585344
-0.051354285 0.10541143 0.94600004 9019679
-0.049657144 0.10563429 0.94800007 12563296
-0.048002861 0.10596858 0.95100003 14668672
-0.046191432 0.10596858 0.95100003 14535860
-0.044380002 0.10596858 0.95100003 12364691
-0.042702857 0.10630286 0.95400006 10589515
-0.040971428 0.10652572 0.95600003 9536827
-0.039150476 0.10652572 0.95600003 9340754
-0.037329525 0.10652572 0.95600003 9406547
-0.03562 0.10686 0.95900005 9078350
-0.033969525 0.10741714 0.96400005 12104828
-0.032233335 0.10775144 0.96700007 12631404
-0.03039143 0.10775144 0.96700007 15789468
-0.028549524 0.10775144 0.96700007 16513231
-0.026707619 0.10775144 0.96700007 16777175
-0.11270286 0.11084 0.97800004 16646106
-0.11084 0.11084 0.97800004 16646113
-0.10808572 0.10993333 0.97000003 13093291
-0.10558096 0.10925333 0.96400005 11119227
-0.10352953 0.10902668 0.96200007 11579778
-0.10138001 0.10868668 0.95900005 12103261
-0.099553339 0.10868668 0.95900005 9734713
-0.097420953 0.10834666 0.95600003 9603647
-0.095600002 0.10834666 0.95600003 9866819
-0.093582861 0.10812001 0.95400006 10719300
-0.091477141 0.10778 0.95100003 12627297
-0.089382865 0.10744001 0.94800007 13681534
-0.087392382 0.10721334 0.94600004 14273671
-0.085590474 0.10721334 0.94600004 13814660
-0.083788574 0.10721334 0.94600004 11972456
-0.08172667 0.10687333 0.94300002 11249787
-0.079930477 0.10687333 0.94300002 10723443
-0.078134283 0.10687333 0.94300002 10068325
-0.07633809 0.10687333 0.94300002 10068325
-0.074541911 0.10687333 0.94300002 11250516
-0.072745718 0.10687333 0.94300002 11645274
-0.070949525 0.10687333 0.94300002 13221233
-0.069153331 0.10687333 0.94300002 14339714
-0.067357138 0.10687333 0.94300002 14140563
-0.065560959 0.10687333 0.94300002 14403735
-0.063764766 0.10687333 0.94300002 13221262
-0.061968572 0.10687333 0.94300002 10589542
-0.060172379 0.10687333 0.94300002 7897676
-0.058561906 0.10721334 0.94600004 7108160
-0.056760002 0.10721334 0.94600004 6258514
-0.054958098 0.10721334 0.94600004 6126928
-0.053156193 0.10721334 0.94600004 6323773
-0.051354285 0.10721334 0.94600004 5994808
-0.049657144 0.10744001 0.94800007 9473809
-0.047851432 0.10744001 0.94800007 13092424
-0.046191432 0.10778 0.95100003 13221003
-0.044380002 0.10778 0.95100003 9997146
-0.042702857 0.10812001 0.95400006 9340234
-0.040971428 0.10834666 0.95600003 9537613
-0.039150476 0.10834666 0.95600003 9209688
-0.037446667 0.10868668 0.95900005 9209688
-0.035731431 0.10902668 0.96200007 10391382
-0.033969525 0.10925333 0.96400005 14009997
-0.032233335 0.10959334 0.96700007 13682038
-0.030485716 0.10993333 0.97000003 16247965
-0.028638097 0.10993333 0.97000003 16646093
-0.026790477 0.10993333 0.97000003 16711630
-0.11456572 0.11270286 0.97800004 16580572
-0.11270286 0.11270286 0.97800004 16711646
-0.11084 0.11270286 0.97800004 16711652
-0.10842 0.11212667 0.97300005 13356465
-0.10558096 0.11108953 0.96400005 11708766
-0.10374477 0.11108953 0.96400005 12103524
-0.10169715 0.11085905 0.96200007 11906411
-0.099553339 0.11051334 0.95900005 9866828
-0.097420953 0.11016762 0.95600003 9735494
-0.095600002 0.11016762 0.95600003 9801287
-0.093582861 0.10993715 0.95400006 9997637
-0.091765717 0.10993715 0.95400006 10458188
-0.089665718 0.10959143 0.95100003 13153650
-0.087577149 0.10924572 0.94800007 14995854
-0.085590474 0.10901524 0.94600004 13880987
-0.083788574 0.10901524 0.94600004 11051888
-0.081986673 0.10901524 0.94600004 9675100
-0.080184758 0.10901524 0.94600004 9806686
-0.078134283 0.10866953 0.94300002 9610072
-0.07633809 0.10866953 0.94300002 9741658
-0.074541911 0.10866953 0.94300002 9938006
-0.072745718 0.10866953 0.94300002 9806420
-0.070949525 0.10866953 0.94300002 11511630
-0.069153331 0.10866953 0.94300002 13880178
-0.067357138 0.10866953 0.94300002 14402715
-0.065560959 0.10866953 0.94300002 14468508
-0.063764766 0.10866953 0.94300002 12762510
-0.062165715 0.10901524 0.94600004 7828035
-0.060363814 0.10901524 0.94600004 6454055
-0.058561906 0.10901524 0.94600004 6585641
-0.056760002 0.10901524 0.94600004 6258771
-0.054958098 0.10901524 0.94600004 6258771
-0.053156193 0.10901524 0.94600004 6061641
-0.051462859 0.10924572 0.94800007 5601090
-0.049657144 0.10924572 0.94800007 6847744
-0.047851432 0.10924572 0.94800007 11716413
-0.046191432 0.10959143 0.95100003 12500645
-0.044380002 0.10959143 0.95100003 9210995
-0.042702857 0.10993715 0.95400006 8880955
-0.040971428 0.11016762 0.95600003 9078334
-0.039150476 0.11016762 0.95600003 8881482
-0.037446667 0.11051334 0.95900005 9013068
-0.035731431 0.11085905 0.96200007 11508055
-0.033969525 0.11108953 0.96400005 14666119
-0.032233335 0.11143525 0.96700007 13878652
-0.030485716 0.11178096 0.97000003 16775086
-0.028638097 0.11178096 0.97000003 16646104
-0.11491715 0.11491715 0.98100007 16646113
-0.11304858 0.11491715 0.98100007 16711650
-0.11084 0.11456572 0.97800004 16646116
-0.10864286 0.11421429 0.97500002 14606789
-0.10590953 0.11327715 0.96700007 13551763
-0.10374477 0.11292572 0.96400005 13946521
-0.10169715 0.11269144 0.96200007 13551740
-0.099553339 0.11234 0.95900005 9801539
-0.097420953 0.11198857 0.95600003 9341776
-0.095600002 0.11198857 0.95600003 9604948
-0.093582861 0.1117543 0.95400006 9800524
-0.091765717 0.1117543 0.95400006 9339973
-0.089665718 0.11140286 0.95100003 11970648
-0.087854289 0.11140286 0.95100003 14668161
-0.085590474 0.11081714 0.94600004 13684069
-0.083788574 0.11081714 0.94600004 10789177
-0.081986673 0.11081714 0.94600004 9807181
-0.080184758 0.11081714 0.94600004 10004560
-0.078382857 0.11081714 0.94600004 10069851
-0.076580957 0.11081714 0.94600004 10135644
-0.074541911 0.11046572 0.94300002 10004317
-0.072745718 0.11046572 0.94300002 9872731
-0.07117524 0.11081714 0.94600004 10856028
-0.069373332 0.11081714 0.94600004 12106095
-0.067571431 0.11081714 0.94600004 12892036
-0.065769531 0.11081714 0.94600004 12365692
-0.063967615 0.11081714 0.94600004 11383133
-0.062165715 0.11081714 0.94600004 7238174
-0.060363814 0.11081714 0.94600004 6127425
-0.058561906 0.11081714 0.94600004 6259011
-0.056760002 0.11081714 0.94600004 6258771
-0.054958098 0.11081714 0.94600004 6258771
-0.053268574 0.11105144 0.94800007 6127438
-0.051462859 0.11105144 0.94800007 6061645
-0.049814284 0.11140286 0.95100003 7634234
-0.048002861 0.11140286 0.95100003 11647607
-0.046337146 0.1117543 0.95400006 12893833
-0.044520002 0.1117543 0.95400006 10591078
-0.042702857 0.1117543 0.95400006 8946516
-0.040971428 0.11198857 0.95600003 8946516
-0.039150476 0.11198857 0.95600003 9471313
-0.037446667 0.11234 0.95900005 10918759
-0.035805713 0.11292572 0.96400005 11575667
-0.033969525 0.11292572 0.96400005 12694148
-0.032233335 0.11327715 0.96700007 12958579
-0.03039143 0.11327715 0.96700007 16776115
-0.028549524 0.11327715 0.96700007 16646097
-0.11491715 0.11678572 0.98100007 16646111
-0.11304858 0.11678572 0.98100007 16711648
-0.11084 0.11642858 0.97800004 16711650
-0.10864286 0.11607143 0.97500002 14935495
-0.10590953 0.11511905 0.96700007 14998175
-0.10374477 0.11476191 0.96400005 14142866
-0.10190857 0.11476191 0.96400005 13551511
-0.099553339 0.11416667 0.95900005 10327654
-0.097420953 0.11380953 0.95600003 9275477
-0.095600002 0.11380953 0.95600003 9407063
-0.093582861 0.11357144 0.95400006 9012514
-0.091765717 0.11357144 0.95400006 9275686
-0.08994858 0.11357144 0.95400006 11247184
-0.087854289 0.11321429 0.95100003 14273662
-0.085771434 0.11285715 0.94800007 12369774
-0.083788574 0.11261906 0.94600004 10593363
-0.081986673 0.11261906 0.94600004 9938524
-0.080184758 0.11261906 0.94600004 10004317
-0.078382857 0.11261906 0.94600004 10004319
-0.076580957 0.11261906 0.94600004 10004319
-0.074779049 0.11261906 0.94600004 9938776
-0.072977141 0.11261906 0.94600004 9807190
-0.07117524 0.11261906 0.94600004 10265956
-0.069373332 0.11261906 0.94600004 11581816
-0.067571431 0.11261906 0.94600004 11974282
-0.065769531 0.11261906 0.94600004 11908489
-0.063967615 0.11261906 0.94600004 9610597
-0.062165715 0.11261906 0.94600004 6452533
-0.060363814 0.11261906 0.94600004 6061645
-0.05868572 0.11285715 0.94800007 6324817
-0.056880001 0.11285715 0.94800007 6390105
-0.055074289 0.11285715 0.94800007 6258519
-0.053268574 0.11285715 0.94800007 5733191
-0.051625714 0.11321429 0.95100003 5798984
-0.049814284 0.11321429 0.95100003 7896890
-0.048002861 0.11321429 0.95100003 12436607
-0.046337146 0.11357144 0.95400006 13484943
-0.044520002 0.11357144 0.95400006 12234876
-0.042702857 0.11357144 0.95400006 10196070
-0.040971428 0.11380953 0.95600003 8880210
-0.039273337 0.11416667 0.95900005 9733420
-0.037563812 0.11452381 0.96200007 12628312
-0.035805713 0.11476191 0.96400005 12171134
-0.033969525 0.11476191 0.96400005 11118446
-0.032133333 0.11476191 0.96400005 11447641
-0.030297145 0.11476191 0.96400005 16777131
-0.028549524 0.11511905 0.96700007 16646099
-0.11456572 0.11829144 0.97800004 16580318
-0.11270286 0.11829144 0.97800004 16646111
-0.1105 0.11792857 0.97500002 16711650
-0.10864286 0.11792857 0.97500002 15725011
-0.10656667 0.11768667 0.97300005 15722923
-0.10406763 0.11696096 0.96700007 13156996
-0.10190857 0.1165981 0.96400005 13288834
-0.099864773 0.1163562 0.96200007 12301939
-0.097726673 0.11599334 0.95900005 9867646
-0.095600002 0.11563048 0.95600003 9407095
-0.09377905 0.11563048 0.95600003 9800015
-0.091765717 0.11538857 0.95400006 11708012
-0.08994858 0.11538857 0.95400006 12957311
-0.087854289 0.11502572 0.95100003 14536343
-0.085771434 0.11466286 0.94800007 13487469
-0.083788574 0.11442096 0.94600004 11711058
-0.081986673 0.11442096 0.94600004 9873013
-0.080184758 0.11442096 0.94600004 9675634
-0.078382857 0.11442096 0.94600004 9806949
-0.076580957 0.11442096 0.94600004 9741156
-0.074779049 0.11442096 0.94600004 9741138
-0.072977141 0.11442096 0.94600004 9741138
-0.07117524 0.11442096 0.94600004 10462315
-0.069373332 0.11442096 0.94600004 12370312
-0.067571431 0.11442096 0.94600004 13353359
-0.065769531 0.11442096 0.94600004 13484945
-0.063967615 0.11442096 0.94600004 11910520
-0.062165715 0.11442096 0.94600004 6778666
-0.060363814 0.11442096 0.94600004 5537106
-0.05868572 0.11466286 0.94800007 5866071
-0.056880001 0.11466286 0.94800007 6061917
-0.055074289 0.11466286 0.94800007 5930331
-0.053268574 0.11466286 0.94800007 6651476
-0.051625714 0.11502572 0.95100003 8625266
-0.049814284 0.11502572 0.95100003 11446655
-0.048002861 0.11502572 0.95100003 13552031
-0.046337146 0.11538857 0.95400006 13879165
-0.044520002 0.11538857 0.95400006 14208130
-0.042702857 0.11538857 0.95400006 12958338
-0.040971428 0.11563048 0.95600003 10589790
-0.039273337 0.11599334 0.95900005 11115346
-0.037563812 0.1163562 0.96200007 13549687
-0.035805713 0.1165981 0.96400005 11645553
-0.034075242 0.11696096 0.96700007 7895352
-0.032133333 0.1165981 0.96400005 10395993
-0.030297145 0.1165981 0.96400005 16646072
-0.028549524 0.11696096 0.96700007 16646101
-0.026707619 0.11696096 0.96700007 16646101
-0.11456572 0.12015428 0.97800004 16580318
-0.11270286 0.12015428 0.97800004 16646111
-0.1105 0.11978571 0.97500002 16711652
-0.10864286 0.11978571 0.97500002 16514529
-0.1062381 0.11917143 0.97000003 15526323
-0.10406763 0.11880287 0.96700007 12236673
-0.10222572 0.11880287 0.96700007 12565615
-0.099864773 0.11818857 0.96200007 12499822
-0.097726673 0.11782 0.95900005 11117690
-0.095600002 0.11745143 0.95600003 9143900
-0.09377905 0.11745143 0.95600003 9799202
-0.091765717 0.11720572 0.95400006 13154645
-0.08994858 0.11720572 0.95400006 14139795
-0.088131428 0.11720572 0.95400006 14600346
-0.086042859 0.11683714 0.95100003 13290858
-0.084231429 0.11683714 0.95100003 12501342
-0.082160003 0.11646858 0.94800007 9809040
-0.080184758 0.11622286 0.94600004 9151110
-0.078382857 0.11622286 0.94600004 9215314
-0.076580957 0.11622286 0.94600004 9675865
-0.074779049 0.11622286 0.94600004 9740877
-0.072977141 0.11622286 0.94600004 9740877
-0.07117524 0.11622286 0.94600004 10527581
-0.069373332 0.11622286 0.94600004 13356680
-0.067571431 0.11622286 0.94600004 14076308
-0.065769531 0.11622286 0.94600004 13747343
-0.063967615 0.11622286 0.94600004 12632457
-0.062165715 0.11622286 0.94600004 9605979
-0.060491435 0.11646858 0.94800007 6062423
-0.05868572 0.11646858 0.94800007 5733458
-0.056880001 0.11646858 0.94800007 5207349
-0.055074289 0.11646858 0.94800007 5470521
-0.053268574 0.11646858 0.94800007 7044645
-0.051625714 0.11683714 0.95100003 10992225
-0.049814284 0.11683714 0.95100003 12827538
-0.048154291 0.11720572 0.95400006 12695952
-0.046337146 0.11720572 0.95400006 13089388
-0.044520002 0.11720572 0.95400006 14010490
-0.042792384 0.11745143 0.95600003 13879965
-0.041100003 0.11782 0.95900005 12958863
-0.039396197 0.11818857 0.96200007 11774325
-0.037563812 0.11818857 0.96200007 12169083
-0.035805713 0.11843429 0.96400005 11316046
-0.034075242 0.11880287 0.96700007 8223775
-0.032133333 0.11843429 0.96400005 9541197
-0.030297145 0.11843429 0.96400005 16646073
-0.028549524 0.11880287 0.96700007 16646099
-0.026707619 0.11880287 0.96700007 16646099
-0.11235715 0.12164287 0.97500002 16646111
-0.1105 0.12164287 0.97500002 16711650
-0.10864286 0.12164287 0.97500002 16448734
-0.1062381 0.12101905 0.97000003 15658152
-0.10406763 0.12064477 0.96700007 11052642
-0.10222572 0.12064477 0.96700007 11579497
-0.10007238 0.12027048 0.96400005 12895357
-0.097726673 0.11964667 0.95900005 12498823
-0.095600002 0.11927239 0.95600003 11643514
-0.09377905 0.11927239 0.95600003 12826216
-0.091958091 0.11927239 0.95600003 14471041
-0.08994858 0.11902286 0.95400006 13485459
-0.088131428 0.11902286 0.95400006 11314290
-0.086314291 0.11902286 0.95400006 11974979
-0.084231429 0.11864857 0.95100003 13488218
-0.082160003 0.11827429 0.94800007 12106645
-0.080354296 0.11827429 0.94800007 10659199
-0.078548573 0.11827429 0.94800007 10069858
-0.076742865 0.11827429 0.94800007 9938272
-0.074779049 0.11802477 0.94600004 10331990
-0.072977141 0.11802477 0.94600004 11845229
-0.07117524 0.11802477 0.94600004 13222773
-0.069373332 0.11802477 0.94600004 14143875
-0.067571431 0.11802477 0.94600004 13879924
-0.065769531 0.11802477 0.94600004 12695650
-0.063967615 0.11802477 0.94600004 12565372
-0.062165715 0.11802477 0.94600004 13223302
-0.060491435 0.11827429 0.94800007 10923904
-0.05868572 0.11827429 0.94800007 8357977
-0.056880001 0.11827429 0.94800007 7835726
-0.055074289 0.11827429 0.94800007 7769933
-0.053268574 0.11827429 0.94800007 10132312
-0.051625714 0.11864857 0.95100003 13553548
-0.049814284 0.11864857 0.95100003 12827515
-0.048154291 0.11902286 0.95400006 11511655
-0.046337146 0.11902286 0.95400006 11250525
-0.044613335 0.11927239 0.95600003 11579490
-0.042926669 0.11964667 0.95900005 12564609
-0.041228574 0.12002096 0.96200007 13748883
-0.039396197 0.12002096 0.96200007 13682804
-0.037641905 0.12027048 0.96400005 11709014
-0.035805713 0.12027048 0.96400005 9344588
-0.034075242 0.12064477 0.96700007 8226107
-0.032133333 0.12027048 0.96400005 10068077
-0.030297145 0.12027048 0.96400005 16449486
-0.028460953 0.12027048 0.96400005 16646095
-0.026707619 0.12064477 0.96700007 16646095
-0.024865715 0.12064477 0.96700007 16580579
-0.1105 0.1235 0.97500002 16711650
-0.10864286 0.1235 0.97500002 16711650
-0.1062381 0.12286668 0.97000003 15527872
-0.10406763 0.12248667 0.96700007 11119741
-0.10222572 0.12248667 0.96700007 10987621
-0.10007238 0.12210667 0.96400005 11711344
-0.098032385 0.12185334 0.96200007 13614987
-0.095900007 0.12147333 0.95900005 13812366
-0.09377905 0.12109333 0.95600003 13614735
-0.091958091 0.12109333 0.95600003 14009493
-0.090137146 0.12109333 0.95600003 12895653
-0.088131428 0.12084001 0.95400006 8421729
-0.086314291 0.12084001 0.95400006 9801984
-0.084497146 0.12084001 0.95400006 12828450
-0.082419999 0.12046 0.95100003 13748379
-0.080354296 0.12008001 0.94800007 11906175
-0.078548573 0.12008001 0.94800007 9939026
-0.076742865 0.12008001 0.94800007 9675854
-0.07493715 0.12008001 0.94800007 10397526
-0.073131435 0.12008001 0.94800007 12634488
-0.071325719 0.12008001 0.94800007 13616522
-0.069373332 0.11982667 0.94600004 13287557
-0.067571431 0.11982667 0.94600004 12564611
-0.065769531 0.11982667 0.94600004 12038267
-0.063967615 0.11982667 0.94600004 12760943
-0.062297143 0.12008001 0.94800007 14011010
-0.060491435 0.12008001 0.94800007 13354645
-0.05868572 0.12008001 0.94800007 10459753
-0.056880001 0.12008001 0.94800007 8819001
-0.055248573 0.12046 0.95100003 9016380
-0.053437144 0.12046 0.95100003 12759910
-0.051788572 0.12084001 0.95400006 13746805
-0.049971428 0.12084001 0.95400006 12630915
-0.048154291 0.12084001 0.95400006 10591332
-0.046434287 0.12109333 0.95600003 9675865
-0.044613335 0.12109333 0.95600003 9873244
-0.042926669 0.12147333 0.95900005 11513186
-0.041228574 0.12185334 0.96200007 13881734
-0.039478097 0.12210667 0.96400005 14078648
-0.037641905 0.12210667 0.96400005 9802103
-0.035917144 0.12248667 0.96700007 8096526
-0.034075242 0.12248667 0.96700007 8359698
-0.032233335 0.12248667 0.96700007 10659953
-0.03039143 0.12248667 0.96700007 16711629
-0.028549524 0.12248667 0.96700007 16646106
