# .PCD v0.7 - Point Cloud Data file format
VERSION 0.7
FIELDS x y z rgba
SIZE 4 4 4 4
TYPE F F F U
COUNT 1 1 1 1
WIDTH 1135
HEIGHT 1
VIEWPOINT 0 0 0 1 0 0 0
POINTS 1135
DATA ascii
-0.067044765 0.17723715 0.69700003 15456939
-0.057420004 0.15486 0.60900003 15259294
-0.056260001 0.15486 0.60900003 15061915
-0.055100001 0.15486 0.60900003 13482647
-0.053940002 0.15486 0.60900003 12561545
-0.052780002 0.15486 0.60900003 12166017
-0.051620003 0.15486 0.60900003 11508087
-0.050542857 0.15511429 0.61000001 11440988
-0.049461905 0.15536857 0.611 11243609
-0.048298094 0.15536857 0.611 10784614
-0.047211431 0.15562285 0.61200005 10455649
-0.046045717 0.15562285 0.61200005 10852444
-0.044953335 0.15587714 0.61300004 11247202
-0.043857146 0.15613143 0.61400002 9998708
-0.042757142 0.15638572 0.61500001 8551262
-0.041653335 0.15664001 0.61600006 8553028
-0.040480006 0.15664001 0.61600006 8421442
-0.039434288 0.15714858 0.61800003 9011753
-0.038257144 0.15714858 0.61800003 10919750
-0.037080001 0.15714858 0.61800003 11314026
-0.036019046 0.15765715 0.62 10721889
-0.034950476 0.15816572 0.62200004 9868622
-0.033874284 0.15867428 0.62400001 8618555
-0.032738093 0.15892857 0.625 8094553
-0.031648573 0.15943715 0.62700003 8423518
-0.030551426 0.15994573 0.62900001 8292693
-0.029446669 0.16045429 0.63100004 8095314
-0.028289525 0.16070858 0.63200003 9472338
-0.027171429 0.16121714 0.634 11709300
-0.026045715 0.16172573 0.63600004 10527606
-0.024873333 0.16198 0.63700002 7106370
-0.02366 0.16198 0.63700002 10067314
-0.022552382 0.16274285 0.64000005 16449235
-0.098528571 0.16063143 0.62700003 11905911
-0.096868575 0.15986286 0.62400001 11773823
-0.09537334 0.15935048 0.62200004 9602654
-0.094037145 0.15909429 0.62100005 9078100
-0.092854291 0.15909429 0.62100005 8814928
-0.091523804 0.15883809 0.62 9472849
-0.090197146 0.1585819 0.61900002 10393951
-0.088874295 0.15832572 0.61800003 11509359
-0.087413341 0.15781334 0.61600006 11246187
-0.085820004 0.15704477 0.61300004 10589790
-0.08451429 0.15678857 0.61200005 9734481
-0.08334858 0.15678857 0.61200005 9996356
-0.082048573 0.15653238 0.611 10193735
-0.080884762 0.15653238 0.611 11310944
-0.079720952 0.15653238 0.611 11047772
-0.078557141 0.15653238 0.611 10916420
-0.087400004 0.17677145 0.69000006 11376971
-0.086085722 0.17677145 0.69000006 12428655
-0.084771439 0.17677145 0.69000006 13612929
-0.08345715 0.17677145 0.69000006 13286042
-0.082261913 0.17702763 0.69100004 13549214
-0.080945715 0.17702763 0.69100004 14009245
-0.079860002 0.17754 0.69300002 14206624
-0.078993335 0.17856477 0.69700003 14403753
-0.077665716 0.17856477 0.69700003 14601132
-0.076338097 0.17856477 0.69700003 14667434
-0.075010478 0.17856477 0.69700003 14535848
-0.07368286 0.17856477 0.69700003 14207142
-0.072355241 0.17856477 0.69700003 14075556
-0.071129531 0.17882095 0.69800001 13616303
-0.060900003 0.15602002 0.60900003 13287338
-0.059739999 0.15602002 0.60900003 13483419
-0.058580004 0.15602002 0.60900003 13417626
-0.057420004 0.15602002 0.60900003 13220229
-0.056260001 0.15602002 0.60900003 12167541
-0.055100001 0.15602002 0.60900003 11115357
-0.053940002 0.15602002 0.60900003 10391634
-0.052780002 0.15602002 0.60900003 10325605
-0.051620003 0.15602002 0.60900003 9865054
-0.050542857 0.15627618 0.61000001 9996626
-0.049461905 0.15653238 0.611 10062419
-0.048298094 0.15653238 0.611 10193753
-0.047211431 0.15678857 0.61200005 10851683
-0.046045717 0.15678857 0.61200005 11115366
-0.044953335 0.15704477 0.61300004 11378538
-0.043928571 0.15755714 0.61500001 9868397
-0.042826667 0.15781334 0.61600006 8223572
-0.041653335 0.15781334 0.61600006 6451461
-0.040611431 0.15832572 0.61800003 6977805
-0.039434288 0.15832572 0.61800003 8091664
-0.038257144 0.15832572 0.61800003 11249728
-0.037140001 0.1585819 0.61900002 11117685
-0.036019046 0.15883809 0.62 9670239
-0.035006665 0.15960667 0.62300003 9145167
-0.033928569 0.16011904 0.625 8421444
-0.032842856 0.16063143 0.62700003 7765842
-0.031699046 0.16088763 0.62800002 8357979
-0.030551426 0.16114381 0.62900001 8357975
-0.029493336 0.1619124 0.63200003 8226389
-0.028289525 0.1619124 0.63200003 9210188
-0.027214289 0.16268097 0.63500005 11381357
-0.026086668 0.16319335 0.63700002 10462072
-0.024912382 0.16344953 0.63800001 8290903
-0.023697143 0.16344953 0.63800001 10789240
-0.022552382 0.16396192 0.64000005 16776660
-0.10123905 0.16234191 0.62900001 9670248
-0.09988191 0.1620838 0.62800002 10392938
-0.098528571 0.16182572 0.62700003 11774591
-0.097023807 0.16130953 0.625 11249519
-0.095526665 0.16079333 0.62300003 8815178
-0.094037145 0.16027716 0.62100005 8291162
-0.092854291 0.16027716 0.62100005 8027990
-0.091523804 0.16001906 0.62 8421714
-0.090197146 0.15976095 0.61900002 9342816
-0.088874295 0.15950286 0.61800003 10984811
-0.087413341 0.15898669 0.61600006 11247983
-0.085820004 0.15821239 0.61300004 10656096
-0.08451429 0.15795431 0.61200005 8353341
-0.08334858 0.15795431 0.61200005 8484689
-0.082048573 0.15769619 0.611 9208412
-0.080884762 0.15769619 0.611 9601873
-0.079720952 0.15769619 0.611 10654561
-0.078557141 0.15769619 0.611 10916963
-0.077393331 0.15769619 0.611 11180135
-0.07622952 0.15769619 0.611 10982747
-0.084771439 0.17808573 0.69000006 10587989
-0.08345715 0.17808573 0.69000006 10258785
-0.072499998 0.15718 0.60900003 9732441
-0.071340002 0.15718 0.60900003 9995350
-0.070179999 0.15718 0.60900003 10192729
-0.068906672 0.15692191 0.60800004 10586712
-0.067748569 0.15692191 0.60800004 10586712
-0.066590481 0.15692191 0.60800004 10455901
-0.065432385 0.15692191 0.60800004 10258522
-0.064274289 0.15692191 0.60800004 10127195
-0.063116193 0.15692191 0.60800004 10127195
-0.061958101 0.15692191 0.60800004 9930348
-0.060900003 0.15718 0.60900003 9798762
-0.059739999 0.15718 0.60900003 9996644
-0.058580004 0.15718 0.60900003 9865058
-0.057420004 0.15718 0.60900003 10390871
-0.056260001 0.15718 0.60900003 10654043
-0.055100001 0.15718 0.60900003 10654556
-0.054028571 0.15743808 0.61000001 10720349
-0.052866668 0.15743808 0.61000001 10655342
-0.051704761 0.15743808 0.61000001 9536861
-0.050625715 0.15769619 0.611 9142605
-0.049542859 0.15795431 0.61200005 9142605
-0.048377149 0.15795431 0.61200005 9865810
-0.047288574 0.15821239 0.61300004 11247463
-0.046120953 0.15821239 0.61300004 11377773
-0.045026667 0.15847048 0.61400002 11377773
-0.043928571 0.15872858 0.61500001 10524543
-0.042826667 0.15898669 0.61600006 10129785
-0.041653335 0.15898669 0.61600006 8882763
-0.040611431 0.15950286 0.61800003 8553798
-0.039434288 0.15950286 0.61800003 9274979
-0.038257144 0.15950286 0.61800003 11380355
-0.037140001 0.15976095 0.61900002 10855517
-0.036019046 0.16001906 0.62 9013313
-0.035006665 0.16079333 0.62300003 8226382
-0.033928569 0.16130953 0.625 8029003
-0.032842856 0.16182572 0.62700003 7962972
-0.031699046 0.1620838 0.62800002 8423523
-0.0306 0.16260001 0.63000005 8357730
-0.029446669 0.1628581 0.63100004 8423523
-0.028379047 0.16363238 0.634 9539162
-0.027214289 0.16389048 0.63500005 11973503
-0.026086668 0.16440667 0.63700002 10592896
-0.024912382 0.16466478 0.63800001 8487520
-0.023697143 0.16466478 0.63800001 11448205
-0.02258762 0.16543905 0.64100003 16580059
-0.10123905 0.16353999 0.62900001 10393466
-0.09988191 0.16328 0.62800002 9932889
-0.098528571 0.16302 0.62700003 11182956
-0.097023807 0.16249999 0.625 9803631
-0.095680006 0.16224 0.62400001 8290392
-0.094188571 0.16172001 0.62200004 8226132
-0.093003817 0.16172001 0.62200004 8226132
-0.091523804 0.16119999 0.62 8028231
-0.090197146 0.16093999 0.61900002 8554575
-0.088874295 0.16068 0.61800003 9802073
-0.087413341 0.16016001 0.61600006 10591589
-0.085960001 0.15964001 0.61400002 10459240
-0.084652379 0.15938002 0.61300004 8222278
-0.08334858 0.15912002 0.61200005 7432741
-0.082182862 0.15912002 0.61200005 8551222
-0.081017151 0.15912002 0.61200005 8485943
-0.079720952 0.15886 0.611 10459733
-0.078557141 0.15886 0.611 11049830
-0.077266671 0.1586 0.61000001 10984037
-0.076104768 0.1586 0.61000001 11048812
-0.074820004 0.15834001 0.60900003 10193503
-0.073660001 0.15834001 0.60900003 9865315
-0.072499998 0.15834001 0.60900003 9207385
-0.071340002 0.15834001 0.60900003 9273419
-0.070179999 0.15834001 0.60900003 9470798
-0.068906672 0.15808001 0.60800004 10324574
-0.067748569 0.15808001 0.60800004 10324574
-0.066590481 0.15808001 0.60800004 9931864
-0.065432385 0.15808001 0.60800004 9602899
-0.064274289 0.15808001 0.60800004 9602127
-0.063116193 0.15808001 0.60800004 9602127
-0.061958101 0.15808001 0.60800004 9602386
-0.060900003 0.15834001 0.60900003 9602386
-0.059739999 0.15834001 0.60900003 9800537
-0.058580004 0.15834001 0.60900003 9603158
-0.057420004 0.15834001 0.60900003 10063448
-0.056260001 0.15834001 0.60900003 10655585
-0.055100001 0.15834001 0.60900003 11048549
-0.054028571 0.1586 0.61000001 11180135
-0.052866668 0.1586 0.61000001 10786928
-0.051704761 0.1586 0.61000001 8221001
-0.050625715 0.15886 0.611 8023858
-0.049542859 0.15912002 0.61200005 8352823
-0.048377149 0.15912002 0.61200005 9404746
-0.047288574 0.15938002 0.61300004 10654813
-0.046196189 0.15964001 0.61400002 10917724
-0.0451 0.15990001 0.61500001 11312482
-0.044000003 0.16016001 0.61600006 11181434
-0.042826667 0.16016001 0.61600006 10918262
-0.041788574 0.16068 0.61800003 10328921
-0.040611431 0.16068 0.61800003 10131542
-0.039434288 0.16068 0.61800003 10064736
-0.038319048 0.16093999 0.61900002 10262115
-0.037140001 0.16093999 0.61900002 9802075
-0.036135238 0.16172001 0.62200004 8683594
-0.035006665 0.16198 0.62300003 8028744
-0.033928569 0.16249999 0.625 8160330
-0.032842856 0.16302 0.62700003 8028494
-0.031699046 0.16328 0.62800002 8225873
-0.0306 0.16380002 0.63000005 8029014
-0.029446669 0.16406001 0.63100004 8423772
-0.028379047 0.16484 0.634 9867614
-0.027214289 0.16510001 0.63500005 11907197
-0.026086668 0.16562 0.63700002 11183994
-0.024912382 0.16587999 0.63800001 10394478
-0.023697143 0.16587999 0.63800001 12368513
-0.10123905 0.1647381 0.62900001 11182982
-0.09988191 0.1644762 0.62800002 10327908
-0.098528571 0.16421428 0.62700003 11183217
-0.097023807 0.16369048 0.625 10328946
-0.095680006 0.16342857 0.62400001 8552535
-0.094340004 0.16316667 0.62300003 8095568
-0.093153335 0.16316667 0.62300003 8424533
-0.09167143 0.16264287 0.62100005 7962969
-0.090342857 0.16238095 0.62 8028762
-0.089018099 0.16211905 0.61900002 9276733
-0.087697141 0.16185716 0.61800003 9934663
-0.086099997 0.16107142 0.61500001 10261086
-0.084790483 0.16080953 0.61400002 9471570
-0.083484761 0.16054763 0.61300004 9340502
-0.082317151 0.16054763 0.61300004 9274709
-0.081017151 0.16028573 0.61200005 9603170
-0.079851434 0.16028573 0.61200005 10919030
-0.078557141 0.16002381 0.611 10786649
-0.077266671 0.15976191 0.61000001 10720856
-0.076104768 0.15976191 0.61000001 10392170
-0.074820004 0.1595 0.60900003 8484173
-0.073660001 0.1595 0.60900003 6184011
-0.072499998 0.1595 0.60900003 5460288
-0.071340002 0.1595 0.60900003 6971711
-0.070179999 0.1595 0.60900003 9340259
-0.068906672 0.1592381 0.60800004 10390882
-0.067748569 0.1592381 0.60800004 11246191
-0.066590481 0.1592381 0.60800004 10522959
-0.065432385 0.1592381 0.60800004 10128201
-0.064274289 0.1592381 0.60800004 9209427
-0.063116193 0.1592381 0.60800004 8222532
-0.061958101 0.1592381 0.60800004 8026675
-0.060900003 0.1595 0.60900003 8421433
-0.059739999 0.1595 0.60900003 8947018
-0.058580004 0.1595 0.60900003 9802327
-0.057514288 0.15976191 0.61000001 10326359
-0.056352381 0.15976191 0.61000001 10918496
-0.055190478 0.15976191 0.61000001 10983517
-0.054028571 0.15976191 0.61000001 10391380
-0.052866668 0.15976191 0.61000001 9339975
-0.051789526 0.16002381 0.611 6708255
-0.050708573 0.16028573 0.61200005 6971436
-0.049542859 0.16028573 0.61200005 7168815
-0.048456192 0.16054763 0.61300004 7431478
-0.047365714 0.16080953 0.61400002 7892029
-0.046271428 0.16107142 0.61500001 9272869
-0.045173336 0.16133334 0.61600006 10786108
-0.044000003 0.16133334 0.61600006 10982513
-0.042965718 0.16185716 0.61800003 11574650
-0.041788574 0.16185716 0.61800003 11510365
-0.040611431 0.16185716 0.61800003 11970916
-0.039498094 0.16211905 0.61900002 10326877
-0.038319048 0.16211905 0.61900002 9734740
-0.037260003 0.16264287 0.62100005 8881745
-0.036135238 0.16290477 0.62200004 8421194
-0.035062857 0.16342857 0.62400001 8094537
-0.033928569 0.16369048 0.625 8686674
-0.032842856 0.16421428 0.62700003 8423504
-0.031699046 0.1644762 0.62800002 8620883
-0.0306 0.16500001 0.63000005 8423523
-0.029493336 0.16552381 0.63200003 8949867
-0.028423812 0.16630954 0.63500005 10196574
-0.027257143 0.16657144 0.63600004 12565122
-0.026086668 0.16683334 0.63700002 12038524
-0.024912382 0.16709523 0.63800001 11709559
-0.023771429 0.16761906 0.64000005 12565127
-0.10123905 0.16593619 0.62900001 11315073
-0.09988191 0.16567239 0.62800002 10786390
-0.098528571 0.16540858 0.62700003 11312734
-0.097023807 0.16488095 0.625 10132594
-0.095680006 0.16461715 0.62400001 8487769
-0.09449143 0.16461715 0.62400001 7964493
-0.093302861 0.16461715 0.62400001 8161872
-0.091819048 0.16408953 0.62200004 7372874
-0.090488575 0.16382572 0.62100005 7372874
-0.08916191 0.16356191 0.62 8159294
-0.087839052 0.16329809 0.61900002 8817224
-0.086520009 0.16303429 0.61800003 10195032
-0.085066676 0.16250668 0.61600006 9931860
-0.08375714 0.16224284 0.61500001 10193494
-0.082451433 0.16197905 0.61400002 10522459
-0.081149533 0.16171524 0.61300004 10983780
-0.079851434 0.16145144 0.61200005 10589022
-0.078557141 0.16118762 0.611 10588772
-0.077393331 0.16118762 0.611 10325600
-0.076104768 0.16092381 0.61000001 9209196
-0.074942857 0.16092381 0.61000001 7103820
-0.073780954 0.16092381 0.61000001 5135658
-0.072499998 0.16066001 0.60900003 4214556
-0.071340002 0.16066001 0.60900003 5199616
-0.070179999 0.16066001 0.60900003 6844438
-0.069020003 0.16066001 0.60900003 9666371
-0.067860007 0.16066001 0.60900003 10587473
-0.066700004 0.16066001 0.60900003 10719836
-0.065432385 0.1603962 0.60800004 10325078
-0.064274289 0.1603962 0.60800004 8947538
-0.063220002 0.16066001 0.60900003 7894850
-0.062060002 0.16066001 0.60900003 6845992
-0.060900003 0.16066001 0.60900003 6977578
-0.059838098 0.16092381 0.61000001 7764534
-0.058676191 0.16092381 0.61000001 9277773
-0.057514288 0.16092381 0.61000001 10062415
-0.05644476 0.16118762 0.611 10851931
-0.055280954 0.16118762 0.611 10524010
-0.054117143 0.16118762 0.611 9208150
-0.052953333 0.16118762 0.611 7893054
-0.051874291 0.16145144 0.61200005 6840366
-0.050708573 0.16145144 0.61200005 7037733
-0.049623813 0.16171524 0.61300004 7103526
-0.048456192 0.16171524 0.61300004 6906159
-0.047365714 0.16197905 0.61400002 6708780
-0.046271428 0.16224284 0.61500001 7760146
-0.045173336 0.16250668 0.61600006 8418076
-0.044000003 0.16250668 0.61600006 10060105
-0.042965718 0.16303429 0.61800003 11310172
-0.041788574 0.16303429 0.61800003 11838310
-0.040677145 0.16329809 0.61900002 11904103
-0.039498094 0.16329809 0.61900002 10327647
-0.038380951 0.16356191 0.62 8682822
-0.037260003 0.16382572 0.62100005 8290390
-0.036193334 0.16435334 0.62300003 8224597
-0.035062857 0.16461715 0.62400001 8029005
-0.033928569 0.16488095 0.625 8160591
-0.032842856 0.16540858 0.62700003 8029005
-0.031699046 0.16567239 0.62800002 8160591
-0.0306 0.16620001 0.63000005 8423261
-0.029493336 0.16672763 0.63200003 9475949
-0.028423812 0.16751906 0.63500005 10852971
-0.0273 0.16804667 0.63700002 11576694
-0.02612762 0.16831048 0.63800001 12168052
-0.024912382 0.16831048 0.63800001 13023361
-0.023771429 0.16883811 0.64000005 14340752
-0.1010781 0.16686858 0.62800002 12762004
-0.099722862 0.16660286 0.62700003 11511680
-0.098214284 0.16607143 0.625 11643266
-0.097023807 0.16607143 0.625 10789231
-0.095833331 0.16607143 0.625 9012820
-0.09449143 0.16580573 0.62400001 8490578
-0.093302861 0.16580573 0.62400001 8490578
-0.091819048 0.16527429 0.62200004 7767126
-0.090488575 0.16500859 0.62100005 7898712
-0.08916191 0.16474286 0.62 8160848
-0.087980948 0.16474286 0.62 7897676
-0.086520009 0.16421144 0.61800003 8880980
-0.085342854 0.16421144 0.61800003 10591598
-0.083893336 0.16368002 0.61600006 11115627
-0.082585715 0.16341428 0.61500001 11115627
-0.081281908 0.16314857 0.61400002 10721880
-0.079981908 0.16288286 0.61300004 10392915
-0.078685716 0.16261716 0.61200005 9274726
-0.077393331 0.16235141 0.611 6906178
-0.076104768 0.16208571 0.61000001 5790786
-0.074942857 0.16208571 0.61000001 5132856
-0.073780954 0.16208571 0.61000001 4414238
-0.072619043 0.16208571 0.61000001 4282652
-0.071340002 0.16182001 0.60900003 5003799
-0.070179999 0.16182001 0.60900003 4740627
-0.069020003 0.16182001 0.60900003 7367430
-0.067860007 0.16182001 0.60900003 9078048
-0.066700004 0.16182001 0.60900003 9865558
-0.065540001 0.16182001 0.60900003 10457695
-0.064380005 0.16182001 0.60900003 9603672
-0.063220002 0.16182001 0.60900003 9406293
-0.062060002 0.16182001 0.60900003 8684884
-0.060900003 0.16182001 0.60900003 8553298
-0.059838098 0.16208571 0.61000001 9143650
-0.058676191 0.16208571 0.61000001 10525303
-0.057608571 0.16235141 0.611 10457675
-0.05644476 0.16235141 0.611 10128710
-0.055280954 0.16235141 0.611 8879449
-0.054205719 0.16261716 0.61200005 7103038
-0.053040005 0.16261716 0.61200005 6971963
-0.051874291 0.16261716 0.61200005 6906170
-0.050791427 0.16288286 0.61300004 6971952
-0.049623813 0.16288286 0.61300004 6971952
-0.048535239 0.16314857 0.61400002 7038015
-0.047442857 0.16341428 0.61500001 6906429
-0.046346672 0.16368002 0.61600006 7431485
-0.045173336 0.16368002 0.61600006 7497278
-0.044000003 0.16368002 0.61600006 7890739
-0.042965718 0.16421144 0.61800003 10193494
-0.041788574 0.16421144 0.61800003 11510104
-0.040677145 0.16447714 0.61900002 11707483
-0.039498094 0.16447714 0.61900002 10326877
-0.038380951 0.16474286 0.62 8682052
-0.037319999 0.16527429 0.62200004 8028000
-0.036251426 0.16580573 0.62400001 7962207
-0.035119046 0.16607143 0.625 7897428
-0.033928569 0.16607143 0.625 8094807
-0.032842856 0.16660286 0.62700003 8094803
-0.031699046 0.16686858 0.62800002 8029010
-0.0306 0.16740002 0.63000005 8882011
-0.029493336 0.16793142 0.63200003 10987387
-0.028423812 0.16872858 0.63500005 11182690
-0.0273 0.16926001 0.63700002 10130002
-0.02612762 0.16952571 0.63800001 10195321
-0.024912382 0.16952571 0.63800001 13353385
-0.023771429 0.17005715 0.64000005 14603154
-0.1010781 0.16806476 0.62800002 13025689
-0.099722862 0.16779715 0.62700003 13220751
-0.098214284 0.1672619 0.625 12102270
-0.097023807 0.1672619 0.625 10920054
-0.095833331 0.1672619 0.625 9472608
-0.09449143 0.16699429 0.62400001 8490828
-0.093302861 0.16699429 0.62400001 8227656
-0.091819048 0.16645905 0.62200004 7767126
-0.090488575 0.16619143 0.62100005 7832919
-0.089305721 0.16619143 0.62100005 7767126
-0.087980948 0.1659238 0.62 7372368
-0.086660005 0.16565619 0.61900002 8290878
-0.085480958 0.16565619 0.61900002 10001496
-0.084165722 0.16538857 0.61800003 10985073
-0.082720011 0.16485333 0.61600006 11050866
-0.081281908 0.1643181 0.61400002 10787428
-0.080112383 0.1643181 0.61400002 9339982
-0.07881429 0.16405047 0.61300004 8092497
-0.077520005 0.16378286 0.61200005 5723949
-0.07622952 0.16351523 0.611 4216367
-0.075065717 0.16351523 0.611 4413746
-0.073901907 0.16351523 0.611 4349226
-0.072738096 0.16351523 0.611 4217640
-0.071574286 0.16351523 0.611 4087333
-0.070295244 0.16324762 0.61000001 3429403
-0.069133334 0.16324762 0.61000001 4477696
-0.067971431 0.16324762 0.61000001 5990935
-0.066809528 0.16324762 0.61000001 8682306
-0.065540001 0.16298001 0.60900003 9471822
-0.064380005 0.16298001 0.60900003 10193751
-0.063220002 0.16298001 0.60900003 9996372
-0.062060002 0.16298001 0.60900003 9340754
-0.061000001 0.16324762 0.61000001 9340754
-0.059838098 0.16324762 0.61000001 10063198
-0.058676191 0.16324762 0.61000001 10523749
-0.057608571 0.16351523 0.611 10458208
-0.05644476 0.16351523 0.611 9010762
-0.05537143 0.16378286 0.61200005 7958583
-0.054205719 0.16378286 0.61200005 7037481
-0.05312667 0.16405047 0.61300004 6840634
-0.051959049 0.16405047 0.61300004 6774841
-0.050791427 0.16405047 0.61300004 6971702
-0.049704764 0.1643181 0.61400002 7169081
-0.048535239 0.1643181 0.61400002 7103557
-0.047442857 0.16458571 0.61500001 6906178
-0.046346672 0.16485333 0.61600006 6710558
-0.045173336 0.16485333 0.61600006 6578972
-0.044142857 0.16538857 0.61800003 6971677
-0.042965718 0.16538857 0.61800003 9603397
-0.041856192 0.16565619 0.61900002 10260836
-0.040742856 0.1659238 0.62 11379317
-0.039561905 0.1659238 0.62 9933927
-0.038442858 0.16619143 0.62100005 8354895
-0.037319999 0.16645905 0.62200004 7962197
-0.036251426 0.16699429 0.62400001 7896404
-0.035119046 0.1672619 0.625 7437638
-0.033928569 0.1672619 0.625 8095568
-0.032895237 0.16806476 0.62800002 8160596
-0.031749524 0.16833238 0.62900001 8094803
-0.030648574 0.16886762 0.63100004 8948324
-0.029493336 0.16913524 0.63200003 10922114
-0.028423812 0.1699381 0.63500005 10920565
-0.0273 0.17047334 0.63700002 9407326
-0.02612762 0.17074095 0.63800001 9801541
-0.024912382 0.17074095 0.63800001 12762226
-0.09988191 0.16926095 0.62800002 13814424
-0.098528571 0.16899143 0.62700003 11643255
-0.097334288 0.16899143 0.62700003 10722425
-0.095833331 0.16845238 0.625 9867116
-0.09449143 0.16818286 0.62400001 9016389
-0.093302861 0.16818286 0.62400001 8358459
-0.091819048 0.16764383 0.62200004 7570521
-0.090488575 0.1673743 0.62100005 7636314
-0.089305721 0.1673743 0.62100005 7898446
-0.087980948 0.16710477 0.62 7306309
-0.086660005 0.16683523 0.61900002 7765313
-0.085480958 0.16683523 0.61900002 8818001
-0.084165722 0.16656573 0.61800003 10721880
-0.082720011 0.16602668 0.61600006 11116638
-0.081546672 0.16602668 0.61600006 10328158
-0.080242857 0.16575713 0.61500001 6906922
-0.07881429 0.1652181 0.61300004 5134892
-0.077646673 0.1652181 0.61300004 5200685
-0.076354288 0.16494858 0.61200005 4676409
-0.075188577 0.16494858 0.61200005 4676409
-0.073901907 0.16467904 0.611 4283441
-0.072738096 0.16467904 0.611 4217648
-0.071574286 0.16467904 0.611 4152104
-0.070410475 0.16467904 0.611 4086311
-0.069246665 0.16467904 0.611 4544041
-0.068082854 0.16467904 0.611 4149283
-0.066919044 0.16467904 0.611 6054168
-0.065647617 0.16440953 0.61000001 7501614
-0.064485714 0.16440953 0.61000001 8550482
-0.063323803 0.16440953 0.61000001 10195307
-0.062161908 0.16440953 0.61000001 10326629
-0.061000001 0.16440953 0.61000001 10852973
-0.059936188 0.16467904 0.611 10918739
-0.058772378 0.16467904 0.611 9866051
-0.057608571 0.16467904 0.611 9010258
-0.056537148 0.16494858 0.61200005 7431226
-0.05537143 0.16494858 0.61200005 6971940
-0.054294288 0.1652181 0.61300004 7103526
-0.05312667 0.1652181 0.61300004 6971963
-0.051959049 0.1652181 0.61300004 6906170
-0.050874289 0.16548763 0.61400002 7038008
-0.049704764 0.16548763 0.61400002 7103801
-0.048614286 0.16575713 0.61500001 7234632
-0.047442857 0.16575713 0.61500001 7103046
-0.046346672 0.16602668 0.61600006 6775829
-0.04532 0.16656573 0.61800003 7039001
-0.044142857 0.16656573 0.61800003 7168589
-0.042965718 0.16656573 0.61800003 9142379
-0.041856192 0.16683523 0.61900002 10194282
-0.040742856 0.16710477 0.62 11707521
-0.039625715 0.1673743 0.62100005 10394464
-0.038504764 0.16764383 0.62200004 9078604
-0.037379999 0.16791333 0.62300003 7831892
-0.036251426 0.16818286 0.62400001 7897685
-0.035119046 0.16845238 0.625 8029273
-0.033928569 0.16845238 0.625 8095066
-0.032895237 0.16926095 0.62800002 8160848
-0.031800002 0.16980001 0.63000005 8687192
-0.030648574 0.17006953 0.63100004 9933931
-0.029493336 0.17033905 0.63200003 11447170
-0.028423812 0.17114763 0.63500005 10723168
-0.0273 0.17168668 0.63700002 7762483
-0.02612762 0.1719562 0.63800001 8815160
-0.024912382 0.1719562 0.63800001 12433775
-0.023771429 0.17249525 0.64000005 14800778
-0.098528571 0.17018571 0.62700003 10196842
-0.097334288 0.17018571 0.62700003 10525537
-0.095833331 0.16964285 0.625 10525537
-0.09449143 0.16937143 0.62400001 9607526
-0.093302861 0.16937143 0.62400001 8357459
-0.092114285 0.16937143 0.62400001 7307858
-0.090634294 0.16882858 0.62200004 7636823
-0.089305721 0.16855715 0.62100005 8226389
-0.087980948 0.16828571 0.62 7634252
-0.086800002 0.16828571 0.62 7699266
-0.085480958 0.16801429 0.61900002 8751954
-0.084165722 0.16774286 0.61800003 9735006
-0.082988568 0.16774286 0.61800003 11050866
-0.081546672 0.16720001 0.61600006 9868640
-0.080242857 0.16692857 0.61500001 5921060
-0.078942858 0.16665715 0.61400002 4151831
-0.077646673 0.16638573 0.61300004 4678175
-0.076354288 0.1661143 0.61200005 4742703
-0.075188577 0.1661143 0.61200005 4676910
-0.074022859 0.1661143 0.61200005 4086832
-0.072738096 0.16584285 0.611 4086832
-0.071574286 0.16584285 0.611 4217897
-0.070410475 0.16584285 0.611 4217897
-0.069246665 0.16584285 0.611 4479028
-0.068082854 0.16584285 0.611 4347442
-0.066919044 0.16584285 0.611 3823128
-0.065755233 0.16584285 0.611 4744230
-0.06459143 0.16584285 0.611 7697453
-0.06342762 0.16584285 0.611 9671243
-0.062263809 0.16584285 0.611 10523499
-0.061099999 0.16584285 0.611 11115636
-0.059936188 0.16584285 0.611 10984561
-0.058772378 0.16584285 0.611 8813392
-0.057702862 0.1661143 0.61200005 8484157
-0.056537148 0.1661143 0.61200005 7299883
-0.05546191 0.16638573 0.61300004 6906661
-0.054294288 0.16638573 0.61300004 7038247
-0.05312667 0.16638573 0.61300004 6972215
-0.052043814 0.16665715 0.61400002 7103801
-0.050874289 0.16665715 0.61400002 7103801
-0.049785715 0.16692857 0.61500001 7301180
-0.048614286 0.16692857 0.61500001 7300676
-0.047520004 0.16720001 0.61600006 7169090
-0.046346672 0.16720001 0.61600006 7103797
-0.04532 0.16774286 0.61800003 7038004
-0.044142857 0.16774286 0.61800003 7299914
-0.043035239 0.16801429 0.61900002 9339497
-0.04192381 0.16828571 0.62 9799772
-0.040808573 0.16855715 0.62100005 11510390
-0.039625715 0.16855715 0.62100005 10263407
-0.038504764 0.16882858 0.62200004 9144926
-0.037379999 0.1691 0.62300003 7897433
-0.036309522 0.16964285 0.625 7897433
-0.03523143 0.17018571 0.62700003 7898716
-0.034037143 0.17018571 0.62700003 7832923
-0.032895237 0.17045715 0.62800002 8029775
-0.031800002 0.17100002 0.63000005 9214049
-0.030697145 0.17154287 0.63200003 10591358
-0.029586667 0.17208572 0.634 10591358
-0.028468573 0.17262858 0.63600004 9997914
-0.0273 0.17290001 0.63700002 8089917
-0.026209526 0.1737143 0.64000005 8156714
-0.024990477 0.1737143 0.64000005 12828017
-0.023771429 0.1737143 0.64000005 14997907
-0.10204381 0.17329334 0.634 15393465
-0.10035905 0.17247334 0.63100004 13683860
-0.099000007 0.17220001 0.63000005 8815178
-0.097644761 0.17192666 0.62900001 9210456
-0.096140005 0.17138 0.62700003 10526316
-0.094642855 0.17083333 0.625 9805157
-0.093452379 0.17083333 0.625 8357711
-0.092114285 0.17056 0.62400001 7964757
-0.090634294 0.17001334 0.62200004 8030550
-0.089305721 0.16974002 0.62100005 7962969
-0.08812286 0.16974002 0.62100005 7634004
-0.086800002 0.16946667 0.62 7764818
-0.085619047 0.16946667 0.62 8949092
-0.084165722 0.16892001 0.61800003 9997930
-0.082988568 0.16892001 0.61800003 11511169
-0.081546672 0.16837335 0.61600006 9933922
-0.080242857 0.1681 0.61500001 5525791
-0.078942858 0.16782667 0.61400002 4152104
-0.077773333 0.16782667 0.61400002 4152104
-0.076479048 0.16755335 0.61300004 4611367
-0.07531143 0.16755335 0.61300004 4611367
-0.074022859 0.16728 0.61200005 4021039
-0.072857149 0.16728 0.61200005 4021039
-0.071691439 0.16728 0.61200005 4217648
-0.070525721 0.16728 0.61200005 4217648
-0.069246665 0.16700666 0.611 4479280
-0.068082854 0.16700666 0.611 4479280
-0.066919044 0.16700666 0.611 4217146
-0.065755233 0.16700666 0.611 3953974
-0.06459143 0.16700666 0.611 5593894
-0.06342762 0.16700666 0.611 8488786
-0.062263809 0.16700666 0.611 10588768
-0.061099999 0.16700666 0.611 10851940
-0.060034286 0.16728 0.61200005 10391902
-0.058868576 0.16728 0.61200005 8023354
-0.057702862 0.16728 0.61200005 7300149
-0.056537148 0.16728 0.61200005 7365942
-0.05546191 0.16755335 0.61300004 6906170
-0.054294288 0.16755335 0.61300004 6774584
-0.053213332 0.16782667 0.61400002 7102772
-0.052043814 0.16782667 0.61400002 7168565
-0.050874289 0.16782667 0.61400002 6972215
-0.049785715 0.1681 0.61500001 7301180
-0.048614286 0.1681 0.61500001 7235385
-0.047520004 0.16837335 0.61600006 7366971
-0.046346672 0.16837335 0.61600006 7168839
-0.04532 0.16892001 0.61800003 6905667
-0.04421429 0.16919333 0.61900002 7496518
-0.043035239 0.16919333 0.61900002 10522996
-0.04192381 0.16946667 0.62 11247202
-0.040808573 0.16974002 0.62100005 11641960
-0.039689526 0.17001334 0.62200004 10920054
-0.038566668 0.17028667 0.62300003 10459503
-0.037439998 0.17056 0.62400001 8751993
-0.036309522 0.17083333 0.625 8291442
-0.03523143 0.17138 0.62700003 7899235
-0.034037143 0.17138 0.62700003 7701856
-0.032947619 0.17192666 0.62900001 8291937
-0.031850476 0.17247334 0.63100004 10199934
-0.030697145 0.17274667 0.63200003 10722927
-0.029586667 0.17329334 0.634 9341274
-0.028468573 0.17384002 0.63600004 8813390
-0.027342858 0.17438667 0.63800001 8287046
-0.026209526 0.17493334 0.64000005 8091196
-0.024990477 0.17493334 0.64000005 12828292
-0.023808572 0.17520668 0.64100003 14734999
-0.10341429 0.1747762 0.63500005 15920070
-0.10204381 0.17450094 0.634 15985863
-0.10035905 0.17367524 0.63100004 13750173
-0.099000007 0.17340001 0.63000005 8420940
-0.097800009 0.17340001 0.63000005 8619071
-0.096446671 0.17312476 0.62900001 10461275
-0.094642855 0.1720238 0.625 10068077
-0.093452379 0.1720238 0.625 8883803
-0.092261903 0.1720238 0.625 8292702
-0.090634294 0.1711981 0.62200004 7700565
-0.089449525 0.1711981 0.62200004 8028244
-0.08812286 0.17092286 0.62100005 7896658
-0.086940005 0.17092286 0.62100005 7830343
-0.085619047 0.17064762 0.62 9146203
-0.084301911 0.17037238 0.61900002 9932917
-0.082988568 0.17009714 0.61800003 10854019
-0.081546672 0.16954668 0.61600006 9278302
-0.080373339 0.16954668 0.61600006 5330722
-0.079071432 0.16927142 0.61500001 4610329
-0.077773333 0.16899619 0.61400002 5070880
-0.076479048 0.16872096 0.61300004 4873776
-0.07531143 0.16872096 0.61300004 4676397
-0.074143812 0.16872096 0.61300004 4086832
-0.072857149 0.16844572 0.61200005 3955246
-0.071691439 0.16844572 0.61200005 3626791
-0.070525721 0.16844572 0.61200005 4087342
-0.069360003 0.16844572 0.61200005 4349226
-0.068194285 0.16844572 0.61200005 4349226
-0.067028575 0.16844572 0.61200005 4283189
-0.065862864 0.16844572 0.61200005 3756845
-0.064697146 0.16844572 0.61200005 4936716
-0.063531436 0.16844572 0.61200005 7963194
-0.062365722 0.16844572 0.61200005 9537106
-0.0612 0.16844572 0.61200005 10589794
-0.060034286 0.16844572 0.61200005 9997662
-0.058868576 0.16844572 0.61200005 7102770
-0.057702862 0.16844572 0.61200005 6446630
-0.056629524 0.16872096 0.61300004 6709802
-0.05546191 0.16872096 0.61300004 6971186
-0.054382857 0.16899619 0.61400002 6971186
-0.053213332 0.16899619 0.61400002 7103024
-0.052043814 0.16899619 0.61400002 7103024
-0.050957143 0.16927142 0.61500001 6840114
-0.049785715 0.16927142 0.61500001 7234872
-0.04869334 0.16954668 0.61600006 7235133
-0.047520004 0.16954668 0.61600006 7235133
-0.046497144 0.17009714 0.61800003 6774081
-0.045393337 0.17037238 0.61900002 6905667
-0.04421429 0.17037238 0.61900002 7496992
-0.043104764 0.17064762 0.62 11247193
-0.041991431 0.17092286 0.62100005 11247733
-0.040874287 0.1711981 0.62200004 11181940
-0.039689526 0.1711981 0.62200004 11182454
-0.038566668 0.17147334 0.62300003 11050868
-0.037439998 0.17174856 0.62400001 10460786
-0.036425717 0.17257428 0.62700003 9934442
-0.03523143 0.17257428 0.62700003 8425830
-0.034091428 0.17284952 0.62800002 7504728
-0.032947619 0.17312476 0.62900001 8619341
-0.031850476 0.17367524 0.63100004 10790510
-0.030697145 0.17395048 0.63200003 11183226
-0.029633334 0.1747762 0.63500005 8354127
-0.028513335 0.17532666 0.63700002 8286519
-0.027428573 0.17615238 0.64000005 8483898
-0.026250478 0.17642762 0.64100003 8156737
-0.025029525 0.17642762 0.64100003 13091212
-0.023808572 0.17642762 0.64100003 14407065
-0.10341429 0.17598572 0.63500005 16117451
-0.10204381 0.17570858 0.634 16117451
-0.1005181 0.17515428 0.63200003 14145194
-0.099157147 0.17487715 0.63100004 8486996
-0.097800009 0.17460002 0.63000005 8094553
-0.096600004 0.17460002 0.63000005 9344620
-0.095097147 0.17404571 0.62800002 9607517
-0.093900949 0.17404571 0.62800002 9804896
-0.092557147 0.17376858 0.62700003 8685930
-0.091071427 0.17321429 0.625 7633242
-0.089449525 0.17238286 0.62200004 7962466
-0.088264771 0.17238286 0.62200004 8751982
-0.086940005 0.17210573 0.62100005 8947034
-0.085757144 0.17210573 0.62100005 10065515
-0.084301911 0.17155142 0.61900002 10919042
-0.082988568 0.17127429 0.61800003 10919042
-0.081811436 0.17127429 0.61800003 10394973
-0.080373339 0.17072001 0.61600006 7829046
-0.079071432 0.17044285 0.61500001 5465136
-0.0779 0.17044285 0.61500001 4872999
-0.076603815 0.17016572 0.61400002 4283189
-0.07531143 0.16988859 0.61300004 4348982
-0.074143812 0.16988859 0.61300004 4283441
-0.072976194 0.16988859 0.61300004 4217648
-0.071808569 0.16988859 0.61300004 4020017
-0.070525721 0.16961144 0.61200005 4217396
-0.069360003 0.16961144 0.61200005 4414238
-0.068194285 0.16961144 0.61200005 4480031
-0.067028575 0.16961144 0.61200005 4347955
-0.065862864 0.16961144 0.61200005 4018990
-0.064697146 0.16961144 0.61200005 4674608
-0.063531436 0.16961144 0.61200005 7043156
-0.062365722 0.16961144 0.61200005 9471304
-0.0612 0.16961144 0.61200005 10523992
-0.060034286 0.16961144 0.61200005 9800535
-0.058868576 0.16961144 0.61200005 6445092
-0.057797145 0.16988859 0.61300004 5987635
-0.056629524 0.16988859 0.61300004 6316600
-0.055552382 0.17016572 0.61400002 6840375
-0.054382857 0.17016572 0.61400002 6840375
-0.053213332 0.17016572 0.61400002 6971940
-0.052128572 0.17044285 0.61500001 7169319
-0.050957143 0.17044285 0.61500001 6971700
-0.049866669 0.17072001 0.61600006 7300665
-0.04869334 0.17072001 0.61600006 7169340
-0.047520004 0.17072001 0.61600006 7169340
-0.046497144 0.17127429 0.61800003 7365970
-0.045393337 0.17155142 0.61900002 8945002
-0.04421429 0.17155142 0.61900002 9865547
-0.043104764 0.17182857 0.62 11839337
-0.041991431 0.17210573 0.62100005 10656360
-0.040874287 0.17238286 0.62200004 9669465
-0.039753333 0.17266001 0.62300003 10655844
-0.038628571 0.17293714 0.62400001 11708532
-0.037499998 0.17321429 0.625 11379810
-0.036425717 0.17376858 0.62700003 11379810
-0.035287622 0.17404571 0.62800002 10526827
-0.034091428 0.17404571 0.62800002 9671518
-0.033 0.17460002 0.63000005 10131301
-0.031850476 0.17487715 0.63100004 11052403
-0.030697145 0.17515428 0.63200003 11051608
-0.029633334 0.17598572 0.63500005 8485681
-0.028468573 0.17626286 0.63600004 8420172
-0.027342858 0.17681715 0.63800001 8157000
-0.026250478 0.17764857 0.64100003 8288073
-0.025029525 0.17764857 0.64100003 13551513
-0.023808572 0.17764857 0.64100003 14735785
-0.10220477 0.17719525 0.63500005 16183244
-0.10083619 0.17691618 0.634 14539698
-0.099314287 0.1763581 0.63200003 8749914
-0.097955242 0.17607905 0.63100004 6911817
-0.096600004 0.17580001 0.63000005 7832919
-0.095097147 0.17524192 0.62800002 10065486
-0.093900949 0.17524192 0.62800002 10460244
-0.092557147 0.17496286 0.62700003 9211492
-0.091071427 0.17440476 0.625 8158804
-0.089449525 0.17356764 0.62200004 7962958
-0.088264771 0.17356764 0.62200004 8423509
-0.087080002 0.17356764 0.62200004 8947529
-0.085757144 0.17328858 0.62100005 10658147
-0.084301911 0.17273048 0.61900002 11050616
-0.082988568 0.17245144 0.61800003 10853237
-0.081811436 0.17245144 0.61800003 10525798
-0.080373339 0.17189336 0.61600006 9473110
-0.079200007 0.17189336 0.61600006 6977622
-0.0779 0.17161429 0.61500001 4674867
-0.076603815 0.17133525 0.61400002 4217120
-0.075434282 0.17133525 0.61400002 4480292
-0.074264765 0.17133525 0.61400002 4283189
-0.072976194 0.1710562 0.61300004 4283189
-0.071808569 0.1710562 0.61300004 3691812
-0.070640959 0.1710562 0.61300004 3823398
-0.069473341 0.1710562 0.61300004 3626003
-0.068305716 0.1710562 0.61300004 4086554
-0.067138098 0.1710562 0.61300004 4347955
-0.065862864 0.17077716 0.61200005 3887404
-0.064697146 0.17077716 0.61200005 4215058
-0.063531436 0.17077716 0.61200005 7767880
-0.062365722 0.17077716 0.61200005 9340761
-0.0612 0.17077716 0.61200005 10261863
-0.060034286 0.17077716 0.61200005 9406552
-0.058964763 0.1710562 0.61300004 6709039
-0.057797145 0.1710562 0.61300004 6380083
-0.056629524 0.1710562 0.61300004 6709048
-0.055642854 0.17161429 0.61500001 6906431
-0.054471429 0.17161429 0.61500001 6774845
-0.053300001 0.17161429 0.61500001 6971963
-0.052128572 0.17161429 0.61500001 7037756
-0.051040005 0.17189336 0.61600006 6971963
-0.050028574 0.17245144 0.61800003 6906170
-0.04885143 0.17245144 0.61800003 6905643
-0.047674287 0.17245144 0.61800003 7103022
-0.046497144 0.17245144 0.61800003 7300153
-0.045393337 0.17273048 0.61900002 9997666
-0.044285715 0.17300953 0.62 10392170
-0.043174289 0.17328858 0.62100005 10523756
-0.041991431 0.17328858 0.62100005 9801823
-0.040874287 0.17356764 0.62200004 8946514
-0.039753333 0.17384666 0.62300003 9800517
-0.038628571 0.17412572 0.62400001 11116377
-0.037499998 0.17440476 0.625 11969630
-0.036483813 0.17524192 0.62800002 12035423
-0.035343811 0.17552094 0.62900001 11511671
-0.034145713 0.17552094 0.62900001 11314292
-0.033 0.17580001 0.63000005 10919280
-0.031850476 0.17607905 0.63100004 10063971
-0.030697145 0.1763581 0.63200003 10061899
-0.029633334 0.17719525 0.63500005 9075004
-0.028468573 0.17747429 0.63600004 8485965
-0.027342858 0.17803238 0.63800001 8157000
-0.026250478 0.17886953 0.64100003 8419398
-0.025068572 0.17914857 0.64200002 13946010
-0.023845714 0.17914857 0.64200002 14998700
-0.10220477 0.17840478 0.63500005 16182729
-0.10083619 0.1781238 0.634 15000000
-0.099314287 0.17756191 0.63200003 9276009
-0.098110482 0.17756191 0.63200003 6715231
-0.096753336 0.17728096 0.63100004 6715231
-0.095248573 0.17671905 0.62900001 8620095
-0.093900949 0.17643811 0.62800002 10462299
-0.092557147 0.17615715 0.62700003 9408372
-0.091362864 0.17615715 0.62700003 8684649
-0.08973714 0.17531429 0.62400001 9079640
-0.088264771 0.17475238 0.62200004 9869156
-0.087080002 0.17475238 0.62200004 10656598
-0.085757144 0.17447145 0.62100005 11182942
-0.084301911 0.17390953 0.61900002 11116120
-0.082988568 0.17362858 0.61800003 10260811
-0.081811436 0.17362858 0.61800003 10195293
-0.080373339 0.17306668 0.61600006 10853223
-0.079200007 0.17306668 0.61600006 8685419
-0.0779 0.17278571 0.61500001 6119492
-0.076728575 0.17278571 0.61500001 4086059
-0.075434282 0.17250477 0.61400002 4020266
-0.074264765 0.17250477 0.61400002 3955257
-0.07309524 0.17250477 0.61400002 4086843
-0.071925715 0.17250477 0.61400002 4151603
-0.070640959 0.17222382 0.61300004 4151603
-0.069473341 0.17222382 0.61300004 3888942
-0.068305716 0.17222382 0.61300004 3954735
-0.067138098 0.17222382 0.61300004 3888172
-0.06597048 0.17222382 0.61300004 3690793
-0.064802863 0.17222382 0.61300004 5263922
-0.063635238 0.17222382 0.61300004 8948330
-0.06246762 0.17222382 0.61300004 10261100
-0.061300006 0.17222382 0.61300004 10655858
-0.060132384 0.17222382 0.61300004 10328151
-0.058964763 0.17222382 0.61300004 9143877
-0.057797145 0.17222382 0.61300004 7500123
-0.056629524 0.17222382 0.61300004 6907986
-0.055642854 0.17278571 0.61500001 6710595
-0.054471429 0.17278571 0.61500001 6513216
-0.053300001 0.17278571 0.61500001 6905667
-0.052213337 0.17306668 0.61600006 7103046
-0.051040005 0.17306668 0.61600006 6971963
-0.050028574 0.17362858 0.61800003 6840377
-0.04885143 0.17362858 0.61800003 7234610
-0.047674287 0.17362858 0.61800003 8221505
-0.04657238 0.17390953 0.61900002 8813640
-0.045466669 0.17419046 0.62 11313774
-0.044357147 0.17447145 0.62100005 11182429
-0.043243811 0.17475238 0.62200004 9208639
-0.042059049 0.17475238 0.62200004 6975053
-0.040874287 0.17475238 0.62200004 5593400
-0.039753333 0.17503333 0.62300003 6579258
-0.038628571 0.17531429 0.62400001 8816220
-0.037620004 0.17615715 0.62700003 10655038
-0.036541905 0.17671905 0.62900001 11839312
-0.035343811 0.17671905 0.62900001 11904871
-0.034200002 0.17700002 0.63000005 12299629
-0.033052381 0.17728096 0.63100004 11773294
-0.031850476 0.17728096 0.63100004 9733711
-0.030697145 0.17756191 0.63200003 8813381
-0.029633334 0.17840478 0.63500005 8681795
-0.028468573 0.17868572 0.63600004 8420179
-0.027342858 0.17924762 0.63800001 8354386
-0.026250478 0.18009049 0.64100003 9207635
-0.025068572 0.18037143 0.64200002 14471075
-0.023845714 0.18037143 0.64200002 15129768
-0.10236572 0.17989716 0.63600004 16511689
-0.10099524 0.17961431 0.63500005 15329478
-0.099628568 0.17933144 0.634 10197624
-0.098420955 0.17933144 0.634 7373402
-0.096906669 0.17876573 0.63200003 6452300
-0.095400006 0.17820001 0.63000005 7831322
-0.093900949 0.17763428 0.62800002 9410354
-0.092557147 0.17735143 0.62700003 10525548
-0.091362864 0.17735143 0.62700003 10196583
-0.089880951 0.17678571 0.625 10197094
-0.088406667 0.17622 0.62300003 10920817
-0.087080002 0.17593715 0.62200004 11510633
-0.085757144 0.17565429 0.62100005 11181668
-0.084301911 0.17508857 0.61900002 10655594
-0.082988568 0.17480572 0.61800003 9997664
-0.081811436 0.17480572 0.61800003 9602888
-0.080373339 0.17424001 0.61600006 10787162
-0.079200007 0.17424001 0.61600006 10196590
-0.0779 0.17395714 0.61500001 8880730
-0.076728575 0.17395714 0.61500001 6321493
-0.075557142 0.17395714 0.61500001 4610875
-0.074385718 0.17395714 0.61500001 3561250
-0.07309524 0.17367429 0.61400002 3890215
-0.071925715 0.17367429 0.61400002 4020518
-0.070756197 0.17367429 0.61400002 3888932
-0.069586664 0.17367429 0.61400002 3823650
-0.068417147 0.17367429 0.61400002 3626271
-0.067247622 0.17367429 0.61400002 4018962
-0.06597048 0.17339143 0.61300004 4676892
-0.064802863 0.17339143 0.61300004 8156480
-0.063635238 0.17339143 0.61300004 9998684
-0.06246762 0.17339143 0.61300004 10523245
-0.061300006 0.17339143 0.61300004 10654831
-0.060132384 0.17339143 0.61300004 10590567
-0.058964763 0.17339143 0.61300004 9932637
-0.057797145 0.17339143 0.61300004 8683603
-0.056721907 0.17367429 0.61400002 7367743
-0.055642854 0.17395714 0.61500001 6972472
-0.054471429 0.17395714 0.61500001 6577714
-0.053300001 0.17395714 0.61500001 6642473
-0.052213337 0.17424001 0.61600006 7103024
-0.051205717 0.17480572 0.61800003 6971940
-0.050028574 0.17480572 0.61800003 6971940
-0.048930477 0.17508857 0.61900002 7629632
-0.047751427 0.17508857 0.61900002 9077078
-0.046647619 0.17537142 0.62 9931871
-0.045540005 0.17565429 0.62100005 11510903
-0.044357147 0.17565429 0.62100005 10986106
-0.043243811 0.17593715 0.62200004 7630663
-0.042059049 0.17593715 0.62200004 6581807
-0.040940002 0.17622 0.62300003 5331740
-0.039817143 0.17650285 0.62400001 5397769
-0.038690478 0.17678571 0.625 7108387
-0.037620004 0.17735143 0.62700003 9143089
-0.036541905 0.17791714 0.62900001 10327363
-0.035343811 0.17791714 0.62900001 11837538
-0.034200002 0.17820001 0.63000005 12495468
-0.033 0.17820001 0.63000005 11970182
-0.031850476 0.17848286 0.63100004 8680532
-0.030697145 0.17876573 0.63200003 8286769
-0.029633334 0.17961431 0.63500005 8615734
-0.028468573 0.17989716 0.63600004 8157520
-0.027342858 0.18046287 0.63800001 8289106
-0.026250478 0.18131144 0.64100003 9865049
-0.025068572 0.1815943 0.64200002 14667938
-0.10220477 0.18082383 0.63500005 16708548
-0.10099524 0.18082383 0.63500005 15460289
-0.099628568 0.18053904 0.634 11117951
-0.098420955 0.18053904 0.634 7570279
-0.096906669 0.17996952 0.63200003 6188626
-0.095400006 0.17940001 0.63000005 7305273
-0.093900949 0.17883047 0.62800002 8489547
-0.092557147 0.17854571 0.62700003 10525780
-0.091362864 0.17854571 0.62700003 11710054
-0.089880951 0.17797619 0.625 11446128
-0.088548578 0.17769143 0.62400001 11446128
-0.087080002 0.17712191 0.62200004 11116384
-0.085757144 0.17683716 0.62100005 8747836
-0.0844381 0.17655239 0.62 8615498
-0.083122857 0.17626762 0.61900002 8089154
-0.081811436 0.17598286 0.61800003 8417599
-0.080634288 0.17598286 0.61800003 10588768
-0.079200007 0.17541336 0.61600006 10392922
-0.0779 0.17512858 0.61500001 11182438
-0.076728575 0.17512858 0.61500001 9080427
-0.075557142 0.17512858 0.61500001 6448707
-0.074385718 0.17512858 0.61500001 4744491
-0.073214285 0.17512858 0.61500001 4086561
-0.07204286 0.17512858 0.61500001 3890458
-0.070871428 0.17512858 0.61500001 3890458
-0.069699995 0.17512858 0.61500001 4873240
-0.06852857 0.17512858 0.61500001 5794342
-0.067247622 0.17484382 0.61400002 7764025
-0.066078097 0.17484382 0.61400002 9672022
-0.064908572 0.17484382 0.61400002 10064736
-0.063739046 0.17484382 0.61400002 10656873
-0.062569529 0.17484382 0.61400002 10260575
-0.0614 0.17484382 0.61400002 9997403
-0.060230475 0.17484382 0.61400002 10458967
-0.059060954 0.17484382 0.61400002 10787932
-0.057891432 0.17484382 0.61400002 10196574
-0.056721907 0.17484382 0.61400002 9933402
-0.055642854 0.17512858 0.61500001 8947025
-0.054471429 0.17512858 0.61500001 7565372
-0.05338667 0.17541336 0.61600006 7366971
-0.052213337 0.17541336 0.61600006 7301178
-0.051205717 0.17598286 0.61800003 6643257
-0.050028574 0.17598286 0.61800003 7564359
-0.048930477 0.17626762 0.61900002 8089943
-0.047751427 0.17626762 0.61900002 10721663
-0.046647619 0.17655239 0.62 10524524
-0.045540005 0.17683716 0.62100005 10392938
-0.044357147 0.17683716 0.62100005 9079120
-0.043243811 0.17712191 0.62200004 6118435
-0.042126667 0.17740667 0.62300003 5464873
-0.041005712 0.17769143 0.62400001 5464873
-0.039880954 0.17797619 0.625 5464632
-0.038814288 0.17854571 0.62700003 5727804
-0.037620004 0.17854571 0.62700003 6647084
-0.036541905 0.17911524 0.62900001 7502393
-0.035343811 0.17911524 0.62900001 10325832
-0.034200002 0.17940001 0.63000005 12168036
-0.033 0.17940001 0.63000005 11641449
-0.031850476 0.17968477 0.63100004 8614971
-0.030697145 0.17996952 0.63200003 8090435
-0.029633334 0.18082383 0.63500005 8287814
-0.028513335 0.18139334 0.63700002 8025680
-0.027428573 0.18224764 0.64000005 8683610
-0.02629143 0.18281715 0.64200002 9734756
-0.02510762 0.18310191 0.64300001 14077094
-0.10220477 0.18203335 0.63500005 16446407
-0.10099524 0.18203335 0.63500005 15460289
-0.099785723 0.18203335 0.63500005 11381123
-0.098420955 0.18174666 0.634 9080427
-0.096906669 0.18117334 0.63200003 7172430
-0.095400006 0.18060002 0.63000005 7502393
-0.093900949 0.18002667 0.62800002 7699772
-0.092704765 0.18002667 0.62800002 10458454
-0.091362864 0.17974 0.62700003 11971693
-0.089880951 0.17916666 0.625 11708546
-0.088690475 0.17916666 0.625 11379581
-0.087219998 0.17859334 0.62300003 9933659
-0.08589524 0.17830668 0.62200004 7236146
-0.0844381 0.17773333 0.62 8022071
-0.083122857 0.17744666 0.61900002 7890485
-0.08194381 0.17744666 0.61900002 7824669
-0.080634288 0.17716001 0.61800003 9732666
-0.079457149 0.17716001 0.61800003 10588754
-0.078026675 0.17658667 0.61600006 11180891
-0.076853342 0.17658667 0.61600006 10393971
-0.075680003 0.17658667 0.61600006 8749146
-0.074506678 0.17658667 0.61600006 5796689
-0.073214285 0.1763 0.61500001 3888692
-0.07204286 0.1763 0.61500001 3758854
-0.070871428 0.1763 0.61500001 3758854
-0.069699995 0.1763 0.61500001 5135360
-0.068640009 0.17658667 0.61600006 6911767
-0.067357138 0.1763 0.61500001 8814419
-0.066185713 0.1763 0.61500001 10196072
-0.064908572 0.17601334 0.61400002 10392422
-0.063739046 0.17601334 0.61400002 9866078
-0.062569529 0.17601334 0.61400002 9405775
-0.0614 0.17601334 0.61400002 9011017
-0.060230475 0.17601334 0.61400002 9208648
-0.059060954 0.17601334 0.61400002 10063957
-0.057891432 0.17601334 0.61400002 10787173
-0.056814287 0.1763 0.61500001 10721380
-0.055733338 0.17658667 0.61600006 10196077
-0.054560006 0.17658667 0.61600006 9209182
-0.05338667 0.17658667 0.61600006 8091975
-0.052213337 0.17658667 0.61600006 6907701
-0.051205717 0.17716001 0.61800003 6184704
-0.050109524 0.17744666 0.61900002 7566349
-0.049009521 0.17773333 0.62 9207637
-0.047828574 0.17773333 0.62 10984048
-0.046647619 0.17773333 0.62 10590837
-0.045540005 0.17802002 0.62100005 8682840
-0.044357147 0.17802002 0.62100005 6712641
-0.043243811 0.17830668 0.62200004 5594160
-0.042126667 0.17859334 0.62300003 5202995
