# .PCD v0.7 - Point Cloud Data file format
VERSION 0.7
FIELDS x y z rgba
SIZE 4 4 4 4
TYPE F F F U
COUNT 1 1 1 1
WIDTH 1097
HEIGHT 1
VIEWPOINT 0 0 0 1 0 0 0
POINTS 1097
DATA ascii
-0.088842861 0.045408577 0.69100004 12569855
-0.087526672 0.045408577 0.69100004 12635647
-0.086210482 0.045408577 0.69100004 12372735
-0.084894292 0.045408577 0.69100004 12570111
-0.08382 0.045540001 0.69300002 12832509
-0.082261913 0.045408577 0.69100004 12635130
-0.080945715 0.045408577 0.69100004 12634876
-0.079629533 0.045408577 0.69100004 14345471
-0.080239996 0.046525717 0.708 15132415
-0.078891426 0.046525717 0.708 9408426
-0.077542856 0.046525717 0.708 8479372
-0.076086663 0.046459999 0.70700002 8150407
-0.074740008 0.046459999 0.70700002 8611632
-0.073393337 0.046459999 0.70700002 9203769
-0.072046667 0.046459999 0.70700002 9137990
-0.070699997 0.046459999 0.70700002 9006404
-0.069353335 0.046459999 0.70700002 8809779
-0.068006672 0.046459999 0.70700002 8875572
-0.066660002 0.046459999 0.70700002 9072190
-0.065313332 0.046459999 0.70700002 9006397
-0.063876189 0.046394285 0.70600003 8744004
-0.062531434 0.046394285 0.70600003 8480832
-0.061186668 0.046394285 0.70600003 8677171
-0.059841909 0.046394285 0.70600003 8808757
-0.058331434 0.04626286 0.70400006 8742455
-0.056990478 0.04626286 0.70400006 8742455
-0.055649526 0.04626286 0.70400006 9005111
-0.054308575 0.04626286 0.70400006 8939318
-0.052967623 0.04626286 0.70400006 8939309
-0.051553335 0.046197142 0.70300001 9070895
-0.050214287 0.046197142 0.70300001 9202229
-0.048875239 0.046197142 0.70300001 9268022
-0.047536191 0.046197142 0.70300001 9268274
-0.046197142 0.046197142 0.70300001 9202481
-0.044858098 0.046197142 0.70300001 8810283
-0.043519046 0.046197142 0.70300001 9928764
-0.042240005 0.04626286 0.70400006 10260378
-0.14086762 0.047400955 0.70100003 9666454
-0.13953239 0.047400955 0.70100003 7495285
-0.13878858 0.047603812 0.70400006 7953207
-0.13783811 0.047739051 0.70600003 8479551
-0.13649334 0.047739051 0.70600003 8479553
-0.13514857 0.047739051 0.70600003 8479553
-0.13380381 0.047739051 0.70600003 8479553
-0.13245904 0.047739051 0.70600003 8545346
-0.1311143 0.047739051 0.70600003 8348234
-0.12976953 0.047739051 0.70600003 8348234
-0.12842476 0.047739051 0.70600003 8348228
-0.12726 0.047806669 0.70700002 8348228
-0.12591334 0.047806669 0.70700002 8348485
-0.12439048 0.047739051 0.70600003 8414278
-0.12304571 0.047739051 0.70600003 8414530
-0.12170096 0.047739051 0.70600003 8348737
-0.12035619 0.047739051 0.70600003 8348485
-0.11901143 0.047739051 0.70600003 8414278
-0.11733335 0.047603812 0.70400006 8480071
-0.11599239 0.047603812 0.70400006 8480071
-0.11465143 0.047603812 0.70400006 8545862
-0.11331049 0.047603812 0.70400006 8545862
-0.11228763 0.047739051 0.70600003 8611146
-0.11094286 0.047739051 0.70600003 8019009
-0.1095981 0.047739051 0.70600003 6444590
-0.10840667 0.047806669 0.70700002 11247479
-0.10418286 0.046521906 0.68800002 11646200
-0.10287239 0.046521906 0.68800002 13422591
-0.10185716 0.046657149 0.69000006 13292287
-0.10068858 0.046724766 0.69100004 12700155
-0.099372379 0.046724766 0.69100004 12437759
-0.098056197 0.046724766 0.69100004 12437759
-0.09702 0.046860002 0.69300002 12437758
-0.095700003 0.046860002 0.69300002 12437758
-0.09410762 0.046724766 0.69100004 12371967
-0.092791438 0.046724766 0.69100004 12700927
-0.091342866 0.046657149 0.69000006 12569343
-0.090028577 0.046657149 0.69000006 12503551
-0.088714294 0.046657149 0.69000006 12569343
-0.087400004 0.046657149 0.69000006 12635135
-0.086210482 0.046724766 0.69100004 12503549
-0.084894292 0.046724766 0.69100004 12569342
-0.083578095 0.046724766 0.69100004 12766462
-0.082261913 0.046724766 0.69100004 12766462
-0.080828577 0.046657149 0.69000006 12963577
-0.079514287 0.046657149 0.69000006 14213631
-0.078200005 0.046657149 0.69000006 14869759
-0.078668572 0.047739051 0.70600003 11316939
-0.077323809 0.047739051 0.70600003 8613319
-0.075979047 0.047739051 0.70600003 7363252
-0.074634291 0.047739051 0.70600003 8347163
-0.073289528 0.047739051 0.70600003 9202472
-0.071740955 0.047603812 0.70400006 9005375
-0.070400007 0.047603812 0.70400006 8939582
-0.06925524 0.047739051 0.70600003 8874018
-0.067910478 0.047739051 0.70600003 9005604
-0.066565715 0.047739051 0.70600003 9137451
-0.065036193 0.047603812 0.70400006 9137451
-0.063695244 0.047603812 0.70400006 8875315
-0.062354293 0.047603812 0.70400006 8809522
-0.061013337 0.047603812 0.70400006 8874545
-0.05958762 0.047536191 0.70300001 8874545
-0.058248568 0.047536191 0.70300001 8939568
-0.056909524 0.047536191 0.70300001 8939568
-0.055570476 0.047536191 0.70300001 9070636
-0.054231428 0.047536191 0.70300001 9202222
-0.052741908 0.047400955 0.70100003 9267754
-0.051406667 0.047400955 0.70100003 9267754
-0.050071429 0.047400955 0.70100003 9398316
-0.048736192 0.047400955 0.70100003 9529902
-0.047400955 0.047400955 0.70100003 9334056
-0.046065718 0.047400955 0.70100003 9334056
-0.044858098 0.047536191 0.70300001 8415532
-0.043519046 0.047536191 0.70300001 9599806
-0.042180002 0.047536191 0.70300001 9604243
-0.14292382 0.048527621 0.69800001 9207958
-0.14159428 0.048527621 0.69800001 9207958
-0.14026476 0.048527621 0.69800001 9534602
-0.13893524 0.048527621 0.69800001 7560812
-0.13819715 0.048736192 0.70100003 8084777
-0.13725239 0.048875239 0.70300001 8545328
-0.13591333 0.048875239 0.70300001 8479542
-0.13457429 0.048875239 0.70300001 8479542
-0.13342477 0.048944768 0.70400006 8479542
-0.13208382 0.048944768 0.70400006 8479542
-0.13074286 0.048944768 0.70400006 8479553
-0.12940191 0.048944768 0.70400006 8479553
-0.12806095 0.048944768 0.70400006 8479553
-0.12708001 0.04908381 0.70600003 8611139
-0.12573524 0.04908381 0.70600003 8480071
-0.1240381 0.048944768 0.70400006 8480071
-0.12269716 0.048944768 0.70400006 8414778
-0.1213562 0.048944768 0.70400006 8414778
-0.12001524 0.048944768 0.70400006 8414521
-0.11867429 0.048944768 0.70400006 8480314
-0.11733335 0.048944768 0.70400006 8545605
-0.11582762 0.048875239 0.70300001 8414019
-0.11448857 0.048875239 0.70300001 8611380
-0.11314952 0.048875239 0.70300001 8677173
-0.11196953 0.048944768 0.70400006 8545605
-0.11062858 0.048944768 0.70400006 7624503
-0.10928763 0.048944768 0.70400006 5721887
-0.10549334 0.047832385 0.68800002 12564359
-0.10403144 0.047762856 0.68700004 12569087
-0.10272286 0.047762856 0.68700004 12963839
-0.10141429 0.047762856 0.68700004 12963839
-0.10025143 0.047832385 0.68800002 12569083
-0.098940954 0.047832385 0.68800002 12305919
-0.097914286 0.047971431 0.69000006 12437503
-0.09674 0.048040956 0.69100004 12503551
-0.095285721 0.047971431 0.69000006 12437758
-0.093971431 0.047971431 0.69000006 12503551
-0.09238857 0.047832385 0.68800002 12569343
-0.091078095 0.047832385 0.68800002 12503551
-0.08976762 0.047832385 0.68800002 12503551
-0.088457145 0.047832385 0.68800002 12503551
-0.08714667 0.047832385 0.68800002 12635135
-0.085836194 0.047832385 0.68800002 12635135
-0.084771439 0.047971431 0.69000006 12635135
-0.08345715 0.047971431 0.69000006 12766716
-0.082142867 0.047971431 0.69000006 12766716
-0.080594286 0.047832385 0.68800002 12964093
-0.079283811 0.047832385 0.68800002 14016767
-0.077973336 0.047832385 0.68800002 14935807
-0.078668572 0.04908381 0.70600003 11580365
-0.07710477 0.048944768 0.70400006 10127546
-0.075763814 0.048944768 0.70400006 7430033
-0.074422859 0.048944768 0.70400006 8478479
-0.073081911 0.048944768 0.70400006 9333788
-0.071740955 0.048944768 0.70400006 9201727
-0.070400007 0.048944768 0.70400006 9135934
-0.069059052 0.048944768 0.70400006 9136679
-0.067718096 0.048944768 0.70400006 9136679
-0.066377148 0.048944768 0.70400006 9202481
-0.064943813 0.048875239 0.70300001 9202481
-0.063604765 0.048875239 0.70300001 9071406
-0.062265713 0.048875239 0.70300001 9071406
-0.060926665 0.048875239 0.70300001 9136429
-0.059418097 0.048736192 0.70100003 9136429
-0.05808286 0.048736192 0.70100003 9267502
-0.056747623 0.048736192 0.70100003 9333295
-0.055412382 0.048736192 0.70100003 9268013
-0.054000005 0.048666667 0.70000005 9268013
-0.052666668 0.048666667 0.70000005 9530147
-0.051333338 0.048666667 0.70000005 9661733
-0.050000004 0.048666667 0.70000005 9529893
-0.048666667 0.048666667 0.70000005 9529893
-0.047333337 0.048666667 0.70000005 9399851
-0.046000004 0.048666667 0.70000005 9334058
-0.044666667 0.048666667 0.70000005 7890714
-0.043333337 0.048666667 0.70000005 9601332
-0.042000003 0.048666667 0.70000005 8750746
-0.14292382 0.049857143 0.69800001 9405337
-0.14159428 0.049857143 0.69800001 9273751
-0.14026476 0.049857143 0.69800001 9469302
-0.13893524 0.049857143 0.69800001 7100754
-0.13819715 0.050071429 0.70100003 8215075
-0.13686191 0.050071429 0.70100003 8741419
-0.13552667 0.050071429 0.70100003 8675883
-0.13419142 0.050071429 0.70100003 8675883
-0.13323525 0.050214287 0.70300001 8675883
-0.13189618 0.050214287 0.70300001 8610090
-0.13055715 0.050214287 0.70300001 8675883
-0.1292181 0.050214287 0.70300001 8741676
-0.12787904 0.050214287 0.70300001 8741174
-0.12654001 0.050214287 0.70300001 9004346
-0.12520096 0.050214287 0.70300001 8939593
-0.12386191 0.050214287 0.70300001 8742214
-0.12252286 0.050214287 0.70300001 8940338
-0.12118381 0.050214287 0.70300001 9006131
-0.11984476 0.050214287 0.70300001 8611130
-0.11850572 0.050214287 0.70300001 8611130
-0.11716667 0.050214287 0.70300001 8545337
-0.11582762 0.050214287 0.70300001 8282165
-0.11448857 0.050214287 0.70300001 8281890
-0.11314952 0.050214287 0.70300001 8413476
-0.11181048 0.050214287 0.70300001 8215607
-0.11047143 0.050214287 0.70300001 7097126
-0.10913239 0.050214287 0.70300001 5457940
-0.10534 0.049071431 0.68700004 12892549
-0.10403144 0.049071431 0.68700004 13488895
-0.10272286 0.049071431 0.68700004 13291519
-0.10141429 0.049071431 0.68700004 12766463
-0.10010572 0.049071431 0.68700004 12569085
-0.098940954 0.04914286 0.68800002 12569085
-0.097630478 0.04914286 0.68800002 12634878
-0.096600004 0.049285717 0.69000006 12569085
-0.095009528 0.04914286 0.68800002 12503292
-0.093699045 0.04914286 0.68800002 12437759
-0.09238857 0.04914286 0.68800002 12437759
-0.090945721 0.049071431 0.68700004 12437756
-0.089637145 0.049071431 0.68700004 12503549
-0.08832857 0.049071431 0.68700004 12437756
-0.087020002 0.049071431 0.68700004 12503549
-0.085836194 0.04914286 0.68800002 12634876
-0.084525719 0.04914286 0.68800002 12700669
-0.083215237 0.04914286 0.68800002 12700669
-0.081904761 0.04914286 0.68800002 12898047
-0.080477148 0.049071431 0.68700004 13029884
-0.07916858 0.049071431 0.68700004 14214143
-0.077860005 0.049071431 0.68700004 14870271
-0.07655143 0.049071431 0.68700004 11778001
-0.07710477 0.050285716 0.70400006 9929908
-0.075763814 0.050285716 0.70400006 7561360
-0.074422859 0.050285716 0.70400006 8741151
-0.073081911 0.050285716 0.70400006 9530667
-0.071639046 0.050214287 0.70300001 9529663
-0.070299998 0.050214287 0.70300001 9398077
-0.068960957 0.050214287 0.70300001 9398064
-0.067621902 0.050214287 0.70300001 9398064
-0.066282853 0.050214287 0.70300001 9398064
-0.064943813 0.050214287 0.70300001 9398064
-0.063604765 0.050214287 0.70300001 9398309
-0.062000006 0.050000004 0.70000005 9332516
-0.060666669 0.050000004 0.70000005 9201709
-0.059418097 0.050071429 0.70100003 9201709
-0.05808286 0.050071429 0.70100003 9201961
-0.056666669 0.050000004 0.70000005 9267754
-0.055333335 0.050000004 0.70000005 9529902
-0.054000005 0.050000004 0.70000005 9332523
-0.052516192 0.049857143 0.69800001 9529610
-0.05118667 0.049857143 0.69800001 9661196
-0.049857143 0.049857143 0.69800001 9529620
-0.048527621 0.049857143 0.69800001 9529620
-0.047198098 0.049857143 0.69800001 9398570
-0.045868572 0.049857143 0.69800001 9332777
-0.044539049 0.049857143 0.69800001 8218155
-0.04314762 0.049785715 0.69700003 10257738
-0.041820001 0.049785715 0.69700003 9341611
-0.14292382 0.05118667 0.69800001 9274526
-0.14159428 0.05118667 0.69800001 8879768
-0.14026476 0.05118667 0.69800001 8810363
-0.13893524 0.05118667 0.69800001 7428710
-0.13800001 0.051333338 0.70000005 8543009
-0.13666669 0.051333338 0.70000005 9003560
-0.13533334 0.051333338 0.70000005 8806442
-0.134 0.051333338 0.70000005 8674856
-0.13285619 0.051406667 0.70100003 8674854
-0.13152096 0.051406667 0.70100003 8674854
-0.13018572 0.051406667 0.70100003 8740899
-0.12885047 0.051406667 0.70100003 8806692
-0.12751524 0.051406667 0.70100003 8937004
-0.12618001 0.051406667 0.70100003 9134383
-0.12520096 0.051553335 0.70300001 9135664
-0.12386191 0.051553335 0.70300001 9069871
-0.12217429 0.051406667 0.70100003 9201977
-0.12083905 0.051406667 0.70100003 9070391
-0.11950381 0.051406667 0.70100003 8609813
-0.11816857 0.051406667 0.70100003 8346641
-0.11683334 0.051406667 0.70100003 8478976
-0.1154981 0.051406667 0.70100003 8413184
-0.11416285 0.051406667 0.70100003 8347904
-0.11266667 0.051333338 0.70000005 8216320
-0.11133334 0.051333338 0.70000005 8084480
-0.11000001 0.051333338 0.70000005 7558144
-0.10664857 0.050380003 0.68700004 5130240
-0.10534 0.050380003 0.68700004 12170080
-0.10403144 0.050380003 0.68700004 13159935
-0.10257334 0.050306667 0.68600005 13291519
-0.10126667 0.050306667 0.68600005 12832255
-0.099960007 0.050306667 0.68600005 12634876
-0.098653339 0.050306667 0.68600005 12700669
-0.097346671 0.050306667 0.68600005 12634876
-0.096180007 0.050380003 0.68700004 12503549
-0.094871432 0.050380003 0.68700004 12503549
-0.093562864 0.050380003 0.68700004 12371967
-0.092254288 0.050380003 0.68700004 12437759
-0.090945721 0.050380003 0.68700004 12765948
-0.089637145 0.050380003 0.68700004 12700155
-0.08832857 0.050380003 0.68700004 12569085
-0.087020002 0.050380003 0.68700004 12700671
-0.085711427 0.050380003 0.68700004 12831741
-0.084402859 0.050380003 0.68700004 12831741
-0.083215237 0.050453335 0.68800002 12832507
-0.081785724 0.050380003 0.68700004 13029886
-0.080477148 0.050380003 0.68700004 13555707
-0.07916858 0.050380003 0.68700004 14082047
-0.077860005 0.050380003 0.68700004 14672639
-0.07655143 0.050380003 0.68700004 11317198
-0.07710477 0.051626671 0.70400006 9995447
-0.075656191 0.051553335 0.70300001 7692692
-0.07431715 0.051553335 0.70300001 9068565
-0.072978094 0.051553335 0.70300001 9726495
-0.071639046 0.051553335 0.70300001 9594682
-0.070100002 0.051406667 0.70100003 9660475
-0.068666674 0.051333338 0.70000005 9529132
-0.067333341 0.051333338 0.70000005 9529132
-0.066 0.051333338 0.70000005 9528378
-0.064481907 0.05118667 0.69800001 9462585
-0.06315238 0.05118667 0.69800001 9397544
-0.061822858 0.05118667 0.69800001 9331751
-0.060493335 0.05118667 0.69800001 9070121
-0.059163809 0.05118667 0.69800001 9135914
-0.057834286 0.05118667 0.69800001 9135916
-0.056504764 0.05118667 0.69800001 9267502
-0.055175241 0.05118667 0.69800001 9464109
-0.053845715 0.05118667 0.69800001 9332523
-0.052516192 0.05118667 0.69800001 9266698
-0.051113334 0.051113334 0.69700003 9529870
-0.049785715 0.051113334 0.69700003 9398046
-0.048458096 0.051113334 0.69700003 9398046
-0.04713048 0.051113334 0.69700003 9463852
-0.045802858 0.051113334 0.69700003 9398059
-0.044475239 0.051113334 0.69700003 8283176
-0.04314762 0.051113334 0.69700003 10388552
-0.041820001 0.051113334 0.69700003 9670054
-0.14404668 0.052440956 0.69700003 9536142
-0.14271906 0.052440956 0.69700003 9733021
-0.14139143 0.052440956 0.69700003 8877712
-0.14006381 0.052440956 0.69700003 9006702
-0.13873619 0.052440956 0.69700003 7756635
-0.13760573 0.052516192 0.69800001 8411671
-0.13627619 0.052516192 0.69800001 8740636
-0.13494666 0.052516192 0.69800001 8675106
-0.134 0.052666668 0.70000005 8609313
-0.13266666 0.052666668 0.70000005 8543781
-0.13133334 0.052666668 0.70000005 8412195
-0.13000001 0.052666668 0.70000005 8346891
-0.12866667 0.052666668 0.70000005 8281098
-0.12733334 0.052666668 0.70000005 8345619
-0.126 0.052666668 0.70000005 8082447
-0.12466668 0.052666668 0.70000005 8410880
-0.12333335 0.052666668 0.70000005 8279296
-0.122 0.052666668 0.70000005 8148251
-0.12066668 0.052666668 0.70000005 8214044
-0.11933334 0.052666668 0.70000005 8346382
-0.11800001 0.052666668 0.70000005 8675347
-0.11666667 0.052666668 0.70000005 9006080
-0.11533334 0.052666668 0.70000005 10716687
-0.11367428 0.052516192 0.69800001 10653472
-0.11234476 0.052516192 0.69800001 11048230
-0.11101524 0.052516192 0.69800001 11181081
-0.10952857 0.052440956 0.69700003 10983702
-0.10664857 0.051688574 0.68700004 9739008
-0.10534 0.051688574 0.68700004 11844363
-0.10403144 0.051688574 0.68700004 12897515
-0.10257334 0.051613338 0.68600005 13950203
-0.10097143 0.051462859 0.68400002 13357822
-0.09966857 0.051462859 0.68400002 12897271
-0.098365717 0.051462859 0.68400002 12700669
-0.097062856 0.051462859 0.68400002 12700669
-0.09604001 0.051613338 0.68600005 12832507
-0.094733343 0.051613338 0.68600005 12898300
-0.093426675 0.051613338 0.68600005 12832507
-0.092120007 0.051613338 0.68600005 12700921
-0.090813339 0.051613338 0.68600005 12700669
-0.089506678 0.051613338 0.68600005 12634876
-0.08820001 0.051613338 0.68600005 12634876
-0.086893335 0.051613338 0.68600005 13029631
-0.085711427 0.051688574 0.68700004 12832507
-0.084402859 0.051688574 0.68700004 12964093
-0.083094291 0.051688574 0.68700004 13030138
-0.081785724 0.051688574 0.68700004 13819647
-0.080477148 0.051688574 0.68700004 14279679
-0.07916858 0.051688574 0.68700004 14148093
-0.077860005 0.051688574 0.68700004 14409982
-0.07655143 0.051688574 0.68700004 10857160
-0.075242862 0.051688574 0.68700004 10192830
-0.075333342 0.052666668 0.70000005 7824282
-0.074000001 0.052666668 0.70000005 9068556
-0.072770476 0.052741908 0.70100003 9726486
-0.071435243 0.052741908 0.70100003 9659691
-0.070000008 0.052666668 0.70000005 9659691
-0.068470478 0.052516192 0.69800001 9594409
-0.067140952 0.052516192 0.69800001 9594409
-0.065811433 0.052516192 0.69800001 9528898
-0.064389527 0.052440956 0.69700003 9199933
-0.063061908 0.052440956 0.69700003 9134122
-0.061734285 0.052440956 0.69700003 9199915
-0.060406666 0.052440956 0.69700003 9069094
-0.059079047 0.052440956 0.69700003 9134887
-0.057751432 0.052440956 0.69700003 9200428
-0.056423813 0.052440956 0.69700003 9200428
-0.05509619 0.052440956 0.69700003 9200680
-0.053768571 0.052440956 0.69700003 8937508
-0.052440956 0.052440956 0.69700003 9068800
-0.051113334 0.052440956 0.69700003 9463554
-0.049785715 0.052440956 0.69700003 9266212
-0.048458096 0.052440956 0.69700003 9266212
-0.04713048 0.052440956 0.69700003 9332271
-0.045737144 0.05236572 0.69600004 9266478
-0.044411432 0.05236572 0.69600004 8217651
-0.043085717 0.05236572 0.69600004 10257234
-0.041760001 0.05236572 0.69600004 9735327
-0.14404668 0.053768571 0.69700003 9667728
-0.14271906 0.053768571 0.69700003 9864346
-0.14139143 0.053768571 0.69700003 8219521
-0.14006381 0.053768571 0.69700003 8808026
-0.13873619 0.053768571 0.69700003 8084303
-0.13740857 0.053768571 0.69700003 8412186
-0.13627619 0.053845715 0.69800001 8609565
-0.13494666 0.053845715 0.69800001 8543529
-0.13361715 0.053845715 0.69800001 8346150
-0.13228762 0.053845715 0.69800001 8149273
-0.1309581 0.053845715 0.69800001 7820308
-0.12962857 0.053845715 0.69800001 8150272
-0.12829906 0.053845715 0.69800001 8018688
-0.12696953 0.053845715 0.69800001 7688960
-0.12546 0.053768571 0.69700003 7886336
-0.12413239 0.053768571 0.69700003 8016896
-0.12298095 0.053845715 0.69800001 7951104
-0.12165143 0.053845715 0.69800001 7688960
-0.12032191 0.053845715 0.69800001 8741634
-0.11899238 0.053845715 0.69800001 9533440
-0.11766286 0.053845715 0.69800001 10454528
-0.11616667 0.053768571 0.69700003 10917376
-0.11483905 0.053768571 0.69700003 11180544
-0.11351143 0.053768571 0.69700003 11247360
-0.11218382 0.053768571 0.69700003 11905280
-0.11085619 0.053768571 0.69700003 12761403
-0.10905714 0.053537142 0.69400001 12958782
-0.10711429 0.053228576 0.69000006 10857032
-0.10580001 0.053228576 0.69000006 11185997
-0.10388 0.052920006 0.68600005 11581402
-0.10227428 0.052765712 0.68400002 13752571
-0.10082381 0.052688573 0.68300003 13489919
-0.099377148 0.052611433 0.68200004 12897784
-0.098078102 0.052611433 0.68200004 12635389
-0.096779048 0.052611433 0.68200004 12701182
-0.095619999 0.052688573 0.68300003 12833020
-0.094319053 0.052688573 0.68300003 12833020
-0.0930181 0.052688573 0.68300003 12766973
-0.091717146 0.052688573 0.68300003 12701180
-0.090416193 0.052688573 0.68300003 12897532
-0.089245714 0.052765712 0.68400002 12831739
-0.087942861 0.052765712 0.68400002 12634876
-0.08664 0.052765712 0.68400002 12832255
-0.085337147 0.052765712 0.68400002 12767227
-0.084034286 0.052765712 0.68400002 12964606
-0.082731433 0.052765712 0.68400002 13030397
-0.081666671 0.052920006 0.68600005 13688319
-0.080360003 0.052920006 0.68600005 14411775
-0.079053335 0.052920006 0.68600005 13622260
-0.077746667 0.052920006 0.68600005 12700927
-0.07655143 0.052997146 0.68700004 10200798
-0.075352386 0.053074285 0.68800002 10324666
-0.074580006 0.053460002 0.69300002 7758739
-0.073365718 0.053537142 0.69400001 9133586
-0.072355241 0.053768571 0.69700003 9659930
-0.071027622 0.053768571 0.69700003 9462560
-0.069700003 0.053768571 0.69700003 9528353
-0.068372384 0.053768571 0.69700003 9462823
-0.067044765 0.053768571 0.69700003 9594409
-0.065717146 0.053768571 0.69700003 9397816
-0.06429714 0.053691432 0.69600004 9266230
-0.062790476 0.053537142 0.69400001 9134635
-0.061468571 0.053537142 0.69400001 9003049
-0.060146667 0.053537142 0.69400001 9199651
-0.058824759 0.053537142 0.69400001 9199651
-0.057502858 0.053537142 0.69400001 9003299
-0.056180954 0.053537142 0.69400001 8937506
-0.05485905 0.053537142 0.69400001 9199903
-0.053537142 0.053537142 0.69400001 9134110
-0.052215237 0.053537142 0.69400001 9068800
-0.050893333 0.053537142 0.69400001 9331970
-0.049571428 0.053537142 0.69400001 9069344
-0.04824952 0.053537142 0.69400001 9135137
-0.046860002 0.053460002 0.69300002 9069871
-0.045540001 0.053460002 0.69300002 9004078
-0.044220001 0.053460002 0.69300002 7561481
-0.0429 0.053460002 0.69300002 9864236
-0.041579999 0.053460002 0.69300002 9340830
-0.14404668 0.05509619 0.69700003 9733269
-0.14271906 0.05509619 0.69700003 9733269
-0.14139143 0.05509619 0.69700003 7364721
-0.14006381 0.05509619 0.69700003 7032887
-0.13873619 0.05509619 0.69700003 7296059
-0.13740857 0.05509619 0.69700003 7885320
-0.13608097 0.05509619 0.69700003 8016906
-0.13475335 0.05509619 0.69700003 7687698
-0.13323429 0.055017143 0.69600004 7227147
-0.13190858 0.055017143 0.69600004 7489047
-0.13077047 0.05509619 0.69700003 7883805
-0.12944287 0.05509619 0.69700003 8280598
-0.12811525 0.05509619 0.69700003 9991216
-0.12660572 0.055017143 0.69600004 10587648
-0.12528001 0.055017143 0.69600004 11179776
-0.12395429 0.055017143 0.69600004 12103424
-0.12262858 0.055017143 0.69600004 12300800
-0.12130286 0.055017143 0.69600004 12697088
-0.11997715 0.055017143 0.69600004 13289221
-0.11865143 0.055017143 0.69600004 13421824
-0.11732572 0.055017143 0.69600004 13882368
-0.11600001 0.055017143 0.69600004 13947653
-0.11434477 0.05485905 0.69400001 14079239
-0.11302286 0.05485905 0.69400001 13815859
-0.11170095 0.05485905 0.69400001 14079031
-0.10990191 0.054621909 0.69100004 13817088
-0.10842858 0.054542862 0.69000006 13159168
-0.10664857 0.054305717 0.68700004 10527329
-0.10534 0.054305717 0.68700004 9079883
-0.10357714 0.054068573 0.68400002 9739968
-0.10227428 0.054068573 0.68400002 12963825
-0.10082381 0.053989526 0.68300003 13818111
-0.099377148 0.053910479 0.68200004 13620735
-0.097790472 0.053752381 0.68000001 13292542
-0.096495233 0.053752381 0.68000001 13095163
-0.095480002 0.053910479 0.68200004 12701691
-0.094180956 0.053910479 0.68200004 12635898
-0.092881911 0.053910479 0.68200004 12701434
-0.091582857 0.053910479 0.68200004 12635641
-0.090283811 0.053910479 0.68200004 12700921
-0.089115247 0.053989526 0.68300003 12898300
-0.087685719 0.053910479 0.68200004 12832759
-0.086386673 0.053910479 0.68200004 12964345
-0.08508762 0.053910479 0.68200004 13556215
-0.083788574 0.053910479 0.68200004 14148351
-0.08261048 0.053989526 0.68300003 14411261
-0.081428573 0.054068573 0.68400002 14082296
-0.080125719 0.054068573 0.68400002 13687550
-0.079053335 0.05422667 0.68600005 11976932
-0.077746667 0.05422667 0.68600005 12106987
-0.07655143 0.054305717 0.68700004 10330576
-0.075352386 0.054384761 0.68800002 10522535
-0.074364766 0.054621909 0.69100004 7561850
-0.073260002 0.054779999 0.69300002 8607244
-0.071940005 0.054779999 0.69300002 9265174
-0.07092572 0.055017143 0.69600004 9002004
-0.069400005 0.05485905 0.69400001 9002004
-0.068078093 0.05485905 0.69400001 9002013
-0.066756189 0.05485905 0.69400001 9330978
-0.065434285 0.05485905 0.69400001 8936225
-0.06411238 0.05485905 0.69400001 8936225
-0.062699996 0.054779999 0.69300002 8673821
-0.061380003 0.054779999 0.69300002 8608028
-0.060060002 0.054779999 0.69300002 8739854
-0.058740001 0.054779999 0.69300002 8805647
-0.05742 0.054779999 0.69300002 8674059
-0.056100003 0.054779999 0.69300002 8542473
-0.054779999 0.054779999 0.69300002 8608007
-0.053460002 0.054779999 0.69300002 8608007
-0.052140001 0.054779999 0.69300002 8607744
-0.05082 0.054779999 0.69300002 8870916
-0.049500003 0.054779999 0.69300002 8870929
-0.048179999 0.054779999 0.69300002 9002515
-0.046724766 0.054621909 0.69100004 8937254
-0.045408577 0.054621909 0.69100004 8805668
-0.044092383 0.054621909 0.69100004 7429402
-0.042776193 0.054621909 0.69100004 9666364
-0.04146 0.054621909 0.69100004 9799584
-0.14425333 0.056504764 0.69800001 9405330
-0.14271906 0.056423813 0.69700003 9733269
-0.14139143 0.056423813 0.69700003 7167342
-0.13986287 0.056342859 0.69600004 6966272
-0.13853714 0.056342859 0.69600004 7426816
-0.13721143 0.056342859 0.69600004 7357952
-0.13588572 0.056342859 0.69600004 7555328
-0.13456 0.056342859 0.69600004 7359232
-0.13285144 0.056180954 0.69400001 7753984
-0.13152952 0.056180954 0.69400001 8150272
-0.13058287 0.056342859 0.69600004 9466116
-0.12925714 0.056342859 0.69600004 10586624
-0.12793143 0.056342859 0.69600004 11112960
-0.12624191 0.056180954 0.69400001 11378688
-0.12492 0.056180954 0.69400001 12102400
-0.12359809 0.056180954 0.69400001 12828439
-0.12227619 0.056180954 0.69400001 13946920
-0.12078 0.056100003 0.69300002 13226815
-0.11946 0.056100003 0.69300002 13358401
-0.11814 0.056100003 0.69300002 13423667
-0.11698857 0.056180954 0.69400001 13621046
-0.11566667 0.056180954 0.69400001 14014814
-0.11434477 0.056180954 0.69400001 13949021
-0.11302286 0.056180954 0.69400001 13685606
-0.11170095 0.056180954 0.69400001 13619813
-0.10990191 0.055938099 0.69100004 13554795
-0.10811429 0.055695239 0.68800002 12567900
-0.10664857 0.055614289 0.68700004 9675865
-0.10518667 0.055533338 0.68600005 8425798
-0.10357714 0.055371426 0.68400002 9214361
-0.10227428 0.055371426 0.68400002 12372425
-0.10082381 0.055290479 0.68300003 12832511
-0.099377148 0.055209529 0.68200004 13227263
-0.097790472 0.055047616 0.68000001 13622527
-0.096495233 0.055047616 0.68000001 13227769
-0.095480002 0.055209529 0.68200004 12899070
-0.094180956 0.055209529 0.68200004 12833277
-0.092881911 0.055209529 0.68200004 12898300
-0.091582857 0.055209529 0.68200004 12898300
-0.090283811 0.055209529 0.68200004 12833018
-0.088984765 0.055209529 0.68200004 13030397
-0.08742857 0.055047616 0.68000001 13424378
-0.086133331 0.055047616 0.68000001 13621757
-0.08508762 0.055209529 0.68200004 14147834
-0.083788574 0.055209529 0.68200004 14345213
-0.082489528 0.055209529 0.68200004 14739710
-0.08130952 0.055290479 0.68300003 13884401
-0.080125719 0.055371426 0.68400002 12766462
-0.079053335 0.055533338 0.68600005 11450602
-0.077746667 0.055533338 0.68600005 11514098
-0.07655143 0.055614289 0.68700004 9540308
-0.075352386 0.055695239 0.68800002 10125980
-0.074364766 0.055938099 0.69100004 7889018
-0.073048577 0.055938099 0.69100004 8739328
-0.071732387 0.055938099 0.69100004 9265664
-0.070721909 0.056180954 0.69400001 8936981
-0.069400005 0.056180954 0.69400001 8936981
-0.068078093 0.056180954 0.69400001 8739091
-0.066660002 0.056100003 0.69300002 9133849
-0.065340005 0.056100003 0.69300002 8607530
-0.06402 0.056100003 0.69300002 9002288
-0.062699996 0.056100003 0.69300002 8870233
-0.061380003 0.056100003 0.69300002 8672854
-0.059886672 0.055938099 0.69100004 8870205
-0.058570478 0.055938099 0.69100004 8738619
-0.057254288 0.055938099 0.69100004 8936218
-0.055938099 0.055938099 0.69100004 9133597
-0.054621909 0.055938099 0.69100004 8937254
-0.053305719 0.055938099 0.69100004 9068840
-0.051989529 0.055938099 0.69100004 9265458
-0.050673336 0.055938099 0.69100004 9331251
-0.049357146 0.055938099 0.69100004 9463359
-0.048040956 0.055938099 0.69100004 9923910
-0.046724766 0.055938099 0.69100004 9988975
-0.045408577 0.055938099 0.69100004 8738908
-0.044028573 0.055857148 0.69000006 7559680
-0.042714287 0.055857148 0.69000006 10322974
-0.04146 0.055938099 0.69100004 9931170
-0.039853338 0.055533338 0.68600005 10720686
-0.03854667 0.055533338 0.68600005 10458009
-0.14271906 0.057751432 0.69700003 9206925
-0.14078286 0.057502858 0.69400001 6509412
-0.13926001 0.05742 0.69300002 7165440
-0.13794 0.05742 0.69300002 9139221
-0.13662 0.05742 0.69300002 10390784
-0.1353 0.05742 0.69300002 10785537
-0.13398001 0.05742 0.69300002 12499712
-0.13266 0.05742 0.69300002 12631296
-0.13134 0.05742 0.69300002 12763648
-0.13020761 0.057502858 0.69400001 13947904
-0.12888572 0.057502858 0.69400001 13815091
-0.1275638 0.057502858 0.69400001 13749298
-0.12624191 0.057502858 0.69400001 13619221
-0.12492 0.057502858 0.69400001 13750807
-0.12342 0.05742 0.69300002 13619772
-0.1221 0.05742 0.69300002 13488186
-0.12078 0.05742 0.69300002 13094430
-0.11946 0.05742 0.69300002 13423395
-0.11814 0.05742 0.69300002 12768000
-0.11682 0.05742 0.69300002 11057408
-0.11516668 0.057254288 0.69100004 11910712
-0.11385048 0.057254288 0.69100004 12239677
-0.11253429 0.057254288 0.69100004 10528842
-0.11154 0.05742 0.69300002 9344568
-0.10974286 0.057171434 0.69000006 11582533
-0.10811429 0.057005715 0.68800002 12569428
-0.10649334 0.056840003 0.68600005 10266483
-0.10518667 0.056840003 0.68600005 8358486
-0.10357714 0.056674287 0.68400002 8162235
-0.10212477 0.056591429 0.68300003 10333404
-0.10067619 0.056508575 0.68200004 11779286
-0.099085711 0.056342855 0.68000001 12700388
-0.097790472 0.056342855 0.68000001 13555711
-0.096495233 0.056342855 0.68000001 14016255
-0.095199995 0.056342855 0.68000001 14082047
-0.093904756 0.056342855 0.68000001 14082047
-0.092609517 0.056342855 0.68000001 14213373
-0.091314279 0.056342855 0.68000001 14805503
-0.090019047 0.056342855 0.68000001 14674174
-0.088723809 0.056342855 0.68000001 14871551
-0.08742857 0.056342855 0.68000001 14938111
-0.086133331 0.056342855 0.68000001 15267071
-0.0848381 0.056342855 0.68000001 14214143
-0.083542861 0.056342855 0.68000001 13622006
-0.082489528 0.056508575 0.68200004 12832766
-0.081190482 0.056508575 0.68200004 11977457
-0.080008574 0.056591429 0.68300003 11910911
-0.079053335 0.056840003 0.68600005 11187191
-0.077860005 0.05692286 0.68700004 11776244
-0.076662861 0.057005715 0.68800002 9210317
-0.075352386 0.057005715 0.68800002 9862518
-0.07425715 0.057171434 0.69000006 8217693
-0.07294286 0.057171434 0.69000006 9132829
-0.071628578 0.057171434 0.69000006 10777654
-0.070416197 0.057254288 0.69100004 10978120
-0.069299996 0.05742 0.69300002 11109706
-0.067980006 0.05742 0.69300002 10912870
-0.066660002 0.05742 0.69300002 11110249
-0.065340005 0.05742 0.69300002 10717052
-0.063835248 0.057254288 0.69100004 10980224
-0.062519051 0.057254288 0.69100004 11307683
-0.061202858 0.057254288 0.69100004 10583960
-0.059800003 0.057171434 0.69000006 10387049
-0.058485717 0.057171434 0.69000006 9531740
-0.057171434 0.057171434 0.69000006 9926229
-0.055857148 0.057171434 0.69000006 11571054
-0.054542862 0.057171434 0.69000006 11571815
-0.053228576 0.057171434 0.69000006 12756089
-0.05191429 0.057171434 0.69000006 12295797
-0.050600003 0.057171434 0.69000006 12230004
-0.049285717 0.057171434 0.69000006 11900787
-0.047971431 0.057171434 0.69000006 12295545
-0.046521906 0.057005715 0.68800002 10846362
-0.045211427 0.057005715 0.68800002 8280435
-0.043900952 0.057005715 0.68800002 7362605
-0.042590477 0.057005715 0.68800002 10060118
-0.041160002 0.056840003 0.68600005 10458520
-0.039853338 0.056840003 0.68600005 10721692
-0.038434289 0.056674287 0.68400002 10195596
-0.037131429 0.056674287 0.68400002 8550771
-0.035828575 0.056674287 0.68400002 8812921
-0.14058001 0.058740001 0.69300002 7695471
-0.13885811 0.058570478 0.69100004 8025600
-0.13754191 0.058570478 0.69100004 8815104
-0.13622572 0.058570478 0.69100004 11509510
-0.13490954 0.058570478 0.69100004 13154335
-0.13359334 0.058570478 0.69100004 13091152
-0.13227715 0.058570478 0.69100004 12499015
-0.13096096 0.058570478 0.69100004 12962355
-0.12964478 0.058570478 0.69100004 13817664
-0.1287 0.058740001 0.69300002 13423440
-0.12738001 0.058740001 0.69300002 13423440
-0.12606001 0.058740001 0.69300002 13554282
-0.12474 0.058740001 0.69300002 13554282
-0.12306382 0.058570478 0.69100004 13619843
-0.12174763 0.058570478 0.69100004 13225085
-0.12043144 0.058570478 0.69100004 12041813
-0.11911524 0.058570478 0.69100004 12897122
-0.11779906 0.058570478 0.69100004 12372347
-0.11648286 0.058570478 0.69100004 9740627
-0.11516668 0.058570478 0.69100004 9872229
-0.11385048 0.058570478 0.69100004 10201194
-0.11253429 0.058570478 0.69100004 7967044
-0.1112181 0.058570478 0.69100004 9414490
-0.10974286 0.058485717 0.69000006 10796097
-0.10811429 0.058316194 0.68800002 11980371
-0.10649334 0.05814667 0.68600005 11187551
-0.10518667 0.05814667 0.68600005 8490038
-0.10342572 0.057892382 0.68300003 8162466
-0.10212477 0.057892382 0.68300003 10267842
-0.10067619 0.057807621 0.68200004 10398670
-0.09894 0.057553336 0.67900002 11451358
-0.097646669 0.057553336 0.67900002 12239870
-0.096495233 0.057638094 0.68000001 13095167
-0.095199995 0.057638094 0.68000001 13227775
-0.093904756 0.057638094 0.68000001 13622527
-0.092609517 0.057638094 0.68000001 14016766
-0.091180004 0.057553336 0.67900002 14345727
-0.089886673 0.057553336 0.67900002 14477054
-0.088593334 0.057553336 0.67900002 14542847
-0.087300003 0.057553336 0.67900002 14740991
-0.086006664 0.057553336 0.67900002 14609405
-0.08471334 0.057553336 0.67900002 13426175
-0.083420001 0.057553336 0.67900002 12899831
-0.082489528 0.057807621 0.68200004 11978495
-0.081190482 0.057807621 0.68200004 11320567
-0.080008574 0.057892382 0.68300003 11450111
-0.079053335 0.05814667 0.68600005 11055353
-0.077860005 0.058231428 0.68700004 11578590
-0.076662861 0.058316194 0.68800002 8025768
-0.075352386 0.058316194 0.68800002 9463894
-0.07425715 0.058485717 0.69000006 9003343
-0.07294286 0.058485717 0.69000006 9263904
-0.071628578 0.058485717 0.69000006 10711350
-0.070314296 0.058485717 0.69000006 11043168
-0.069100007 0.058570478 0.69100004 11174754
-0.06778381 0.058570478 0.69100004 10914414
-0.066467628 0.058570478 0.69100004 10717035
-0.065151431 0.058570478 0.69100004 10653051
-0.063835248 0.058570478 0.69100004 10587258
-0.062519051 0.058570478 0.69100004 11309716
-0.061202858 0.058570478 0.69100004 10191235
-0.059800003 0.058485717 0.69000006 10124385
-0.058316194 0.058316194 0.68800002 9269076
-0.057005715 0.058316194 0.68800002 9794377
-0.055695239 0.058316194 0.68800002 10847065
-0.054384761 0.058316194 0.68800002 10650221
-0.053074285 0.058316194 0.68800002 10781807
-0.05176381 0.058316194 0.68800002 11044204
-0.050453335 0.058316194 0.68800002 10912618
-0.04914286 0.058316194 0.68800002 10846309
-0.047762856 0.058231428 0.68700004 11043688
-0.046454288 0.058231428 0.68700004 10582650
-0.045145717 0.058231428 0.68700004 8082516
-0.043837145 0.058231428 0.68700004 7427349
-0.04246667 0.05814667 0.68600005 11506515
-0.041160002 0.05814667 0.68600005 10459556
-0.039853338 0.05814667 0.68600005 10196384
-0.038434289 0.05797714 0.68400002 9734802
-0.037131429 0.05797714 0.68400002 8287356
-0.035828575 0.05797714 0.68400002 8549488
-0.13997145 0.059800003 0.69000006 12627627
-0.13865715 0.059800003 0.69000006 12829696
-0.13734286 0.059800003 0.69000006 13750784
-0.13602859 0.059800003 0.69000006 13420880
-0.13471429 0.059800003 0.69000006 14013017
-0.13340001 0.059800003 0.69000006 11253536
-0.13208573 0.059800003 0.69000006 5792768
-0.13077144 0.059800003 0.69000006 9804621
-0.12945715 0.059800003 0.69000006 13357443
-0.12814288 0.059800003 0.69000006 13093669
-0.12682858 0.059800003 0.69000006 12172567
-0.1255143 0.059800003 0.69000006 9938029
-0.1242 0.059800003 0.69000006 9872236
-0.12288573 0.059800003 0.69000006 9937259
-0.12157144 0.059800003 0.69000006 9345122
-0.12025715 0.059800003 0.69000006 9606490
-0.11894286 0.059800003 0.69000006 10659178
-0.11762858 0.059800003 0.69000006 9151561
-0.11648286 0.059886672 0.69100004 2703872
-0.11500001 0.059800003 0.69000006 5333663
-0.11368572 0.059800003 0.69000006 7768004
-0.11237144 0.059800003 0.69000006 8620657
-0.11105715 0.059800003 0.69000006 11383963
-0.10926571 0.05954 0.68700004 12834342
-0.10795715 0.05954 0.68700004 13492272
-0.10649334 0.059453338 0.68600005 11649866
-0.10488 0.059280004 0.68400002 8360216
-0.10342572 0.059193335 0.68300003 7835573
-0.10212477 0.059193335 0.68300003 9019847
-0.10067619 0.05910667 0.68200004 10464185
-0.09894 0.058846667 0.67900002 10793150
-0.097646669 0.058846667 0.67900002 10924519
-0.096495233 0.058933333 0.68000001 11385070
-0.095199995 0.058933333 0.68000001 11582463
-0.093904756 0.058933333 0.68000001 11779839
-0.092609517 0.058933333 0.68000001 12043519
-0.091180004 0.058846667 0.67900002 12240895
-0.089886673 0.058846667 0.67900002 12306687
-0.088593334 0.058846667 0.67900002 12240895
-0.087300003 0.058846667 0.67900002 11716351
-0.086006664 0.058846667 0.67900002 11387389
-0.08471334 0.058846667 0.67900002 11452927
-0.083420001 0.058846667 0.67900002 11584511
-0.082489528 0.05910667 0.68200004 12043007
-0.08130952 0.059193335 0.68300003 11714046
-0.080125719 0.059280004 0.68400002 12173552
-0.079053335 0.059453338 0.68600005 10989278
-0.077860005 0.05954 0.68700004 11314338
-0.07655143 0.05954 0.68700004 7366758
-0.075352386 0.059626669 0.68800002 8609086
-0.07404191 0.059626669 0.68800002 8806465
-0.072731428 0.059626669 0.68800002 8806199
-0.071420953 0.059626669 0.68800002 8871992
-0.070314296 0.059800003 0.69000006 9331773
-0.069000006 0.059800003 0.69000006 9200187
-0.067489527 0.059626669 0.68800002 8871747
-0.066179045 0.059626669 0.68800002 8674368
-0.064868569 0.059626669 0.68800002 8939832
-0.063558094 0.059626669 0.68800002 8808246
-0.062247619 0.059626669 0.68800002 9070384
-0.060937144 0.059626669 0.68800002 8938798
-0.059626669 0.059626669 0.68800002 8873768
-0.058231428 0.05954 0.68700004 8479010
-0.05692286 0.05954 0.68700004 9071933
-0.055614289 0.05954 0.68700004 9532484
-0.054305717 0.05954 0.68700004 9794653
-0.052997146 0.05954 0.68700004 9465688
-0.051688574 0.05954 0.68700004 9662539
-0.050380003 0.05954 0.68700004 10057297
-0.049071431 0.05954 0.68700004 10056777
-0.047762856 0.05954 0.68700004 10319949
-0.046454288 0.05954 0.68700004 9860672
-0.045145717 0.05954 0.68700004 7689503
-0.043773334 0.059453338 0.68600005 7626062
-0.04246667 0.059453338 0.68600005 11244677
-0.041160002 0.059453338 0.68600005 10787233
-0.039853338 0.059453338 0.68600005 10392475
-0.03854667 0.059453338 0.68600005 9275541
-0.037240002 0.059453338 0.68600005 7433337
-0.14067143 0.060848575 0.68700004 10127743
-0.13936286 0.060848575 0.68700004 13220014
-0.13805428 0.060848575 0.68700004 13356660
-0.13694477 0.060937144 0.68800002 12764523
-0.13563429 0.060937144 0.68800002 12765043
-0.13432382 0.060937144 0.68800002 13225594
-0.13301334 0.060937144 0.68800002 9218122
-0.13170287 0.060937144 0.68800002 3033600
-0.13039239 0.060937144 0.68800002 7635247
-0.12889428 0.060848575 0.68700004 13161859
-0.12758572 0.060848575 0.68700004 12635240
-0.12627715 0.060848575 0.68700004 8885039
-0.12515049 0.060937144 0.68800002 7045699
-0.12384 0.060937144 0.68800002 7308871
-0.12252953 0.060937144 0.68800002 8886911
-0.12121905 0.060937144 0.68800002 8623739
-0.11990858 0.060937144 0.68800002 6253924
-0.1185981 0.060937144 0.68800002 7767163
-0.11728762 0.060937144 0.68800002 8754571
-0.11597715 0.060937144 0.68800002 3556924
-0.11466667 0.060937144 0.68800002 4152943
-0.11335619 0.060937144 0.68800002 4547701
-0.11204571 0.060937144 0.68800002 7433326
-0.11073524 0.060937144 0.68800002 13025731
-0.10910667 0.060760003 0.68600005 13491034
-0.10780001 0.060760003 0.68600005 13293655
-0.10618286 0.060582858 0.68400002 11191896
-0.10488 0.060582858 0.68400002 8757555
-0.10342572 0.060494285 0.68300003 7834768
-0.10212477 0.060494285 0.68300003 9150628
-0.10067619 0.060405716 0.68200004 10069184
-0.099085711 0.060228571 0.68000001 10595528
-0.097790472 0.060228571 0.68000001 10398434
-0.096495233 0.060228571 0.68000001 10727399
-0.095199995 0.060228571 0.68000001 11384316
-0.093904756 0.060228571 0.68000001 11515902
-0.092609517 0.060228571 0.68000001 11582463
-0.091314279 0.060228571 0.68000001 11648255
-0.089886673 0.060140003 0.67900002 11846399
-0.088593334 0.060140003 0.67900002 11846399
-0.087300003 0.060140003 0.67900002 11715071
-0.086006664 0.060140003 0.67900002 11583487
-0.08471334 0.060140003 0.67900002 11583743
-0.083542861 0.060228571 0.68000001 11715327
-0.082489528 0.060405716 0.68200004 11911167
-0.081428573 0.060582858 0.68400002 11713791
-0.080125719 0.060582858 0.68400002 11712490
-0.079053335 0.060760003 0.68600005 9936079
-0.077860005 0.060848575 0.68700004 9077124
-0.07655143 0.060848575 0.68700004 7958643
-0.075242862 0.060848575 0.68700004 9267277
-0.073934287 0.060848575 0.68700004 10254172
-0.072625719 0.060848575 0.68700004 9860991
-0.071317144 0.060848575 0.68700004 9137268
-0.070008576 0.060848575 0.68700004 9070678
-0.068700001 0.060848575 0.68700004 8939092
-0.067391433 0.060848575 0.68700004 9002306
-0.066082858 0.060848575 0.68700004 9133892
-0.064774282 0.060848575 0.68700004 10253395
-0.063465714 0.060848575 0.68700004 9924430
-0.06215715 0.060848575 0.68700004 9594189
-0.060848575 0.060848575 0.68700004 10252119
-0.05954 0.060848575 0.68700004 9794667
-0.058231428 0.060848575 0.68700004 9070944
-0.05692286 0.060848575 0.68700004 9138022
-0.055614289 0.060848575 0.68700004 9466987
-0.054305717 0.060848575 0.68700004 9925744
-0.052997146 0.060848575 0.68700004 9925744
-0.051688574 0.060848575 0.68700004 9925733
-0.050306667 0.060760003 0.68600005 9925733
-0.049000002 0.060760003 0.68600005 10187868
-0.047693335 0.060760003 0.68600005 10648419
-0.04638667 0.060760003 0.68600005 9926738
-0.045080002 0.060760003 0.68600005 7821362
-0.043773334 0.060760003 0.68600005 7889232
-0.04246667 0.060760003 0.68600005 11376261
-0.041160002 0.060760003 0.68600005 10787501
-0.039853338 0.060760003 0.68600005 10261157
-0.03854667 0.060760003 0.68600005 9013132
-0.037240002 0.060760003 0.68600005 7302514
-0.14136 0.061885718 0.68400002 9010300
-0.14005713 0.061885718 0.68400002 9669234
-0.13916001 0.062066671 0.68600005 11511438
-0.13785335 0.062066671 0.68600005 7700872
-0.13654667 0.062066671 0.68600005 4740187
-0.13524002 0.062066671 0.68600005 9345115
-0.13412857 0.06215715 0.68700004 12371593
-0.13282001 0.06215715 0.68700004 10135876
-0.13151143 0.06215715 0.68700004 4675072
-0.13020287 0.06215715 0.68700004 8490629
-0.12889428 0.06215715 0.68700004 11648693
-0.12758572 0.06215715 0.68700004 10724433
-0.12627715 0.06215715 0.68700004 8553264
-0.12496858 0.06215715 0.68700004 7701379
-0.12366 0.06215715 0.68700004 6056554
-0.12235144 0.06215715 0.68700004 7043486
-0.12104286 0.06215715 0.68700004 9083069
-0.11973429 0.06215715 0.68700004 6780573
-0.11842572 0.06215715 0.68700004 5596299
-0.11711715 0.06215715 0.68700004 5731492
-0.11580858 0.06215715 0.68700004 4086667
-0.1145 0.06215715 0.68700004 3037322
-0.11319143 0.06215715 0.68700004 3037322
-0.11172 0.062066671 0.68600005 8029342
-0.11041334 0.062066671 0.68600005 13292782
-0.10910667 0.062066671 0.68600005 13491500
-0.10780001 0.062066671 0.68600005 13228328
-0.10618286 0.061885718 0.68400002 11454555
-0.10488 0.061885718 0.68400002 11520348
-0.10342572 0.061795238 0.68300003 9745046
-0.10212477 0.061795238 0.68300003 8560772
-0.10067619 0.061704762 0.68200004 9282240
-0.099085711 0.061523806 0.68000001 9479619
-0.097790472 0.061523806 0.68000001 10134240
-0.096495233 0.061523806 0.68000001 10726377
-0.095199995 0.061523806 0.68000001 11252721
-0.093904756 0.061523806 0.68000001 11252721
-0.092609517 0.061523806 0.68000001 11253495
-0.091314279 0.061523806 0.68000001 11450874
-0.090019047 0.061523806 0.68000001 11254013
-0.088723809 0.061523806 0.68000001 11056634
-0.08742857 0.061523806 0.68000001 11188479
-0.086133331 0.061523806 0.68000001 11385855
-0.0848381 0.061523806 0.68000001 11649023
-0.083542861 0.061523806 0.68000001 11912191
-0.082489528 0.061704762 0.68200004 12502263
-0.081428573 0.061885718 0.68400002 10594266
-0.080125719 0.061885718 0.68400002 9800900
-0.079053335 0.062066671 0.68600005 6642836
-0.077746667 0.062066671 0.68600005 8085047
-0.07655143 0.06215715 0.68700004 9532493
-0.075242862 0.06215715 0.68700004 10124378
-0.073934287 0.06215715 0.68700004 11177066
-0.072625719 0.06215715 0.68700004 11045781
-0.071317144 0.06215715 0.68700004 10124679
-0.070008576 0.06215715 0.68700004 10321531
-0.068700001 0.06215715 0.68700004 10847875
-0.067391433 0.06215715 0.68700004 9992022
-0.066082858 0.06215715 0.68700004 9531471
-0.064774282 0.06215715 0.68700004 10386293
-0.063465714 0.06215715 0.68700004 11307395
-0.06215715 0.06215715 0.68700004 11307887
-0.060848575 0.06215715 0.68700004 12097403
-0.059453338 0.062066671 0.68600005 10123675
-0.05814667 0.062066671 0.68600005 9597331
-0.056840003 0.062066671 0.68600005 9466249
-0.055533338 0.062066671 0.68600005 9729421
-0.05422667 0.062066671 0.68600005 9860478
-0.052920006 0.062066671 0.68600005 10715787
-0.051613338 0.062066671 0.68600005 10584444
-0.050306667 0.062066671 0.68600005 10387065
-0.049000002 0.062066671 0.68600005 10518381
-0.047693335 0.062066671 0.68600005 10978932
-0.046251431 0.061885718 0.68400002 9795931
-0.04494857 0.061885718 0.68400002 7493176
-0.043645717 0.061885718 0.68400002 8218197
-0.042342857 0.061885718 0.68400002 11836812
-0.041160002 0.062066671 0.68600005 11181226
-0.039853338 0.062066671 0.68600005 9865366
-0.038602859 0.06215715 0.68700004 8354176
-0.14136 0.063188568 0.68400002 9669513
-0.14005713 0.063188568 0.68400002 10132604
-0.13916001 0.063373342 0.68600005 9474674
-0.13785335 0.063373342 0.68600005 6191454
-0.13654667 0.063373342 0.68600005 3362355
-0.13524002 0.063373342 0.68600005 8226660
-0.13393334 0.063373342 0.68600005 10529415
-0.13262668 0.063373342 0.68600005 9344865
-0.13132001 0.063373342 0.68600005 7700040
-0.13001333 0.063373342 0.68600005 9476241
-0.12870668 0.063373342 0.68600005 8752518
-0.1274 0.063373342 0.68600005 8813913
-0.12609334 0.063373342 0.68600005 10063980
-0.12478668 0.063373342 0.68600005 11579048
-0.12348001 0.063373342 0.68600005 7105124
-0.12217335 0.063373342 0.68600005 5593711
-0.12086668 0.063373342 0.68600005 9541291
-0.11956001 0.063373342 0.68600005 6849945
-0.11825334 0.063373342 0.68600005 3560295
-0.11711715 0.063465714 0.68700004 5468054
-0.11564001 0.063373342 0.68600005 5073296
-0.11433334 0.063373342 0.68600005 2250338
-0.11302667 0.063373342 0.68600005 2316131
-0.11172 0.063373342 0.68600005 8950397
-0.11041334 0.063373342 0.68600005 13490114
-0.10910667 0.063373342 0.68600005 13556550
-0.10780001 0.063373342 0.68600005 13095999
-0.10618286 0.063188568 0.68400002 12308550
-0.10472667 0.063096188 0.68300003 12242757
-0.10342572 0.063096188 0.68300003 10995582
-0.10197524 0.063003816 0.68200004 10403445
-0.10067619 0.063003816 0.68200004 8430260
-0.099085711 0.062819049 0.68000001 8430260
-0.097790472 0.062819049 0.68000001 9673677
-0.096495233 0.062819049 0.68000001 10792158
-0.095199995 0.062819049 0.68000001 11186426
-0.093904756 0.062819049 0.68000001 10989047
-0.092609517 0.062819049 0.68000001 10923508
-0.091314279 0.062819049 0.68000001 11252473
-0.090019047 0.062819049 0.68000001 11186937
