# .PCD v0.7 - Point Cloud Data file format
VERSION 0.7
FIELDS x y z rgba
SIZE 4 4 4 4
TYPE F F F U
COUNT 1 1 1 1
WIDTH 1082
HEIGHT 1
VIEWPOINT 0 0 0 1 0 0 0
POINTS 1082
DATA ascii
-0.07557334 0.043680001 0.72800004 14437381
-0.074186668 0.043680001 0.72800004 14307072
-0.070699997 0.04242 0.70700002 14504448
-0.06925524 0.04236 0.70600003 14439424
-0.067910478 0.04236 0.70600003 14373632
-0.066565715 0.04236 0.70600003 14504448
-0.065220952 0.04236 0.70600003 14570240
-0.063876189 0.04236 0.70600003 14700544
-0.062531434 0.04236 0.70600003 14700544
-0.061186668 0.04236 0.70600003 14699020
-0.059841909 0.04236 0.70600003 14106883
-0.058331434 0.042240005 0.70400006 14696960
-0.056990478 0.042240005 0.70400006 16539152
-0.055649526 0.042240005 0.70400006 15501906
-0.05608286 0.043620002 0.72700006 16225629
-0.054698102 0.043620002 0.72700006 14310736
-0.053313337 0.043620002 0.72700006 12271153
-0.051928576 0.043620002 0.72700006 12991567
-0.050404765 0.043500002 0.72500002 12333637
-0.049023811 0.043500002 0.72500002 12922682
-0.047642857 0.043500002 0.72500002 13317440
-0.046134286 0.043380003 0.72300005 13055279
-0.044757146 0.043380003 0.72300005 12463142
-0.043500002 0.043500002 0.72500002 12330301
-0.04223524 0.043620002 0.72700006 11277613
-0.040850475 0.043620002 0.72700006 10625082
-0.039465718 0.043620002 0.72700006 12993630
-0.038080957 0.043620002 0.72700006 10445953
-0.036696192 0.043620002 0.72700006 9459058
-0.035311431 0.043620002 0.72700006 9726087
-0.033833336 0.043500002 0.72500002 9791880
-0.032452382 0.043500002 0.72500002 10844545
-0.031157147 0.043620002 0.72700006 11831440
-0.029608574 0.043380003 0.72300005 11567741
-0.028231429 0.043380003 0.72300005 11699327
-0.026928572 0.043500002 0.72500002 11829936
-0.02554762 0.043500002 0.72500002 11764143
-0.024166666 0.043500002 0.72500002 11436964
-0.022848573 0.043620002 0.72700006 10581655
-0.021463811 0.043620002 0.72700006 13734031
-0.02007905 0.043620002 0.72700006 16760509
-0.018694287 0.043620002 0.72700006 14722892
-0.017309524 0.043620002 0.72700006 7683072
-0.11578667 0.04506667 0.72800004 12814966
-0.11440001 0.04506667 0.72800004 9393730
-0.11301334 0.04506667 0.72800004 11089226
-0.11162667 0.04506667 0.72800004 11155019
-0.11008858 0.045004766 0.72700006 10369387
-0.10870381 0.045004766 0.72700006 10435180
-0.10746667 0.04506667 0.72800004 10893153
-0.10593429 0.045004766 0.72700006 11024739
-0.10454953 0.045004766 0.72700006 10759768
-0.10316477 0.045004766 0.72700006 9970252
-0.10178001 0.045004766 0.72700006 9772857
-0.10039525 0.045004766 0.72700006 9838650
-0.099010482 0.045004766 0.72700006 9971522
-0.097625725 0.045004766 0.72700006 10695245
-0.09624096 0.045004766 0.72700006 11414389
-0.094856195 0.045004766 0.72700006 11940733
-0.09347143 0.045004766 0.72700006 12337251
-0.092086673 0.045004766 0.72700006 12008286
-0.090701908 0.045004766 0.72700006 11807825
-0.089317143 0.045004766 0.72700006 12399962
-0.087932393 0.045004766 0.72700006 12529325
-0.086547628 0.045004766 0.72700006 12002981
-0.085162863 0.045004766 0.72700006 12597325
-0.083893336 0.04506667 0.72800004 12794704
-0.082506672 0.04506667 0.72800004 13845288
-0.081008576 0.045004766 0.72700006 14897976
-0.079623811 0.045004766 0.72700006 14699533
-0.07834667 0.04506667 0.72800004 14567947
-0.075057149 0.043952383 0.71000004 14503683
-0.073704764 0.043952383 0.71000004 14503683
-0.072148569 0.043828573 0.708 14307072
-0.070699997 0.043766666 0.70700002 14307072
-0.06925524 0.043704763 0.70600003 14438912
-0.067910478 0.043704763 0.70600003 14438912
-0.066565715 0.043704763 0.70600003 14438401
-0.065220952 0.043704763 0.70600003 14635780
-0.063876189 0.043704763 0.70600003 14635271
-0.062531434 0.043704763 0.70600003 14503685
-0.061186668 0.043704763 0.70600003 14569224
-0.059841909 0.043704763 0.70600003 14240259
-0.058331434 0.043580953 0.70400006 14502144
-0.056909524 0.043519046 0.70300001 15949575
-0.055333335 0.043333337 0.70000005 15231552
-0.054000005 0.043333337 0.70000005 15494724
-0.054698102 0.045004766 0.72700006 15229501
-0.053166665 0.044880953 0.72500002 12729367
-0.051785715 0.044880953 0.72500002 13451595
-0.050404765 0.044880953 0.72500002 13122630
-0.048888575 0.044757146 0.72300005 12921381
-0.047511432 0.044757146 0.72300005 13579311
-0.046070479 0.044695243 0.72200006 13319721
-0.044695243 0.044695243 0.72200006 13188135
-0.043320004 0.044695243 0.72200006 12529470
-0.04200286 0.044757146 0.72300005 12529470
-0.040625714 0.044757146 0.72300005 9846054
-0.039248575 0.044757146 0.72300005 10832949
-0.03797619 0.044880953 0.72500002 8677251
-0.03659524 0.044880953 0.72500002 8085114
-0.035311431 0.045004766 0.72700006 8217983
-0.033833336 0.044880953 0.72500002 8086397
-0.032452382 0.044880953 0.72500002 8610672
-0.031071428 0.044880953 0.72500002 10189704
-0.029567622 0.044695243 0.72200006 10518651
-0.028192384 0.044695243 0.72200006 10518651
-0.026854288 0.044757146 0.72300005 9664378
-0.025477143 0.044757146 0.72300005 9664378
-0.024100002 0.044757146 0.72300005 8681589
-0.022722857 0.044757146 0.72300005 7694694
-0.021404762 0.044880953 0.72500002 12484713
-0.020023812 0.044880953 0.72500002 16762543
-0.018642858 0.044880953 0.72500002 14853979
-0.017261904 0.044880953 0.72500002 8077312
-0.11562763 0.046389528 0.72700006 12813443
-0.11424287 0.046389528 0.72700006 8405312
-0.1128581 0.046389528 0.72700006 9907470
-0.11116667 0.046261907 0.72500002 13394499
-0.10978571 0.046261907 0.72500002 11365792
-0.10840476 0.046261907 0.72500002 13471168
-0.10731905 0.046389528 0.72700006 12617642
-0.10593429 0.046389528 0.72700006 12749228
-0.10426191 0.046261907 0.72500002 12220844
-0.10288095 0.046261907 0.72500002 11694500
-0.1015 0.046261907 0.72500002 12357273
-0.10011905 0.046261907 0.72500002 13278375
-0.098738097 0.046261907 0.72500002 13344170
-0.097357146 0.046261907 0.72500002 14067893
-0.095976189 0.046261907 0.72500002 14263755
-0.094595239 0.046261907 0.72500002 12816309
-0.093214288 0.046261907 0.72500002 14330804
-0.091833338 0.046261907 0.72500002 15251906
-0.090452388 0.046261907 0.72500002 15513034
-0.08907143 0.046261907 0.72500002 16631515
-0.08769048 0.046261907 0.72500002 16304121
-0.086547628 0.046389528 0.72700006 12159162
-0.085162863 0.046389528 0.72700006 13258822
-0.083893336 0.046453338 0.72800004 12864064
-0.082506672 0.046453338 0.72800004 14042908
-0.081119999 0.046453338 0.72800004 14569252
-0.079733342 0.046453338 0.72800004 14502922
-0.075763814 0.044921909 0.70400006 14437129
-0.074422859 0.044921909 0.70400006 14437632
-0.073081911 0.044921909 0.70400006 14371840
-0.071740955 0.044921909 0.70400006 14241280
-0.070600003 0.045049526 0.70600003 14372864
-0.06925524 0.045049526 0.70600003 14373120
-0.067910478 0.045049526 0.70600003 14438912
-0.066565715 0.045049526 0.70600003 14439171
-0.065036193 0.044921909 0.70400006 14439171
-0.063695244 0.044921909 0.70400006 14503683
-0.062354293 0.044921909 0.70400006 14372097
-0.061013337 0.044921909 0.70400006 14503172
-0.059672385 0.044921909 0.70400006 14568965
-0.058248568 0.044858098 0.70300001 14765824
-0.056747623 0.044730477 0.70100003 14568448
-0.055333335 0.044666667 0.70000005 14961664
-0.053845715 0.044539049 0.69800001 15619586
-0.052440956 0.044475239 0.69700003 15031040
-0.051113334 0.044475239 0.69700003 15228416
-0.051785715 0.046261907 0.72500002 15297372
-0.050265718 0.046134286 0.72300005 15231579
-0.048820958 0.046070479 0.72200006 15033419
-0.047445718 0.046070479 0.72200006 14836040
-0.046070479 0.046070479 0.72200006 14901317
-0.044695243 0.046070479 0.72200006 15098696
-0.043320004 0.046070479 0.72200006 13851218
-0.041944765 0.046070479 0.72200006 12930116
-0.040569525 0.046070479 0.72200006 11493975
-0.03919429 0.046070479 0.72200006 13138800
-0.03781905 0.046070479 0.72200006 11106443
-0.036494289 0.046134286 0.72300005 10711685
-0.035117142 0.046134286 0.72300005 11106447
-0.033693336 0.046070479 0.72200006 11501205
-0.032318097 0.046070479 0.72200006 11500942
-0.030942859 0.046070479 0.72200006 11435149
-0.029567622 0.046070479 0.72200006 12420997
-0.028192384 0.046070479 0.72200006 13671064
-0.026817145 0.046070479 0.72200006 13080684
-0.025441907 0.046070479 0.72200006 13409649
-0.024066668 0.046070479 0.72200006 13212272
-0.022691431 0.046070479 0.72200006 12554342
-0.021316191 0.046070479 0.72200006 14716563
-0.019968573 0.046134286 0.72300005 16759487
-0.01859143 0.046134286 0.72300005 15443054
-0.017214287 0.046134286 0.72300005 6495232
-0.11562763 0.047774293 0.72700006 12811627
-0.11392858 0.047642857 0.72500002 8929840
-0.11223715 0.047511432 0.72300005 10298635
-0.11086001 0.047511432 0.72300005 13983043
-0.10948286 0.047511432 0.72300005 10251437
-0.10840476 0.047642857 0.72500002 12356813
-0.10702381 0.047642857 0.72500002 11504826
-0.10564286 0.047642857 0.72500002 14004960
-0.10426191 0.047642857 0.72500002 13942476
-0.10288095 0.047642857 0.72500002 13876683
-0.10122 0.047511432 0.72300005 13481430
-0.099842861 0.047511432 0.72300005 12362949
-0.098465718 0.047511432 0.72300005 12560042
-0.097088575 0.047511432 0.72300005 13481144
-0.09571144 0.047511432 0.72300005 14862835
-0.094203815 0.047445718 0.72200006 12757459
-0.092828579 0.047445718 0.72200006 11775927
-0.091453344 0.047445718 0.72200006 12302271
-0.090078101 0.047445718 0.72200006 13677778
-0.088702865 0.047445718 0.72200006 15519982
-0.087327629 0.047445718 0.72200006 16438783
-0.086309522 0.047642857 0.72500002 13083342
-0.085162863 0.047774293 0.72700006 12930651
-0.081012383 0.046197142 0.70300001 12733272
-0.079446673 0.046065718 0.70100003 14305543
-0.078111432 0.046065718 0.70100003 14634508
-0.076776192 0.046065718 0.70100003 14503433
-0.075656191 0.046197142 0.70300001 14569226
-0.07431715 0.046197142 0.70300001 14569228
-0.073081911 0.04626286 0.70400006 14042884
-0.071740955 0.04626286 0.70400006 14239488
-0.070400007 0.04626286 0.70400006 14831616
-0.069059052 0.04626286 0.70400006 14438673
-0.067718096 0.04626286 0.70400006 14372880
-0.066377148 0.04626286 0.70400006 14438912
-0.065036193 0.04626286 0.70400006 14307328
-0.063695244 0.04626286 0.70400006 14372864
-0.062354293 0.04626286 0.70400006 14372864
-0.061013337 0.04626286 0.70400006 14569728
-0.05958762 0.046197142 0.70300001 14898688
-0.05808286 0.046065718 0.70100003 14767616
-0.056747623 0.046065718 0.70100003 14438656
-0.055333335 0.046000004 0.70000005 14830336
-0.053845715 0.045868572 0.69800001 15356672
-0.052440956 0.045802858 0.69700003 15095808
-0.051113334 0.045802858 0.69700003 16148480
-0.051785715 0.047642857 0.72500002 15362922
-0.050196193 0.047445718 0.72200006 15165543
-0.048685715 0.047314286 0.72000003 15361364
-0.047314286 0.047314286 0.72000003 15163985
-0.045942858 0.047314286 0.72000003 15295305
-0.044571429 0.047314286 0.72000003 15426891
-0.043200001 0.047314286 0.72000003 14312271
-0.041828573 0.047314286 0.72000003 12733239
-0.040457144 0.047314286 0.72000003 11951446
-0.03919429 0.047445718 0.72200006 12806755
-0.03781905 0.047445718 0.72200006 11692367
-0.036443811 0.047445718 0.72200006 11823953
-0.035068572 0.047445718 0.72200006 12481648
-0.033600003 0.047314286 0.72000003 12810613
-0.032183811 0.047248576 0.71900004 12482923
-0.030814288 0.047248576 0.71900004 12219751
-0.029444763 0.047248576 0.71900004 13599848
-0.028114285 0.047314286 0.72000003 14849915
-0.026742859 0.047314286 0.72000003 14259032
-0.02537143 0.047314286 0.72000003 14851169
-0.024 0.047314286 0.72000003 15638116
-0.022628572 0.047314286 0.72000003 15440737
-0.021257143 0.047314286 0.72000003 15835504
-0.019940954 0.047445718 0.72200006 16296055
-0.018514287 0.047314286 0.72000003 15835502
-0.017142856 0.047314286 0.72000003 7282432
-0.11345715 0.048820958 0.72200006 10834194
-0.11177143 0.048685715 0.72000003 11688265
-0.11040001 0.048685715 0.72000003 16425361
-0.10933144 0.048820958 0.72200006 13743566
-0.1079562 0.048820958 0.72200006 13809359
-0.10658097 0.048820958 0.72200006 13613770
-0.10535144 0.048888575 0.72300005 14205907
-0.10397429 0.048888575 0.72300005 14272706
-0.10245524 0.048820958 0.72200006 15259601
-0.10108001 0.048820958 0.72200006 13351125
-0.099704772 0.048820958 0.72200006 10324647
-0.098329529 0.048820958 0.72200006 10780578
-0.096954294 0.048820958 0.72200006 13017540
-0.095314287 0.048685715 0.72000003 14204847
-0.093942866 0.048685715 0.72000003 10717818
-0.09257143 0.048685715 0.72000003 10647228
-0.091200002 0.048685715 0.72000003 13476327
-0.089828581 0.048685715 0.72000003 14532576
-0.088457145 0.048685715 0.72000003 14927334
-0.087085716 0.048685715 0.72000003 16374262
-0.083690472 0.047536191 0.70300001 13281991
-0.082117148 0.047400955 0.70100003 13516637
-0.080781907 0.047400955 0.70100003 13056086
-0.079446673 0.047400955 0.70100003 14108928
-0.078111432 0.047400955 0.70100003 14701056
-0.076776192 0.047400955 0.70100003 14569228
-0.075656191 0.047536191 0.70300001 14569228
-0.07431715 0.047536191 0.70300001 14438151
-0.072978094 0.047536191 0.70300001 14240772
-0.071639046 0.047536191 0.70300001 14306056
-0.070299998 0.047536191 0.70300001 14700814
-0.068960957 0.047536191 0.70300001 14504476
-0.067718096 0.047603812 0.70400006 14372890
-0.066377148 0.047603812 0.70400006 14307846
-0.064943813 0.047536191 0.70300001 14307846
-0.063604765 0.047536191 0.70300001 14438912
-0.062265713 0.047536191 0.70300001 14175744
-0.060926665 0.047536191 0.70300001 14568704
-0.05958762 0.047536191 0.70300001 14831872
-0.05808286 0.047400955 0.70100003 14766080
-0.056747623 0.047400955 0.70100003 14700288
-0.055333335 0.047333337 0.70000005 14962176
-0.053845715 0.047198098 0.69800001 15225344
-0.052516192 0.047198098 0.69800001 14962688
-0.05118667 0.047198098 0.69800001 15883776
-0.051785715 0.049023811 0.72500002 15295064
-0.050057143 0.048685715 0.72000003 16479338
-0.048618097 0.048618097 0.71900004 15432281
-0.047248576 0.048618097 0.71900004 14905937
-0.045879051 0.048618097 0.71900004 15363156
-0.044509526 0.048618097 0.71900004 15560535
-0.043140002 0.048618097 0.71900004 15166801
-0.041770477 0.048618097 0.71900004 15298387
-0.040400952 0.048618097 0.71900004 14319227
-0.039031431 0.048618097 0.71900004 14187641
-0.037661906 0.048618097 0.71900004 13729088
-0.036292382 0.048618097 0.71900004 14058053
-0.034922861 0.048618097 0.71900004 14584165
-0.033553336 0.048618097 0.71900004 15439474
-0.032094285 0.048482858 0.71700001 14914918
-0.030728571 0.048482858 0.71700001 14520160
-0.029362857 0.048482858 0.71700001 14913117
-0.028075241 0.048618097 0.71900004 14978910
-0.026705716 0.048618097 0.71900004 15043902
-0.025336191 0.048618097 0.71900004 15372867
-0.023966668 0.048618097 0.71900004 15503152
-0.022534285 0.048482858 0.71700001 15174187
-0.021168573 0.048482858 0.71700001 15570435
-0.019802855 0.048482858 0.71700001 16754709
-0.018437143 0.048482858 0.71700001 15309928
-0.017071428 0.048482858 0.71700001 6756864
-0.015705716 0.048482858 0.71700001 8326144
-0.11403714 0.049848571 0.71700001 12671267
-0.11267143 0.049848571 0.71700001 12539681
-0.11130571 0.049848571 0.71700001 11492935
-0.10994 0.049848571 0.71700001 15769480
-0.10887714 0.049987622 0.71900004 11705817
-0.10750762 0.049987622 0.71900004 10653129
-0.10628572 0.050057143 0.72000003 10586555
-0.10491429 0.050057143 0.72000003 10586555
-0.10354286 0.050057143 0.72000003 10456987
-0.10217144 0.050057143 0.72000003 11575468
-0.1008 0.050057143 0.72000003 11968730
-0.099428572 0.050057143 0.72000003 9468596
-0.097920962 0.049987622 0.71900004 8866167
-0.096551433 0.049987622 0.71900004 14063814
-0.095181912 0.049987622 0.71900004 14533078
-0.093812384 0.049987622 0.71900004 10848670
-0.092442855 0.049987622 0.71900004 10772374
-0.09082 0.049848571 0.71700001 14917333
-0.089454286 0.049848571 0.71700001 15324402
-0.087965719 0.04977905 0.71600002 14337507
-0.086601906 0.04977905 0.71600002 16306420
-0.083690472 0.048875239 0.70300001 13740493
-0.082117148 0.048736192 0.70100003 13320752
-0.080781907 0.048736192 0.70100003 13123373
-0.079446673 0.048736192 0.70100003 14570759
-0.078111432 0.048736192 0.70100003 14702345
-0.076776192 0.048736192 0.70100003 14504716
-0.075440958 0.048736192 0.70100003 14438923
-0.074105717 0.048736192 0.70100003 14373128
-0.072770476 0.048736192 0.70100003 14241542
-0.071639046 0.048875239 0.70300001 14373639
-0.070299998 0.048875239 0.70300001 14439432
-0.068960957 0.048875239 0.70300001 14504725
-0.067621902 0.048875239 0.70300001 14504725
-0.066282853 0.048875239 0.70300001 14309123
-0.064943813 0.048875239 0.70300001 14045952
-0.063423812 0.048736192 0.70100003 14374402
-0.062088571 0.048736192 0.70100003 14111232
-0.060926665 0.048875239 0.70300001 14370048
-0.059418097 0.048736192 0.70100003 14896384
-0.05808286 0.048736192 0.70100003 14896896
-0.056747623 0.048736192 0.70100003 14962688
-0.055412382 0.048736192 0.70100003 14961664
-0.054077145 0.048736192 0.70100003 14698496
-0.052741908 0.048736192 0.70100003 14827008
-0.051626671 0.048944768 0.70400006 16011266
-0.051357146 0.049987622 0.71900004 15227484
-0.049848571 0.049848571 0.71700001 16609137
-0.048482858 0.049848571 0.71700001 15498081
-0.04711714 0.049848571 0.71700001 15300702
-0.04575143 0.049848571 0.71700001 15362897
-0.044385713 0.049848571 0.71700001 15362897
-0.043020003 0.049848571 0.71700001 15361616
-0.041654285 0.049848571 0.71700001 15690581
-0.040288571 0.049848571 0.71700001 15300461
-0.038922857 0.049848571 0.71700001 15037289
-0.037557144 0.049848571 0.71700001 14972489
-0.036191426 0.049848571 0.71700001 15893591
-0.034825716 0.049848571 0.71700001 15566461
-0.033459999 0.049848571 0.71700001 16290184
-0.032049526 0.04977905 0.71600002 15701883
-0.030685715 0.04977905 0.71600002 15241332
-0.029321905 0.04977905 0.71600002 15633260
-0.027997142 0.049848571 0.71700001 14843744
-0.02663143 0.049848571 0.71700001 15365420
-0.025265714 0.049848571 0.71700001 15102248
-0.0239 0.049848571 0.71700001 15233034
-0.022534285 0.049848571 0.71700001 15364620
-0.021168573 0.049848571 0.71700001 15434515
-0.019802855 0.049848571 0.71700001 16684582
-0.018437143 0.049848571 0.71700001 15307357
-0.017071428 0.049848571 0.71700001 7478016
-0.015705716 0.049848571 0.71700001 8653568
-0.11709429 0.051357146 0.71900004 13080961
-0.11540286 0.051214285 0.71700001 11765101
-0.11403714 0.051214285 0.71700001 12406099
-0.11267143 0.051214285 0.71700001 11090239
-0.11130571 0.051214285 0.71700001 12611407
-0.10994 0.051214285 0.71700001 16767160
-0.10857429 0.051214285 0.71700001 15654052
-0.10720857 0.051214285 0.71700001 10522198
-0.10584286 0.051214285 0.71700001 10126503
-0.10447714 0.051214285 0.71700001 9205401
-0.10339905 0.051357146 0.71900004 10850980
-0.10217144 0.051428575 0.72000003 11706289
-0.10066 0.051357146 0.71900004 12427223
-0.099290483 0.051357146 0.71900004 10782398
-0.097920962 0.051357146 0.71900004 10840746
-0.096551433 0.051357146 0.71900004 13275087
-0.095181912 0.051357146 0.71900004 13738694
-0.093551435 0.051214285 0.71700001 13343936
-0.092185713 0.051214285 0.71700001 12812737
-0.09069334 0.051142856 0.71600002 13273288
-0.089329526 0.051142856 0.71600002 14394528
-0.087597147 0.050928578 0.71300006 10841706
-0.085876197 0.050714288 0.71000004 12737435
-0.083690472 0.050214287 0.70300001 12211091
-0.082351431 0.050214287 0.70300001 13515264
-0.080781907 0.050071429 0.70100003 13844224
-0.079106666 0.049857143 0.69800001 14701568
-0.077665716 0.049785715 0.69700003 15754254
-0.076338097 0.049785715 0.69700003 14897664
-0.075333342 0.050000004 0.70000005 14634496
-0.074000001 0.050000004 0.70000005 14569228
-0.072666667 0.050000004 0.70000005 14503435
-0.071333334 0.050000004 0.70000005 14372358
-0.070100002 0.050071429 0.70100003 14635530
-0.068764761 0.050071429 0.70100003 14504966
-0.067429528 0.050071429 0.70100003 14504966
-0.066094287 0.050071429 0.70100003 14440448
-0.064759046 0.050071429 0.70100003 14506240
-0.06315238 0.049857143 0.69800001 14439684
-0.061822858 0.049857143 0.69800001 14242305
-0.060493335 0.049857143 0.69800001 14700032
-0.059418097 0.050071429 0.70100003 14963200
-0.05808286 0.050071429 0.70100003 15028480
-0.056747623 0.050071429 0.70100003 15291648
-0.055412382 0.050071429 0.70100003 15029760
-0.054077145 0.050071429 0.70100003 14635008
-0.052892383 0.050214287 0.70300001 14696704
-0.051626671 0.050285716 0.70400006 16144133
-0.050571427 0.050571427 0.708 15226714
-0.049570478 0.050928578 0.71300006 15358300
-0.048280004 0.051000003 0.71400005 15298351
-0.046920002 0.051000003 0.71400005 15561523
-0.04568762 0.051142856 0.71600002 15230023
-0.044323809 0.051142856 0.71600002 15427402
-0.042960003 0.051142856 0.71600002 15295305
-0.041654285 0.051214285 0.71700001 15295305
-0.040288571 0.051214285 0.71700001 14376270
-0.038922857 0.051214285 0.71700001 14113098
-0.037557144 0.051214285 0.71700001 14245195
-0.036140952 0.051142856 0.71600002 16350571
-0.034777146 0.051142856 0.71600002 15631757
-0.033413332 0.051142856 0.71600002 16289687
-0.031960003 0.051000003 0.71400005 15700084
-0.0306 0.051000003 0.71400005 15173740
-0.029240001 0.051000003 0.71400005 15565682
-0.027958095 0.051142856 0.71600002 14907752
-0.026594287 0.051142856 0.71600002 15100967
-0.025230477 0.051142856 0.71600002 14706209
-0.023866668 0.051142856 0.71600002 15098948
-0.022440001 0.051000003 0.71400005 15559499
-0.02108 0.051000003 0.71400005 15500558
-0.019720001 0.051000003 0.71400005 16619039
-0.018360002 0.051000003 0.71400005 14846804
-0.017047618 0.051142856 0.71600002 7412224
-0.015683809 0.051142856 0.71600002 8850176
-0.11709429 0.052726667 0.71900004 13146750
-0.11540286 0.052579999 0.71700001 12423027
-0.1138781 0.052506667 0.71600002 13731584
-0.11251429 0.052506667 0.71600002 13600000
-0.11115047 0.052506667 0.71600002 13535232
-0.10978667 0.052506667 0.71600002 16769347
-0.10842286 0.052506667 0.71600002 16048847
-0.10705905 0.052506667 0.71600002 11969681
-0.10569524 0.052506667 0.71600002 11312796
-0.10433143 0.052506667 0.71600002 9404799
-0.10311142 0.052579999 0.71700001 11113607
-0.10174571 0.052579999 0.71700001 11310986
-0.10038 0.052579999 0.71700001 11307937
-0.09901429 0.052579999 0.71700001 10057870
-0.097648568 0.052579999 0.71700001 11168120
-0.096282855 0.052579999 0.71700001 11102327
-0.094917141 0.052579999 0.71700001 11034231
-0.093551435 0.052579999 0.71700001 11165817
-0.092057146 0.052506667 0.71600002 13467527
-0.090440005 0.052360002 0.71400005 13928078
-0.089080006 0.052360002 0.71400005 14981517
-0.087597147 0.05228667 0.71300006 10968144
-0.085876197 0.052066669 0.71000004 12664928
-0.084047616 0.051773336 0.70600003 12335963
-0.082000002 0.051333338 0.70000005 13249290
-0.080436192 0.05118667 0.69800001 13315083
-0.078993335 0.051113334 0.69700003 14896896
-0.077665716 0.051113334 0.69700003 15489033
-0.076338097 0.051113334 0.69700003 14962432
-0.075010478 0.051113334 0.69700003 14896640
-0.07368286 0.051113334 0.69700003 14700562
-0.072355241 0.051113334 0.69700003 14305804
-0.071129531 0.05118667 0.69800001 14238720
-0.069799997 0.05118667 0.69800001 14896640
-0.068666674 0.051333338 0.70000005 14635528
-0.067333341 0.051333338 0.70000005 14372356
-0.066 0.051333338 0.70000005 14173696
-0.064759046 0.051406667 0.70100003 14765824
-0.063061908 0.051113334 0.69700003 14505216
-0.061645716 0.051040001 0.69600004 14307840
-0.060320001 0.051040001 0.69600004 14700288
-0.058994289 0.051040001 0.69600004 14963456
-0.057751432 0.051113334 0.69700003 15028480
-0.056504764 0.05118667 0.69800001 15554822
-0.055175241 0.05118667 0.69800001 15096074
-0.054000005 0.051333338 0.70000005 13714432
-0.052892383 0.051553335 0.70300001 14366464
-0.051773336 0.051773336 0.70600003 16142859
-0.050571427 0.051919997 0.708 15161925
-0.049570478 0.05228667 0.71300006 15425097
-0.048212387 0.05228667 0.71300006 15228472
-0.046854287 0.05228667 0.71300006 15360058
-0.045560002 0.052360002 0.71400005 15229258
-0.044200003 0.052360002 0.71400005 15492430
-0.04284 0.052360002 0.71400005 15229258
-0.041480005 0.052360002 0.71400005 14900293
-0.040120002 0.052360002 0.71400005 13714999
-0.038760003 0.052360002 0.71400005 13517620
-0.037400004 0.052360002 0.71400005 14309925
-0.035989527 0.05228667 0.71300006 16612680
-0.034631431 0.05228667 0.71300006 15697555
-0.033273336 0.05228667 0.71300006 16355485
-0.03191524 0.05228667 0.71300006 15701111
-0.030557144 0.05228667 0.71300006 15635318
-0.029199049 0.05228667 0.71300006 15632508
-0.027880002 0.052360002 0.71400005 14250855
-0.026520003 0.052360002 0.71400005 15298084
-0.025124764 0.05228667 0.71300006 14903326
-0.023766669 0.05228667 0.71300006 15230014
-0.022408573 0.05228667 0.71300006 15953737
-0.021050479 0.05228667 0.71300006 15431726
-0.019692382 0.05228667 0.71300006 16221242
-0.018334286 0.05228667 0.71300006 14582087
-0.016976191 0.05228667 0.71300006 8134400
-0.01564 0.052360002 0.71400005 9506048
-0.11709429 0.054096192 0.71900004 13015416
-0.11492001 0.053720001 0.71400005 14857620
-0.11356001 0.053720001 0.71400005 15980032
-0.11220001 0.053720001 0.71400005 16374784
-0.11084 0.053720001 0.71400005 15910413
-0.10948001 0.053720001 0.71400005 16041999
-0.10812001 0.053720001 0.71400005 15715459
-0.10676 0.053720001 0.71400005 13544290
-0.10525239 0.053644765 0.71300006 13082742
-0.10389429 0.053644765 0.71300006 10122057
-0.1025362 0.053644765 0.71300006 11168344
-0.10132001 0.053720001 0.71400005 10707793
-0.099960007 0.053720001 0.71400005 11623228
-0.098600008 0.053720001 0.71400005 10570540
-0.097240001 0.053720001 0.71400005 11879475
-0.095880002 0.053720001 0.71400005 11747889
-0.09452001 0.053720001 0.71400005 12010520
-0.093160003 0.053720001 0.71400005 11615762
-0.091800004 0.053720001 0.71400005 12538402
-0.090313345 0.053644765 0.71300006 12801574
-0.088955246 0.053644765 0.71300006 13923584
-0.087351426 0.053494286 0.71100003 12147200
-0.085634284 0.05326857 0.708 12993295
-0.084166668 0.053193334 0.70700002 11743232
-0.082000002 0.052666668 0.70000005 13052453
-0.080320954 0.052440956 0.69700003 12789281
-0.078880005 0.05236572 0.69600004 13907968
-0.077554293 0.05236572 0.69600004 15355412
-0.076228574 0.05236572 0.69600004 14962688
-0.075010478 0.052440956 0.69700003 15423232
-0.07368286 0.052440956 0.69700003 14962974
-0.072355241 0.052440956 0.69700003 14634009
-0.071027622 0.052440956 0.69700003 14501888
-0.069700003 0.052440956 0.69700003 14962432
-0.068470478 0.052516192 0.69800001 14699022
-0.067044765 0.052440956 0.69700003 14041092
-0.065717146 0.052440956 0.69700003 14433792
-0.06411238 0.052215237 0.69400001 14828544
-0.062790476 0.052215237 0.69400001 14566912
-0.061468571 0.052215237 0.69400001 14501120
-0.060146667 0.052215237 0.69400001 14763776
-0.058824759 0.052215237 0.69400001 15487488
-0.057502858 0.052215237 0.69400001 15095296
-0.056423813 0.052440956 0.69700003 15161088
-0.05509619 0.052440956 0.69700003 15030540
-0.054000005 0.052666668 0.70000005 14175232
-0.052741908 0.052741908 0.70100003 14106143
-0.051773336 0.053118095 0.70600003 14764073
-0.050571427 0.05326857 0.708 15025192
-0.049361907 0.05341905 0.71000004 16538431
-0.048009526 0.05341905 0.71000004 15228740
-0.046657145 0.05341905 0.71000004 15097154
-0.045496192 0.053644765 0.71300006 15162949
-0.0441381 0.053644765 0.71300006 15360328
-0.042780001 0.053644765 0.71300006 15227718
-0.041421909 0.053644765 0.71300006 15490890
-0.040063813 0.053644765 0.71300006 14504535
-0.038705718 0.053644765 0.71300006 13649226
-0.037400004 0.053720001 0.71400005 13914690
-0.035989527 0.053644765 0.71300006 16349031
-0.034631431 0.053644765 0.71300006 15697557
-0.033180002 0.053494286 0.71100003 16751787
-0.031825714 0.053494286 0.71100003 15768957
-0.030471429 0.053494286 0.71100003 15703164
-0.029117145 0.053494286 0.71100003 15764620
-0.027840953 0.053644765 0.71300006 14317174
-0.02648286 0.053644765 0.71300006 14904592
-0.025054287 0.053494286 0.71100003 14049283
-0.023700001 0.053494286 0.71100003 14374183
-0.022345716 0.053494286 0.71100003 14505769
-0.020991428 0.053494286 0.71100003 14771731
-0.019637143 0.053494286 0.71100003 15627040
-0.018282857 0.053494286 0.71100003 13990149
-0.016928572 0.053494286 0.71100003 8660992
-0.015618097 0.053644765 0.71300006 9770753
-0.11628 0.055080004 0.71400005 12752494
-0.11475906 0.055002861 0.71300006 15976351
-0.11340096 0.055002861 0.71300006 16112414
-0.11204287 0.055002861 0.71300006 16046621
-0.11084 0.055080004 0.71400005 16112128
-0.10932668 0.055002861 0.71300006 16243712
-0.10796858 0.055002861 0.71300006 16043599
-0.10616191 0.054771431 0.71000004 15188290
-0.10480952 0.054771431 0.71000004 15377041
-0.10345715 0.054771431 0.71000004 14126974
-0.10210477 0.054771431 0.71000004 15043197
-0.10075239 0.054771431 0.71000004 13924716
-0.099399999 0.054771431 0.71000004 14905204
-0.098185718 0.054848574 0.71100003 14970997
-0.096831433 0.054848574 0.71100003 15103073
-0.095477149 0.054848574 0.71100003 15300452
-0.094122857 0.054848574 0.71100003 15233135
-0.092768572 0.054848574 0.71100003 15101549
-0.091414288 0.054848574 0.71100003 15431016
-0.089933343 0.054771431 0.71000004 15431016
-0.088331431 0.05461714 0.708 15496326
-0.086982854 0.05461714 0.708 14377845
-0.085513331 0.054540001 0.70700002 13712941
-0.084047616 0.054462858 0.70600003 12199702
-0.081765719 0.053845715 0.69800001 12855324
-0.080320954 0.053768571 0.69700003 12263187
-0.078653328 0.053537142 0.69400001 13247744
-0.077331424 0.053537142 0.69400001 15682075
-0.076228574 0.053691432 0.69600004 14964738
-0.074687615 0.053537142 0.69400001 14833152
-0.073365718 0.053537142 0.69400001 15028228
-0.072043814 0.053537142 0.69400001 14896642
-0.07092572 0.053691432 0.69600004 14830080
-0.069600001 0.053691432 0.69600004 14895872
-0.068078093 0.053537142 0.69400001 14699008
-0.066660002 0.053460002 0.69300002 14962176
-0.065340005 0.053460002 0.69300002 15028230
-0.06402 0.053460002 0.69300002 14896644
-0.062699996 0.053460002 0.69300002 15026212
-0.061380003 0.053460002 0.69300002 15289384
-0.060060002 0.053460002 0.69300002 15093063
-0.058740001 0.053460002 0.69300002 15158856
-0.05742 0.053460002 0.69300002 15029516
-0.056180954 0.053537142 0.69400001 14832137
-0.055017143 0.053691432 0.69600004 14766101
-0.054000005 0.054000005 0.70000005 13779206
-0.052741908 0.054077145 0.70100003 13580800
-0.051773336 0.054462858 0.70600003 14436096
-0.050428573 0.054462858 0.70600003 14698782
-0.049222857 0.05461714 0.708 16475193
-0.047874287 0.05461714 0.708 15295060
-0.046525717 0.05461714 0.708 15031888
-0.045177143 0.05461714 0.708 15294540
-0.043828573 0.05461714 0.708 15360333
-0.042479999 0.05461714 0.708 15159876
-0.041247621 0.054771431 0.71000004 15949392
-0.03989524 0.054771431 0.71000004 15231068
-0.038542859 0.054771431 0.71000004 13981001
-0.037190478 0.054771431 0.71000004 13781823
-0.035838097 0.054771431 0.71000004 16281957
-0.034485716 0.054771431 0.71000004 15564931
-0.033133335 0.054771431 0.71000004 16749976
-0.031780954 0.054771431 0.71000004 15769732
-0.030342858 0.05461714 0.708 15374974
-0.028994286 0.05461714 0.708 15699332
-0.02772381 0.054771431 0.71000004 14515058
-0.026371431 0.054771431 0.71000004 14642236
-0.025019048 0.054771431 0.71000004 13326376
-0.023600001 0.05461714 0.708 13781546
-0.022251429 0.05461714 0.708 13978925
-0.020902857 0.05461714 0.708 14244132
-0.019554285 0.05461714 0.708 14902062
-0.018257145 0.054771431 0.71000004 13328161
-0.016904762 0.054771431 0.71000004 9183232
-0.015574286 0.054848574 0.71100003 10099968
-0.11611715 0.056360956 0.71300006 12949098
-0.11443715 0.056202859 0.71100003 16107162
-0.11308286 0.056202859 0.71100003 16048128
-0.11157144 0.056123812 0.71000004 16377088
-0.11021905 0.056123812 0.71000004 16181248
-0.10886667 0.056123812 0.71000004 16444416
-0.10751429 0.056123812 0.71000004 16116480
-0.10616191 0.056123812 0.71000004 16708608
-0.10480952 0.056123812 0.71000004 15645374
-0.10316571 0.055965714 0.708 14461100
-0.10181714 0.055965714 0.708 15112114
-0.10046858 0.055965714 0.708 15177907
-0.099120006 0.055965714 0.708 15833018
-0.097771429 0.055965714 0.708 15635639
-0.096422859 0.055965714 0.708 15767694
-0.095342867 0.056123812 0.71000004 16688796
-0.093990475 0.056123812 0.71000004 15700128
-0.092377141 0.055965714 0.708 15436956
-0.091028571 0.055965714 0.708 15633304
-0.089680001 0.055965714 0.708 15830683
-0.088331431 0.055965714 0.708 15698379
-0.086982854 0.055965714 0.708 14645691
-0.085513331 0.055886667 0.70700002 13186907
-0.084047616 0.05580762 0.70600003 12068426
-0.081765719 0.055175241 0.69800001 12332308
-0.080320954 0.05509619 0.69700003 12398101
-0.078653328 0.05485905 0.69400001 12924186
-0.077331424 0.05485905 0.69400001 13713702
-0.076009519 0.05485905 0.69400001 14436608
-0.074580006 0.054779999 0.69300002 14765569
-0.073260002 0.054779999 0.69300002 14830592
-0.071940005 0.054779999 0.69300002 15554306
-0.07062 0.054779999 0.69300002 15095296
-0.069299996 0.054779999 0.69300002 15029504
-0.067980006 0.054779999 0.69300002 15030272
-0.066467628 0.054621909 0.69100004 16741404
-0.065151431 0.054621909 0.69100004 15496793
-0.063835248 0.054621909 0.69100004 15759965
-0.062699996 0.054779999 0.69300002 15563885
-0.061380003 0.054779999 0.69300002 16090229
-0.060060002 0.054779999 0.69300002 15428988
-0.058740001 0.054779999 0.69300002 13981542
-0.05742 0.054779999 0.69300002 14960405
-0.056180954 0.05485905 0.69400001 15486749
-0.055017143 0.055017143 0.69600004 14833441
-0.054000005 0.055333335 0.70000005 13451788
-0.052741908 0.055412382 0.70100003 13646080
-0.051626671 0.055649526 0.70400006 15159305
-0.050428573 0.05580762 0.70600003 15160657
-0.04908381 0.05580762 0.70600003 16740717
-0.047806669 0.055886667 0.70700002 15430489
-0.046459999 0.055886667 0.70700002 14575180
-0.045113333 0.055886667 0.70700002 15294801
-0.043828573 0.055965714 0.708 15360594
-0.042479999 0.055965714 0.708 15093588
-0.041131429 0.055965714 0.708 15356760
-0.039782856 0.055965714 0.708 15294549
-0.038434286 0.055965714 0.708 15360342
-0.037085712 0.055965714 0.708 14573649
-0.035737146 0.055965714 0.708 14376270
-0.034388572 0.055965714 0.708 13786961
-0.033040002 0.055965714 0.708 13326410
-0.031691428 0.055965714 0.708 13394492
-0.030300001 0.055886667 0.70700002 13855043
-0.028953334 0.055886667 0.70700002 14049872
-0.027606668 0.055886667 0.70700002 13918286
-0.02626 0.055886667 0.70700002 14178880
-0.024913333 0.055886667 0.70700002 13718329
-0.023600001 0.055965714 0.708 13847868
-0.022251429 0.055965714 0.708 13913661
-0.020873332 0.055886667 0.70700002 13716280
-0.019526666 0.055886667 0.70700002 13387315
-0.018205713 0.055965714 0.708 12865818
-0.016857143 0.055965714 0.708 9510400
-0.015574286 0.056202859 0.71100003 10164480
-0.11562857 0.057476193 0.71000004 13145950
-0.11427619 0.057476193 0.71000004 16238221
-0.11292382 0.057476193 0.71000004 16112905
-0.11125714 0.057314284 0.708 16178698
-0.10990857 0.057314284 0.708 16048640
-0.10856 0.057314284 0.708 16773120
-0.10721143 0.057314284 0.708 16313384
-0.10586286 0.057314284 0.708 16444970
-0.10451429 0.057314284 0.708 16107937
-0.10316571 0.057314284 0.708 14331526
-0.10181714 0.057314284 0.708 15377795
-0.10046858 0.057314284 0.708 15772553
-0.099120006 0.057314284 0.708 15968715
-0.097771429 0.057314284 0.708 15442371
-0.096422859 0.057314284 0.708 15767720
-0.095074289 0.057314284 0.708 16425650
-0.093725719 0.057314284 0.708 15436713
-0.092377141 0.057314284 0.708 14976162
-0.090899996 0.057233334 0.70700002 15437481
-0.089553341 0.057233334 0.70700002 16753855
-0.088206671 0.057233334 0.70700002 16100569
-0.086860001 0.057233334 0.70700002 13732021
-0.085513331 0.057233334 0.70700002 13323612
-0.084047616 0.057152383 0.70600003 11678787
-0.082468584 0.056990478 0.70400006 12133690
-0.080320954 0.056423813 0.69700003 11344174
-0.078540005 0.056100003 0.69300002 12268544
-0.07722 0.056100003 0.69300002 13387022
-0.075899996 0.056100003 0.69300002 13910272
-0.074580006 0.056100003 0.69300002 14831369
-0.073260002 0.056100003 0.69300002 14764544
-0.071940005 0.056100003 0.69300002 15027712
-0.07062 0.056100003 0.69300002 15096333
-0.069299996 0.056100003 0.69300002 15293712
-0.067980006 0.056100003 0.69300002 15162644
-0.066467628 0.055938099 0.69100004 16544297
-0.065151431 0.055938099 0.69100004 15430480
-0.063835248 0.055938099 0.69100004 15364687
-0.062699996 0.056100003 0.69300002 15363678
-0.061380003 0.056100003 0.69300002 15626850
-0.060060002 0.056100003 0.69300002 15362413
-0.058740001 0.056100003 0.69300002 14112346
-0.05742 0.056100003 0.69300002 14894876
-0.056342859 0.056342859 0.69600004 15421220
-0.05509619 0.056423813 0.69700003 14768693
-0.054077145 0.056747623 0.70100003 12860696
-0.052892383 0.056909524 0.70300001 13510912
-0.051626671 0.056990478 0.70400006 16735269
-0.050285716 0.056990478 0.70400006 15296861
-0.048944768 0.056990478 0.70400006 16217963
-0.047739051 0.057152383 0.70600003 15495791
-0.046394285 0.057152383 0.70600003 14706275
-0.045049526 0.057152383 0.70600003 15360864
-0.043704763 0.057152383 0.70600003 15426657
-0.04236 0.057152383 0.70600003 15294819
-0.041015241 0.057152383 0.70600003 15031647
-0.039558098 0.056990478 0.70400006 15228490
-0.038217146 0.056990478 0.70400006 15491662
-0.036980953 0.057152383 0.70600003 15033176
-0.035636194 0.057152383 0.70600003 15098969
-0.034291428 0.057152383 0.70600003 13132374
-0.032946669 0.057152383 0.70600003 10763826
-0.031601906 0.057152383 0.70600003 10826240
-0.030257143 0.057152383 0.70600003 12865811
-0.028912382 0.057152383 0.70600003 13324856
-0.027567619 0.057152383 0.70600003 12337961
-0.02626 0.057233334 0.70700002 13383456
-0.024913333 0.057233334 0.70700002 14041386
-0.023533335 0.057152383 0.70600003 13781294
-0.022188572 0.057152383 0.70600003 14044466
-0.020843811 0.057152383 0.70600003 13520952
-0.019499049 0.057152383 0.70600003 13389366
-0.018154286 0.057152383 0.70600003 12469790
-0.016809525 0.057152383 0.70600003 10035456
-0.11530285 0.058662858 0.708 13277779
-0.11395428 0.058662858 0.708 15975292
-0.11260571 0.058662858 0.708 16046336
-0.1111 0.058580004 0.70700002 15980544
-0.10975334 0.058580004 0.70700002 16046848
-0.10840667 0.058580004 0.70700002 16244224
-0.10706 0.058580004 0.70700002 16047872
-0.10586286 0.058662858 0.708 16771840
-0.10436667 0.058580004 0.70700002 16309129
-0.10302 0.058580004 0.70700002 16440715
-0.10167333 0.058580004 0.70700002 16308888
-0.10032666 0.058580004 0.70700002 16769439
-0.098980002 0.058580004 0.70700002 16374748
-0.097633332 0.058580004 0.70700002 16506334
-0.096286669 0.058580004 0.70700002 16103633
-0.094939999 0.058580004 0.70700002 15972047
-0.093593337 0.058580004 0.70700002 15965905
-0.092116199 0.058497142 0.70600003 15307975
-0.090771429 0.058497142 0.70600003 15969219
-0.089553341 0.058580004 0.70700002 16758992
-0.088206671 0.058580004 0.70700002 16104392
-0.086860001 0.058580004 0.70700002 14459567
-0.085392386 0.058497142 0.70600003 14513315
-0.084047616 0.058497142 0.70600003 14513315
-0.081765719 0.057834286 0.69800001 13067382
-0.080320954 0.057751432 0.69700003 8593458
-0.078540005 0.05742 0.69300002 11214080
-0.076997146 0.057254288 0.69100004 13319448
-0.075680956 0.057254288 0.69100004 13581839
-0.074580006 0.05742 0.69300002 14634527
-0.073260002 0.05742 0.69300002 14502920
-0.071940005 0.05742 0.69300002 14173955
-0.07062 0.05742 0.69300002 15031040
-0.069299996 0.05742 0.69300002 15162624
-0.06778381 0.057254288 0.69100004 15096320
-0.066467628 0.057254288 0.69100004 14898944
-0.065151431 0.057254288 0.69100004 15027969
-0.063835248 0.057254288 0.69100004 14830592
-0.062699996 0.05742 0.69300002 14958606
-0.061380003 0.05742 0.69300002 14827020
-0.059886672 0.057254288 0.69100004 15026968
-0.058570478 0.057254288 0.69100004 15750691
-0.057502858 0.057502858 0.69400001 14764589
-0.056342859 0.057668574 0.69600004 14961968
-0.055175241 0.057834286 0.69800001 14503227
-0.054077145 0.05808286 0.70100003 11608335
-0.052892383 0.058248568 0.70300001 13177614
-0.051553335 0.058248568 0.70300001 16737889
-0.050285716 0.058331434 0.70400006 15699328
-0.048944768 0.058331434 0.70400006 15699328
-0.047603812 0.058331434 0.70400006 15633278
-0.046394285 0.058497142 0.70600003 15041141
-0.044921909 0.058331434 0.70400006 15497849
-0.043580953 0.058331434 0.70400006 15563642
-0.042240005 0.058331434 0.70400006 15496837
-0.040899049 0.058331434 0.70400006 15233665
-0.039558098 0.058331434 0.70400006 15227990
-0.038217146 0.058331434 0.70400006 15162197
-0.03687619 0.058331434 0.70400006 15163989
-0.035535242 0.058331434 0.70400006 15690333
-0.034194287 0.058331434 0.70400006 14313568
-0.032853335 0.058331434 0.70400006 12471364
-0.031512383 0.058331434 0.70400006 12669727
-0.03017143 0.058331434 0.70400006 13525036
-0.02883048 0.058331434 0.70400006 13521213
-0.027567619 0.058497142 0.70600003 12271146
-0.026222857 0.058497142 0.70600003 13317942
-0.024878096 0.058497142 0.70600003 14633802
-0.023533335 0.058497142 0.70600003 13915703
-0.022188572 0.058497142 0.70600003 14376254
-0.020843811 0.058497142 0.70600003 13524293
-0.019499049 0.058497142 0.70600003 13063742
-0.018154286 0.058497142 0.70600003 12142890
-0.016809525 0.058497142 0.70600003 10169100
-0.015464762 0.058497142 0.70600003 10298898
-0.11514 0.059926666 0.70700002 13540942
-0.11379334 0.059926666 0.70700002 15712111
-0.11244667 0.059926666 0.70700002 15910144
-0.1111 0.059926666 0.70700002 16370688
-0.10975334 0.059926666 0.70700002 15979008
-0.10825334 0.059841909 0.70600003 16505346
-0.10690857 0.059841909 0.70600003 16046848
-0.10571333 0.059926666 0.70700002 16441600
-0.10421906 0.059841909 0.70600003 16177747
-0.10287429 0.059841909 0.70600003 16506712
-0.10152952 0.059841909 0.70600003 16244589
-0.10018477 0.059841909 0.70600003 16310382
-0.098840006 0.059841909 0.70600003 15513036
-0.097495243 0.059841909 0.70600003 15513036
-0.09615048 0.059841909 0.70600003 15969952
-0.094805717 0.059841909 0.70600003 16562089
-0.093460955 0.059841909 0.70600003 15841722
-0.092116199 0.059841909 0.70600003 16170687
-0.090771429 0.059841909 0.70600003 16240332
-0.089426666 0.059841909 0.70600003 16108746
-0.088081911 0.059841909 0.70600003 16238803
-0.086737148 0.059841909 0.70600003 15778252
-0.085392386 0.059841909 0.70600003 16171979
-0.083690472 0.05958762 0.70300001 15579842
-0.081765719 0.059163809 0.69800001 13667977
-0.080320954 0.059079047 0.69700003 10444120
-0.078653328 0.058824759 0.69400001 10888192
-0.076997146 0.058570478 0.69100004 12401424
-0.075680956 0.058570478 0.69100004 13057280
-0.074580006 0.058740001 0.69300002 14241551
-0.073260002 0.058740001 0.69300002 13912586
-0.071940005 0.058740001 0.69300002 13978379
-0.07062 0.058740001 0.69300002 14438160
-0.069299996 0.058740001 0.69300002 14174988
-0.06778381 0.058570478 0.69100004 14501120
-0.066467628 0.058570478 0.69100004 14632704
-0.065151431 0.058570478 0.69100004 14565888
-0.06402 0.058740001 0.69300002 14631680
-0.062699996 0.058740001 0.69300002 14763532
-0.061380003 0.058740001 0.69300002 14895118
-0.059886672 0.058570478 0.69100004 14830114
-0.058570478 0.058570478 0.69100004 15027493
-0.057668574 0.058994289 0.69600004 14568482
-0.056423813 0.059079047 0.69700003 14371103
-0.055175241 0.059163809 0.69800001 13845251
-0.054000005 0.059333336 0.70000005 13450496
-0.052666668 0.059333336 0.70000005 14238774
-0.051406667 0.059418097 0.70100003 16742506
-0.050214287 0.05958762 0.70300001 15831719
-0.048875239 0.05958762 0.70300001 15700133
-0.047603812 0.059672385 0.70400006 15766682
-0.04626286 0.059672385 0.70400006 14845580
-0.044858098 0.05958762 0.70300001 15563659
-0.043519046 0.05958762 0.70300001 15563659
-0.042240005 0.059672385 0.70400006 15497598
-0.04084095 0.05958762 0.70300001 15431805
-0.039501905 0.05958762 0.70300001 15429739
-0.038217146 0.059672385 0.70400006 15034981
-0.03687619 0.059672385 0.70400006 15295071
-0.035535242 0.059672385 0.70400006 15558243
-0.034145713 0.05958762 0.70300001 14968157
-0.032806665 0.05958762 0.70300001 13389125
-0.03146762 0.05958762 0.70300001 13783363
-0.030128572 0.05958762 0.70300001 14178121
-0.028789524 0.05958762 0.70300001 13981253
-0.027489526 0.059672385 0.70400006 13520702
-0.026148573 0.059672385 0.70400006 13716023
-0.024807621 0.059672385 0.70400006 14110781
-0.023466667 0.059672385 0.70400006 14310986
-0.022125715 0.059672385 0.70400006 14442572
-0.020784764 0.059672385 0.70400006 13526110
-0.019443812 0.059672385 0.70400006 13460317
-0.018102858 0.059672385 0.70400006 12211270
-0.016761906 0.059672385 0.70400006 9974308
-0.015420954 0.059672385 0.70400006 10233344
-0.11497714 0.061186668 0.70600003 13868098
-0.11363238 0.061186668 0.70600003 15907681
-0.11228763 0.061186668 0.70600003 15975973
-0.11094286 0.061186668 0.70600003 15975973
-0.10928763 0.061013337 0.70400006 15977996
-0.10794667 0.061013337 0.70400006 15912203
-0.10690857 0.061186668 0.70600003 15978752
-0.10556381 0.061186668 0.70600003 15912960
-0.10377619 0.060926665 0.70300001 15979520
-0.10243714 0.060926665 0.70300001 16045312
-0.10109809 0.060926665 0.70300001 16045824
-0.09975905 0.060926665 0.70300001 16771328
-0.098420002 0.060926665 0.70300001 16305616
-0.097080946 0.060926665 0.70300001 14989756
-0.095741905 0.060926665 0.70300001 15903607
-0.094537146 0.061013337 0.70400006 16759944
-0.093196198 0.061013337 0.70400006 16173743
-0.092116199 0.061186668 0.70600003 16239536
-0.090771429 0.061186668 0.70600003 16240297
-0.089426666 0.061186668 0.70600003 15450781
-0.088081911 0.061186668 0.70600003 16104387
-0.086737148 0.061186668 0.70600003 16564938
-0.08515048 0.061013337 0.70400006 16305614
-0.083690472 0.060926665 0.70300001 15976649
-0.082000002 0.060666669 0.70000005 14465169
-0.080320954 0.060406666 0.69700003 12425586
-0.078880005 0.060320001 0.69600004 11891813
-0.077331424 0.060146667 0.69400001 8931128
-0.075899996 0.060060002 0.69300002 11613952
-0.074580006 0.060060002 0.69300002 12864010
-0.073260002 0.060060002 0.69300002 13387038
-0.071940005 0.060060002 0.69300002 13452831
-0.070416197 0.059886672 0.69100004 14042658
-0.069100007 0.059886672 0.69100004 14371623
-0.06778381 0.059886672 0.69100004 14437911
-0.066467628 0.059886672 0.69100004 14832669
-0.065151431 0.059886672 0.69100004 14699030
-0.06402 0.060060002 0.69300002 14567444
-0.062790476 0.060146667 0.69400001 14699030
-0.061468571 0.060146667 0.69400001 14699030
-0.060060002 0.060060002 0.69300002 14500892
-0.058740001 0.060060002 0.69300002 13974548
-0.057751432 0.060406666 0.69700003 13774848
-0.056423813 0.060406666 0.69700003 12590592
-0.055175241 0.060493335 0.69800001 12588032
-0.054000005 0.060666669 0.70000005 16740435
-0.052666668 0.060666669 0.70000005 15968662
-0.051406667 0.060753338 0.70100003 16759720
-0.050214287 0.060926665 0.70300001 16104387
-0.048875239 0.060926665 0.70300001 15051699
-0.047536191 0.060926665 0.70300001 15768236
-0.046197142 0.060926665 0.70300001 15834029
-0.044858098 0.060926665 0.70300001 15834031
-0.043519046 0.060926665 0.70300001 15505066
-0.042180002 0.060926665 0.70300001 15700618
-0.04084095 0.060926665 0.70300001 15700618
-0.039501905 0.060926665 0.70300001 15700889
-0.038162857 0.060926665 0.70300001 15569303
-0.036823809 0.060926665 0.70300001 15565430
-0.035484761 0.060926665 0.70300001 14775914
-0.034145713 0.060926665 0.70300001 15297383
-0.032806665 0.060926665 0.70300001 15165797
-0.03146762 0.060926665 0.70300001 14770804
-0.030128572 0.060926665 0.70300001 14639218
-0.028789524 0.060926665 0.70300001 15298655
-0.027489526 0.061013337 0.70400006 15430241
-0.026148573 0.061013337 0.70400006 15033687
-0.024807621 0.061013337 0.70400006 15231066
-0.023466667 0.061013337 0.70400006 15165795
-0.022094285 0.060926665 0.70300001 15494760
-0.020755239 0.060926665 0.70300001 14576749
-0.019416191 0.060926665 0.70300001 14379370
-0.018077144 0.060926665 0.70300001 12603219
-0.016738096 0.060926665 0.70300001 9774120
-0.015420954 0.061013337 0.70400006 10167062
-0.11599239 0.062354293 0.70400006 12423538
-0.11465143 0.062354293 0.70400006 14392382
-0.11331049 0.062354293 0.70400006 16366172
-0.11196953 0.062354293 0.70400006 15908926
