# .PCD v0.7 - Point Cloud Data file format
VERSION 0.7
FIELDS x y z rgba
SIZE 4 4 4 4
TYPE F F F U
COUNT 1 1 1 1
WIDTH 1089
HEIGHT 1
VIEWPOINT 0 0 0 1 0 0 0
POINTS 1089
DATA ascii
-0.11290953 0.061757144 0.65500003 8803903
-0.11200286 0.061945714 0.65700001 9911646
-0.11075143 0.061945714 0.65700001 11095920
-0.1095 0.061945714 0.65700001 9918903
-0.10824858 0.061945714 0.65700001 13142760
-0.10699714 0.061945714 0.65700001 11502305
-0.10574571 0.061945714 0.65700001 12620786
-0.10449429 0.061945714 0.65700001 12227798
-0.10324285 0.061945714 0.65700001 10977731
-0.10199143 0.061945714 0.65700001 11437255
-0.10089334 0.062040005 0.65800005 11700427
-0.099488571 0.061945714 0.65700001 11701454
-0.098237142 0.061945714 0.65700001 13806830
-0.096985713 0.061945714 0.65700001 14399228
-0.095442861 0.061757144 0.65500003 14399228
-0.094195247 0.061757144 0.65500003 14134775
-0.093231425 0.061945714 0.65700001 13937396
-0.091700003 0.061757144 0.65500003 14399999
-0.090452388 0.061757144 0.65500003 15847423
-0.089204758 0.061757144 0.65500003 15125247
-0.088225715 0.061945714 0.65700001 16243711
-0.086974286 0.061945714 0.65700001 16506879
-0.085722856 0.061945714 0.65700001 14006747
-0.084471427 0.061945714 0.65700001 13662873
-0.083220005 0.061945714 0.65700001 11360118
-0.081968568 0.061945714 0.65700001 13127486
-0.078014292 0.059871431 0.63500005 13324865
-0.076804765 0.059871431 0.63500005 13584955
-0.075595245 0.059871431 0.63500005 13584955
-0.074385718 0.059871431 0.63500005 13651239
-0.073176198 0.059871431 0.63500005 13519653
-0.072080001 0.059965719 0.63600004 13520657
-0.070868574 0.059965719 0.63600004 13586450
-0.069657147 0.059965719 0.63600004 13651500
-0.068553336 0.060060002 0.63700002 13651500
-0.067340001 0.060060002 0.63700002 13586734
-0.066126674 0.060060002 0.63700002 14047285
-0.06491334 0.060060002 0.63700002 13521447
-0.063699998 0.060060002 0.63700002 13521447
-0.062584765 0.060154289 0.63800001 13586477
-0.061273336 0.060060002 0.63700002 13718063
-0.060060002 0.060060002 0.63700002 13850912
-0.058846667 0.060060002 0.63700002 13785119
-0.057542857 0.059965719 0.63600004 13784356
-0.05633143 0.059965719 0.63600004 13389598
-0.055033337 0.059871431 0.63500005 14107949
-0.053823814 0.059871431 0.63500005 14831672
-0.05476857 0.062322859 0.66100001 14243863
-0.053509526 0.062322859 0.66100001 14704414
-0.052250478 0.062322859 0.66100001 14180956
-0.050682854 0.061945714 0.65700001 14049370
-0.049280953 0.061757144 0.65500003 13983850
-0.048033334 0.061757144 0.65500003 14115436
-0.046785716 0.061757144 0.65500003 13852273
-0.045538098 0.061757144 0.65500003 13589101
-0.044290476 0.061757144 0.65500003 13719915
-0.043042861 0.061757144 0.65500003 14114673
-0.041795239 0.061757144 0.65500003 12345712
-0.040547621 0.061757144 0.65500003 11621989
-0.039300002 0.061757144 0.65500003 10117767
-0.038052384 0.061757144 0.65500003 11762592
-0.036804762 0.061757144 0.65500003 10123194
-0.035557143 0.061757144 0.65500003 10452159
-0.034309525 0.061757144 0.65500003 10124969
-0.033061903 0.061757144 0.65500003 10190762
-0.031765718 0.06166286 0.65400004 10256801
-0.030520001 0.06166286 0.65400004 10519973
-0.029274289 0.06166286 0.65400004 11110822
-0.028028574 0.06166286 0.65400004 11702959
-0.026823809 0.061757144 0.65500003 12294805
-0.025576191 0.061757144 0.65500003 12557977
-0.024328573 0.061757144 0.65500003 12884871
-0.023080952 0.061757144 0.65500003 12555906
-0.021833334 0.061757144 0.65500003 13015668
-0.020585716 0.061757144 0.65500003 14265735
-0.019397143 0.061945714 0.65700001 15841955
-0.018145714 0.061945714 0.65700001 15841955
-0.016894286 0.061945714 0.65700001 12154451
-0.11665238 0.063004769 0.65500003 11902105
-0.11540476 0.063004769 0.65500003 11704726
-0.11415715 0.063004769 0.65500003 11432569
-0.11290953 0.063004769 0.65500003 9129814
-0.1116619 0.063004769 0.65500003 9579818
-0.11041429 0.063004769 0.65500003 11290436
-0.10916667 0.063004769 0.65500003 8737723
-0.10791905 0.063004769 0.65500003 11764201
-0.10667143 0.063004769 0.65500003 9339113
-0.10542382 0.063004769 0.65500003 11970815
-0.10417619 0.063004769 0.65500003 12366847
-0.10292857 0.063004769 0.65500003 12301055
-0.10168096 0.063004769 0.65500003 13153023
-0.10043333 0.063004769 0.65500003 12889855
-0.09918572 0.063004769 0.65500003 10916571
-0.097938098 0.063004769 0.65500003 12956154
-0.096690476 0.063004769 0.65500003 14997247
-0.095442861 0.063004769 0.65500003 14997247
-0.094195247 0.063004769 0.65500003 13749759
-0.092947617 0.063004769 0.65500003 12302317
-0.091560006 0.062908575 0.65400004 11845375
-0.090314291 0.062908575 0.65400004 11779583
-0.089068577 0.062908575 0.65400004 12498687
-0.087822862 0.062908575 0.65400004 14406655
-0.086444765 0.06281238 0.65300006 16445951
-0.085200958 0.06281238 0.65300006 14669540
-0.084471427 0.063197143 0.65700001 12287420
-0.083220005 0.063197143 0.65700001 9392528
-0.079099044 0.060984757 0.634 12929067
-0.077891432 0.060984757 0.634 13718583
-0.076683804 0.060984757 0.634 13520434
-0.075476192 0.060984757 0.634 13520434
-0.074268572 0.060984757 0.634 13586729
-0.073060952 0.060984757 0.634 13586729
-0.07196667 0.061080955 0.63500005 13453601
-0.070757151 0.061080955 0.63500005 13782566
-0.069657147 0.061177142 0.63600004 13455141
-0.06844572 0.061177142 0.63600004 13586727
-0.067234285 0.061177142 0.63600004 13521704
-0.066022858 0.061177142 0.63600004 13324325
-0.064811431 0.061177142 0.63600004 13455659
-0.063600004 0.061177142 0.63600004 13521452
-0.062388573 0.061177142 0.63600004 13653292
-0.061177142 0.061177142 0.63600004 13521706
-0.059965719 0.061177142 0.63600004 13719319
-0.058754291 0.061177142 0.63600004 13719319
-0.057452384 0.061080955 0.63500005 13783842
-0.056242861 0.061080955 0.63500005 13783842
-0.055033337 0.061080955 0.63500005 14175516
-0.053823814 0.061080955 0.63500005 14767653
-0.052614287 0.061080955 0.63500005 14374428
-0.051404767 0.061080955 0.63500005 14440221
-0.051934287 0.063197143 0.65700001 14573136
-0.050528575 0.063004769 0.65500003 14967894
-0.049280953 0.063004769 0.65500003 14640756
-0.047960002 0.062908575 0.65400004 14574963
-0.046714287 0.062908575 0.65400004 14443888
-0.045468576 0.062908575 0.65400004 14114923
-0.044222858 0.062908575 0.65400004 13917803
-0.042977147 0.062908575 0.65400004 14378354
-0.041731432 0.062908575 0.65400004 12873850
-0.040485717 0.062908575 0.65400004 10834267
-0.039180003 0.06281238 0.65300006 10047845
-0.037936196 0.06281238 0.65300006 10968947
-0.036636192 0.062716186 0.65200001 10708094
-0.035394285 0.062716186 0.65200001 11629196
-0.034204766 0.06281238 0.65300006 11171707
-0.032960951 0.06281238 0.65300006 11434879
-0.031717144 0.06281238 0.65300006 11369608
-0.030426666 0.062716186 0.65200001 11501194
-0.029184762 0.062716186 0.65200001 12092032
-0.027942857 0.062716186 0.65200001 12815755
-0.026782859 0.062908575 0.65400004 13538430
-0.025498098 0.06281238 0.65300006 13867395
-0.024254289 0.06281238 0.65300006 14391672
-0.023045715 0.062908575 0.65400004 14523258
-0.021766668 0.06281238 0.65300006 15443056
-0.020522859 0.06281238 0.65300006 16166779
-0.019338096 0.063004769 0.65500003 16037822
-0.018090477 0.063004769 0.65500003 15972029
-0.016842859 0.063004769 0.65500003 12678222
-0.015595238 0.063004769 0.65500003 6493696
-0.11647429 0.06415429 0.65400004 11966869
-0.11522858 0.06415429 0.65400004 11045767
-0.11398286 0.06415429 0.65400004 11955576
-0.11290953 0.064252384 0.65500003 9850200
-0.11149143 0.06415429 0.65400004 10959439
-0.11024573 0.06415429 0.65400004 15564949
-0.109 0.06415429 0.65400004 14400722
-0.10775429 0.06415429 0.65400004 14927066
-0.10650858 0.06415429 0.65400004 13287423
-0.10526286 0.06415429 0.65400004 13550591
-0.10401715 0.06415429 0.65400004 13485823
-0.10277143 0.06415429 0.65400004 13551615
-0.10152572 0.06415429 0.65400004 13484799
-0.10043333 0.064252384 0.65500003 12826874
-0.09918572 0.064252384 0.65500003 9933029
-0.09778858 0.06415429 0.65400004 10130408
-0.096542865 0.06415429 0.65400004 12626935
-0.095297143 0.06415429 0.65400004 13416447
-0.094051436 0.06415429 0.65400004 12693741
-0.09266381 0.064056195 0.65300006 10456779
-0.091420002 0.064056195 0.65300006 9341673
-0.090176195 0.064056195 0.65300006 10986495
-0.088796191 0.063958094 0.65200001 12037119
-0.087554283 0.063958094 0.65200001 10787059
-0.086312376 0.063958094 0.65200001 15194110
-0.085070483 0.063958094 0.65200001 15128317
-0.08125715 0.061996192 0.63200003 13074367
-0.080053337 0.061996192 0.63200003 9324166
-0.079099044 0.06219238 0.634 12795419
-0.077891432 0.06219238 0.634 13979693
-0.076683804 0.06219238 0.634 13718049
-0.075476192 0.06219238 0.634 13718049
-0.074034289 0.061996192 0.63200003 13651239
-0.072830476 0.061996192 0.63200003 13651239
-0.071853332 0.06219238 0.634 13520439
-0.070645712 0.06219238 0.634 13980990
-0.069547623 0.062290482 0.63500005 13653794
-0.068338096 0.062290482 0.63500005 13916966
-0.067128576 0.062290482 0.63500005 13589270
-0.065919049 0.062290482 0.63500005 13391891
-0.064709529 0.062290482 0.63500005 13522478
-0.063600004 0.062388573 0.63600004 13456685
-0.062290482 0.062290482 0.63500005 13652254
-0.061080955 0.062290482 0.63500005 13586461
-0.059965719 0.062388573 0.63600004 13586692
-0.058754291 0.062388573 0.63600004 13652485
-0.057452384 0.062290482 0.63500005 13848611
-0.056242861 0.062290482 0.63500005 14703920
-0.054946665 0.06219238 0.634 14309153
-0.053739045 0.06219238 0.634 14374946
-0.052531429 0.06219238 0.634 14308640
-0.051323809 0.06219238 0.634 13650710
-0.051776193 0.064252384 0.65500003 14373931
-0.050528575 0.064252384 0.65500003 16744792
-0.049205717 0.06415429 0.65400004 15698831
-0.047960002 0.06415429 0.65400004 15435659
-0.046714287 0.06415429 0.65400004 15499135
-0.045468576 0.06415429 0.65400004 15367549
-0.044222858 0.06415429 0.65400004 15497842
-0.042911433 0.064056195 0.65300006 15037291
-0.041476194 0.063761905 0.65000004 14121594
-0.040238097 0.063761905 0.65000004 14121594
-0.039000001 0.063761905 0.65000004 13402759
-0.037761904 0.063761905 0.65000004 13139587
-0.036523812 0.063761905 0.65000004 13008255
-0.035285715 0.063761905 0.65000004 13600392
-0.034152381 0.063958094 0.65200001 13536620
-0.032910477 0.063958094 0.65200001 14655101
-0.03166857 0.063958094 0.65200001 14064534
-0.030333335 0.063761905 0.65000004 13406604
-0.029095238 0.063761905 0.65000004 13931382
-0.027857145 0.063761905 0.65000004 13931382
-0.026741907 0.064056195 0.65300006 14324312
-0.025380954 0.063761905 0.65000004 14455898
-0.02414286 0.063761905 0.65000004 14782814
-0.022975238 0.063958094 0.65200001 14782814
-0.021666668 0.063761905 0.65000004 15177537
-0.020428572 0.063761905 0.65000004 15835467
-0.019190477 0.063761905 0.65000004 15900837
-0.017952381 0.063761905 0.65000004 15111321
-0.016842859 0.064252384 0.65500003 12412231
-0.015595238 0.064252384 0.65500003 6951424
-0.11647429 0.065400004 0.65400004 12163730
-0.11522858 0.065400004 0.65400004 10979456
-0.11398286 0.065400004 0.65400004 12413537
-0.11273715 0.065400004 0.65400004 10242368
-0.11132096 0.065300003 0.65300006 10827065
-0.11007715 0.065300003 0.65300006 16754603
-0.10883334 0.065300003 0.65300006 14140671
-0.10758953 0.065300003 0.65300006 13022195
-0.10634572 0.065300003 0.65300006 11841023
-0.10510191 0.065300003 0.65300006 11314680
-0.10401715 0.065400004 0.65400004 10657531
-0.10277143 0.065400004 0.65400004 10854910
-0.10152572 0.065400004 0.65400004 10529535
-0.10028 0.065400004 0.65400004 10266367
-0.099034294 0.065400004 0.65400004 7112687
-0.09778858 0.065400004 0.65400004 6717929
-0.096542865 0.065400004 0.65400004 10124779
-0.095151439 0.065300003 0.65300006 11966975
-0.093907632 0.065300003 0.65300006 12229356
-0.092521906 0.065200001 0.65200001 10913496
-0.091279998 0.065200001 0.65200001 10389996
-0.089761913 0.064999998 0.65000004 13153279
-0.088523813 0.064999998 0.65000004 15985663
-0.087285712 0.064999998 0.65000004 14604011
-0.086047627 0.064999998 0.65000004 15065087
-0.084809527 0.064999998 0.65000004 14275573
-0.08125715 0.063199997 0.63200003 12682154
-0.080053337 0.063199997 0.63200003 9260918
-0.078849532 0.063199997 0.63200003 12992019
-0.077645719 0.063199997 0.63200003 14242086
-0.076441906 0.063199997 0.63200003 13849635
-0.075238094 0.063199997 0.63200003 13718049
-0.074034289 0.063199997 0.63200003 13519887
-0.072830476 0.063199997 0.63200003 13717266
-0.071853332 0.0634 0.634 13520934
-0.070645712 0.0634 0.634 13849899
-0.0694381 0.0634 0.634 13390372
-0.068230473 0.0634 0.634 13785130
-0.06702286 0.0634 0.634 13524252
-0.06581524 0.0634 0.634 13458459
-0.064607613 0.0634 0.634 13457962
-0.0634 0.0634 0.634 13326376
-0.06219238 0.0634 0.634 13454604
-0.060984757 0.0634 0.634 13783569
-0.059777141 0.0634 0.634 13784332
-0.058661908 0.063500002 0.63500005 13652746
-0.057361905 0.0634 0.634 13848091
-0.055977143 0.063199997 0.63200003 14506021
-0.054773334 0.063199997 0.63200003 14309153
-0.053484764 0.063100003 0.63100004 14506532
-0.052282859 0.063100003 0.63100004 14178589
-0.051080953 0.063100003 0.63100004 12928522
-0.051697146 0.065400004 0.65400004 14371868
-0.050451431 0.065400004 0.65400004 16744785
-0.049130481 0.065300003 0.65300006 15698318
-0.047813334 0.065200001 0.65200001 15303560
-0.04657143 0.065200001 0.65200001 15629958
-0.045190476 0.064999998 0.65000004 15366786
-0.043952383 0.064999998 0.65000004 15430778
-0.042714287 0.064999998 0.65000004 14904434
-0.041476194 0.064999998 0.65000004 14840430
-0.04017619 0.064900003 0.64900005 16090497
-0.038940005 0.064900003 0.64900005 15636393
-0.037703812 0.064900003 0.64900005 14123154
-0.036467623 0.064900003 0.64900005 14448762
-0.03523143 0.064900003 0.64900005 15369864
-0.033995241 0.064900003 0.64900005 14847631
-0.032759052 0.064900003 0.64900005 15768733
-0.031522859 0.064900003 0.64900005 15375536
-0.030286668 0.064900003 0.64900005 15046571
-0.029050479 0.064900003 0.64900005 15111830
-0.027814288 0.064900003 0.64900005 14453900
-0.026619049 0.064999998 0.65000004 14912097
-0.025341906 0.064900003 0.64900005 14912097
-0.024105716 0.064900003 0.64900005 14976852
-0.022869525 0.064900003 0.64900005 14779473
-0.021600001 0.064800002 0.648 14779184
-0.020365715 0.064800002 0.648 16424009
-0.019131428 0.064800002 0.648 15834794
-0.017897142 0.064800002 0.648 14913692
-0.016662857 0.064800002 0.648 11621436
-0.11647429 0.066645719 0.65400004 12032142
-0.11522858 0.066645719 0.65400004 10518903
-0.11380858 0.066543818 0.65300006 11820607
-0.11256477 0.066543818 0.65300006 8136199
-0.11132096 0.066543818 0.65300006 10366012
-0.10990857 0.066441901 0.65200001 16763610
-0.10866667 0.066441901 0.65200001 15919871
-0.10742477 0.066441901 0.65200001 5261405
-0.10618286 0.066441901 0.65200001 2246108
-0.10494096 0.066441901 0.65200001 4088312
-0.10385811 0.066543818 0.65300006 8486607
-0.10261429 0.066543818 0.65300006 8618193
-0.10137048 0.066543818 0.65300006 9672912
-0.10012668 0.066543818 0.65300006 11778288
-0.098882869 0.066543818 0.65300006 10923767
-0.097639054 0.066543818 0.65300006 9542114
-0.096395247 0.066543818 0.65300006 11046908
-0.094568573 0.066136196 0.64900005 12033791
-0.093332388 0.066136196 0.64900005 12494313
-0.092096195 0.066136196 0.64900005 12033762
-0.090860009 0.066136196 0.64900005 11771903
-0.089623809 0.066136196 0.64900005 13679871
-0.088387623 0.066136196 0.64900005 14273023
-0.087151438 0.066136196 0.64900005 13615097
-0.085915245 0.066136196 0.64900005 14333925
-0.084679052 0.066136196 0.64900005 12820686
-0.08125715 0.06440381 0.63200003 13663311
-0.080053337 0.06440381 0.63200003 10702626
-0.078849532 0.06440381 0.63200003 13123366
-0.077522859 0.064301908 0.63100004 14044468
-0.076320961 0.064301908 0.63100004 13980948
-0.075119056 0.064301908 0.63100004 13980948
-0.07391715 0.064301908 0.63100004 13585680
-0.072715245 0.064301908 0.63100004 13651473
-0.07151334 0.064301908 0.63100004 13652254
-0.070311435 0.064301908 0.63100004 13981219
-0.069109522 0.064301908 0.63100004 13654044
-0.067907616 0.064301908 0.63100004 13456665
-0.066705719 0.064301908 0.63100004 13391114
-0.065607622 0.06440381 0.63200003 13588493
-0.06440381 0.06440381 0.63200003 13654305
-0.063199997 0.06440381 0.63200003 13720098
-0.061898097 0.064301908 0.63100004 13718813
-0.060696192 0.064301908 0.63100004 13587227
-0.059588574 0.06440381 0.63200003 13849885
-0.058569524 0.064607613 0.634 14376229
-0.05709048 0.064301908 0.63100004 14178076
-0.055888575 0.064301908 0.63100004 14046490
-0.054686669 0.064301908 0.63100004 14441242
-0.053400002 0.064200006 0.63000005 14770207
-0.052200004 0.064200006 0.63000005 13783340
-0.051000003 0.064200006 0.63000005 11217413
-0.051697146 0.066645719 0.65400004 13977096
-0.050374292 0.066543818 0.65300006 16411437
-0.048904765 0.066238098 0.65000004 15296098
-0.047593337 0.066136196 0.64900005 15361891
-0.046357144 0.066136196 0.64900005 15296117
-0.045120955 0.066136196 0.64900005 15230324
-0.043884765 0.066136196 0.64900005 15296357
-0.042648572 0.066136196 0.64900005 15230564
-0.041412383 0.066136196 0.64900005 14642790
-0.04017619 0.066136196 0.64900005 15695478
-0.038940005 0.066136196 0.64900005 14779283
-0.037703812 0.066136196 0.64900005 13068665
-0.036467623 0.066136196 0.64900005 13789543
-0.03523143 0.066136196 0.64900005 15697540
-0.033995241 0.066136196 0.64900005 14780328
-0.032759052 0.066136196 0.64900005 15767223
-0.031522859 0.066136196 0.64900005 15111362
-0.030286668 0.066136196 0.64900005 14716604
-0.029050479 0.066136196 0.64900005 14649003
-0.027814288 0.066136196 0.64900005 14056866
-0.026619049 0.066238098 0.65000004 14515810
-0.025341906 0.066136196 0.64900005 13528915
-0.024105716 0.066136196 0.64900005 13920564
-0.022869525 0.066136196 0.64900005 13723185
-0.021600001 0.066034287 0.648 14116900
-0.020365715 0.066034287 0.648 15827518
-0.019131428 0.066034287 0.648 15042947
-0.017869525 0.065932386 0.64700001 13398122
-0.016637143 0.065932386 0.64700001 11288099
-0.11505239 0.067787625 0.65300006 10124915
-0.11363429 0.067683809 0.65200001 12085248
-0.11204763 0.067476198 0.65000004 10966784
-0.11080953 0.067476198 0.65000004 10308096
-0.10957143 0.067476198 0.65000004 16768131
-0.10833334 0.067476198 0.65000004 15330047
-0.10709524 0.067476198 0.65000004 10329780
-0.10585715 0.067476198 0.65000004 6326503
-0.10461906 0.067476198 0.65000004 6589675
-0.10338096 0.067476198 0.65000004 10458317
-0.10214286 0.067476198 0.65000004 10063559
-0.10090476 0.067476198 0.65000004 9800648
-0.099973336 0.067683809 0.65200001 11511266
-0.098428577 0.067476198 0.65000004 11120353
-0.097190477 0.067476198 0.65000004 9475528
-0.095804766 0.067372382 0.64900005 10259402
-0.094422854 0.067268573 0.648 11312090
-0.093188569 0.067268573 0.648 12430301
-0.091954283 0.067268573 0.648 11772371
-0.090719998 0.067268573 0.648 11574751
-0.089485712 0.067268573 0.648 9206203
-0.088251427 0.067268573 0.648 9464019
-0.087017149 0.067268573 0.648 8082366
-0.085782856 0.067268573 0.648 10305180
-0.08454857 0.067268573 0.648 11489454
-0.081514291 0.06581524 0.634 12930641
-0.080053337 0.065607622 0.63200003 12206918
-0.078724764 0.065503813 0.63100004 13386284
-0.077400006 0.065400004 0.63000005 14438972
-0.076200008 0.065400004 0.63000005 14111513
-0.075000003 0.065400004 0.63000005 14111513
-0.07368286 0.065296195 0.62900001 13718546
-0.072484761 0.065296195 0.62900001 13718546
-0.07151334 0.065503813 0.63100004 13718813
-0.070311435 0.065503813 0.63100004 13784606
-0.069109522 0.065503813 0.63100004 13785632
-0.067907616 0.065503813 0.63100004 13588253
-0.066705719 0.065503813 0.63100004 13653007
-0.065503813 0.065503813 0.63100004 13653007
-0.064301908 0.065503813 0.63100004 13586450
-0.063100003 0.065503813 0.63100004 14047001
-0.061800007 0.065400004 0.63000005 13850919
-0.060600005 0.065400004 0.63000005 13587747
-0.059400007 0.065400004 0.63000005 13653020
-0.058292385 0.065503813 0.63100004 14179364
-0.057000004 0.065400004 0.63000005 14309925
-0.055800002 0.065400004 0.63000005 14244132
-0.054600004 0.065400004 0.63000005 14506530
-0.053400002 0.065400004 0.63000005 14572323
-0.052200004 0.065400004 0.63000005 13520657
-0.051000003 0.065400004 0.63000005 10888960
-0.051539049 0.067683809 0.65200001 13977619
-0.050065719 0.067372382 0.64900005 16280374
-0.048754286 0.067268573 0.648 15294051
-0.047446668 0.067164764 0.64700001 15162465
-0.046214286 0.067164764 0.64700001 15295599
-0.044981908 0.067164764 0.64700001 15295599
-0.04381714 0.067268573 0.648 15296107
-0.042582858 0.067268573 0.648 15361900
-0.041348573 0.067268573 0.648 14576244
-0.040114284 0.067268573 0.648 13260384
-0.038880002 0.067268573 0.648 12999006
-0.037645712 0.067268573 0.648 12801627
-0.036411427 0.067268573 0.648 13458785
-0.035177141 0.067268573 0.648 15169403
-0.033942856 0.067268573 0.648 14648233
-0.032708574 0.067268573 0.648 15635128
-0.031474285 0.067268573 0.648 14915016
-0.030240001 0.067268573 0.648 14586051
-0.029005714 0.067268573 0.648 14451876
-0.027771428 0.067268573 0.648 14057118
-0.026578097 0.067372382 0.64900005 14516587
-0.025341906 0.067372382 0.64900005 13266520
-0.02406857 0.067268573 0.648 14050626
-0.022799049 0.067164764 0.64700001 13984833
-0.021566667 0.067164764 0.64700001 14050073
-0.020334285 0.067164764 0.64700001 16155449
-0.019101905 0.067164764 0.64700001 14781075
-0.017869525 0.067164764 0.64700001 13070457
-0.016637143 0.067164764 0.64700001 11026987
-0.11487619 0.068925716 0.65200001 12954784
-0.11328572 0.068714283 0.65000004 15715109
-0.11204763 0.068714283 0.65000004 15583523
-0.11080953 0.068714283 0.65000004 14729728
-0.10957143 0.068714283 0.65000004 16770842
-0.10833334 0.068714283 0.65000004 15197695
-0.10693048 0.068608582 0.64900005 14276595
-0.10569429 0.068608582 0.64900005 11909375
-0.1044581 0.068608582 0.64900005 8290761
-0.10338096 0.068714283 0.65000004 9468092
-0.10198572 0.068608582 0.64900005 10191815
-0.10074953 0.068608582 0.64900005 9390538
-0.099513337 0.068608582 0.64900005 8272057
-0.098125711 0.068502858 0.648 9649759
-0.096891426 0.068502858 0.648 9518173
-0.095657147 0.068502858 0.648 10240070
-0.094277143 0.068397142 0.64700001 11292758
-0.093044758 0.068397142 0.64700001 11294339
-0.09181238 0.068397142 0.64700001 11162753
-0.090580001 0.068397142 0.64700001 11031158
-0.089347623 0.068397142 0.64700001 10373228
-0.088115238 0.068397142 0.64700001 10435416
-0.086882859 0.068397142 0.64700001 10501209
-0.085650474 0.068397142 0.64700001 11284077
-0.084418096 0.068397142 0.64700001 11086698
-0.08125715 0.066811427 0.63200003 12073004
-0.07992667 0.066705719 0.63100004 11875625
-0.078600004 0.06660001 0.63000005 12792121
-0.077400006 0.06660001 0.63000005 14897497
-0.076079048 0.066494286 0.62900001 14178059
-0.07488095 0.066494286 0.62900001 14046473
-0.073565714 0.06638857 0.62800002 13915424
-0.072369523 0.06638857 0.62800002 13849631
-0.071286663 0.066494286 0.62900001 13784092
-0.070200004 0.06660001 0.63000005 13784092
-0.069000006 0.06660001 0.63000005 13785371
-0.0678 0.06660001 0.63000005 13851164
-0.06660001 0.06660001 0.63000005 13719074
-0.065503813 0.066705719 0.63100004 13784867
-0.064200006 0.06660001 0.63000005 13651752
-0.062899999 0.066494286 0.62900001 13980717
-0.061701905 0.066494286 0.62900001 13849647
-0.06040762 0.06638857 0.62800002 13586475
-0.059211429 0.06638857 0.62800002 13848620
-0.058015238 0.06638857 0.62800002 14374964
-0.056819052 0.06638857 0.62800002 14374953
-0.055622861 0.06638857 0.62800002 14309160
-0.054513335 0.066494286 0.62900001 14374433
-0.053315237 0.066494286 0.62900001 13913882
-0.052117143 0.066494286 0.62900001 13390361
-0.050919048 0.066494286 0.62900001 11153408
-0.051222857 0.068502858 0.648 12987724
-0.049988572 0.068502858 0.648 16606339
-0.04860381 0.068291426 0.64600003 15295349
-0.047373332 0.068291426 0.64600003 14769005
-0.046000004 0.068080008 0.64400005 15161691
-0.044773336 0.068080008 0.64400005 15095898
-0.043546669 0.068080008 0.64400005 15096428
-0.04245143 0.068291426 0.64600003 15425393
-0.041220952 0.068291426 0.64600003 14179964
-0.039990477 0.068291426 0.64600003 13061483
-0.038760003 0.068291426 0.64600003 12405292
-0.037529524 0.068291426 0.64600003 12273706
-0.03629905 0.068291426 0.64600003 12862057
-0.035068572 0.068291426 0.64600003 15033226
-0.033838097 0.068291426 0.64600003 14316206
-0.032607622 0.068291426 0.64600003 16224203
-0.031377144 0.068291426 0.64600003 15440597
-0.030146668 0.068291426 0.64600003 15045839
-0.028826667 0.068080008 0.64400005 15111589
-0.027600003 0.068080008 0.64400005 13927315
-0.026496191 0.068397142 0.64700001 14449261
-0.025263811 0.068397142 0.64700001 13264987
-0.024031429 0.068397142 0.64700001 13457737
-0.022763809 0.068291426 0.64600003 12734014
-0.021466667 0.068080008 0.64400005 13324606
-0.020240003 0.068080008 0.64400005 14969431
-0.018954286 0.067868568 0.64200002 13990002
-0.017731428 0.067868568 0.64200002 12213591
-0.016611429 0.068291426 0.64600003 10825025
-0.11558381 0.069844767 0.64900005 11638929
-0.11399524 0.06962952 0.64700001 14599614
-0.11276285 0.06962952 0.64700001 15455305
-0.11153048 0.06962952 0.64700001 15389512
-0.1102981 0.06962952 0.64700001 14602240
-0.10923428 0.069737144 0.648 15523328
-0.108 0.069737144 0.648 14407863
-0.10676572 0.069737144 0.648 14539449
-0.10553142 0.069737144 0.648 13222360
-0.10429715 0.069737144 0.648 9340573
-0.10290381 0.06962952 0.64700001 9523875
-0.10167143 0.06962952 0.64700001 9852840
-0.10043905 0.06962952 0.64700001 11481259
-0.099053338 0.069521904 0.64600003 10889122
-0.097520009 0.069306672 0.64400005 12327509
-0.096293338 0.069306672 0.64400005 12853853
-0.095066674 0.069306672 0.64400005 12789589
-0.093840003 0.069306672 0.64400005 13447519
-0.092613339 0.069306672 0.64400005 13053558
-0.091386676 0.069306672 0.64400005 13316730
-0.090160005 0.069306672 0.64400005 13317250
-0.088933334 0.069306672 0.64400005 13712008
-0.087706678 0.069306672 0.64400005 13712526
-0.086345717 0.069199048 0.64300001 14041491
-0.085120954 0.069199048 0.64300001 13122931
-0.083635241 0.068983816 0.64100003 12925552
-0.081128575 0.067907616 0.63100004 11809839
-0.07980001 0.0678 0.63000005 11283495
-0.078475237 0.067692384 0.62900001 12596768
-0.077154286 0.067584768 0.62800002 14899523
-0.07583715 0.067477144 0.62700003 14309916
-0.074642867 0.067477144 0.62700003 14112537
-0.073214285 0.067261904 0.625 13980948
-0.072023809 0.067261904 0.625 13980948
-0.071060002 0.067477144 0.62700003 13915424
-0.069865711 0.067477144 0.62700003 13981217
-0.068671428 0.067477144 0.62700003 13850401
-0.067584768 0.067584768 0.62800002 13784608
-0.06638857 0.067584768 0.62800002 13784342
-0.065296195 0.067692384 0.62900001 13652756
-0.063996188 0.067584768 0.62800002 13651983
-0.062700003 0.067477144 0.62700003 13586190
-0.061505716 0.067477144 0.62700003 13716493
-0.060311433 0.067477144 0.62700003 14177044
-0.059117146 0.067477144 0.62700003 14241613
-0.057922859 0.067477144 0.62700003 14570578
-0.056728572 0.067477144 0.62700003 14440489
-0.055534288 0.067477144 0.62700003 14374696
-0.054340001 0.067477144 0.62700003 14308912
-0.053315237 0.067692384 0.62900001 14177326
-0.052117143 0.067692384 0.62900001 13587765
-0.051000003 0.0678 0.63000005 11153424
-0.051222857 0.069737144 0.648 12592434
-0.049602855 0.069199048 0.64300001 16474221
-0.048378095 0.069199048 0.64300001 15230326
-0.047153335 0.069199048 0.64300001 14769775
-0.045928571 0.069199048 0.64300001 15227747
-0.044703808 0.069199048 0.64300001 15096161
-0.043546669 0.069306672 0.64400005 15161971
-0.042320006 0.069306672 0.64400005 15293557
-0.041093335 0.069306672 0.64400005 14179696
-0.039866671 0.069306672 0.64400005 13258594
-0.038640004 0.069306672 0.64400005 12930898
-0.037413336 0.069306672 0.64400005 12601933
-0.036186669 0.069306672 0.64400005 12993112
-0.034960002 0.069306672 0.64400005 15295867
-0.033628572 0.069091432 0.64200002 14513067
-0.032405715 0.069091432 0.64200002 16552650
-0.03128 0.069306672 0.64400005 15639500
-0.030053336 0.069306672 0.64400005 15047363
-0.028781906 0.069199048 0.64300001 15308995
-0.027557142 0.069199048 0.64300001 13729963
-0.026373334 0.069306672 0.64400005 14185590
-0.025146669 0.069306672 0.64400005 12672351
-0.023994286 0.069521904 0.64600003 13457212
-0.022622859 0.069091432 0.64200002 12536110
-0.021400001 0.069091432 0.64200002 12928822
-0.020177143 0.069091432 0.64200002 15034198
-0.018924762 0.068983816 0.64100003 13662067
-0.017703811 0.068983816 0.64100003 11556691
-0.016611429 0.069521904 0.64600003 10759722
-0.11504953 0.070752382 0.64600003 11638931
-0.11381905 0.070752382 0.64600003 14796995
-0.11224001 0.070533335 0.64400005 16114944
-0.11101335 0.070533335 0.64400005 16575488
-0.11012762 0.070752382 0.64600003 16247328
-0.10889714 0.070752382 0.64600003 16049949
-0.10783334 0.070861906 0.64700001 15460376
-0.10660095 0.070861906 0.64700001 16513064
-0.10536857 0.070861906 0.64700001 15721387
-0.10413619 0.070861906 0.64700001 14273941
-0.10274477 0.070752382 0.64600003 13807845
-0.10151429 0.070752382 0.64600003 13347294
-0.10028381 0.070752382 0.64600003 14851566
-0.098746672 0.070533335 0.64400005 14259429
-0.097520009 0.070533335 0.64400005 14782347
-0.096293338 0.070533335 0.64400005 13927038
-0.095066674 0.070533335 0.64400005 14647717
-0.093694285 0.070423812 0.64300001 14910889
-0.092469528 0.070423812 0.64300001 14711966
-0.091244757 0.070423812 0.64300001 14119829
-0.090020001 0.070423812 0.64300001 14577588
-0.088795237 0.070423812 0.64300001 14972346
-0.087570474 0.070423812 0.64300001 14905800
-0.086211428 0.070314288 0.64200002 13721526
-0.084988572 0.070314288 0.64200002 13256813
-0.083504766 0.070095241 0.64000005 12598883
-0.081128575 0.069109522 0.63100004 11810369
-0.07980001 0.069000006 0.63000005 10823474
-0.078475237 0.068890475 0.62900001 12003650
-0.077154286 0.068780951 0.62800002 13582682
-0.07583715 0.068671428 0.62700003 13914624
-0.074404761 0.068452381 0.625 14243584
-0.073214285 0.068452381 0.625 14176519
-0.072023809 0.068452381 0.625 14242312
-0.071060002 0.068671428 0.62700003 14111261
-0.069865711 0.068671428 0.62700003 14177054
-0.068671428 0.068671428 0.62700003 13915174
-0.067477144 0.068671428 0.62700003 13980967
-0.066282853 0.068671428 0.62700003 13848844
-0.065192387 0.068780951 0.62800002 13651465
-0.063894287 0.068671428 0.62700003 13847045
-0.062700003 0.068671428 0.62700003 13715459
-0.061505716 0.068671428 0.62700003 13978130
-0.060311433 0.068671428 0.62700003 16083506
-0.058928572 0.068452381 0.625 15298928
-0.057738096 0.068452381 0.625 14509412
-0.056547619 0.068452381 0.625 14506530
-0.055357143 0.068452381 0.625 13848600
-0.054340001 0.068671428 0.62700003 14242365
-0.053315237 0.068890475 0.62900001 14439744
-0.052117143 0.068890475 0.62900001 13259063
-0.051000003 0.069000006 0.63000005 11351066
-0.049800005 0.069000006 0.63000005 12723782
-0.049371433 0.070095241 0.64000005 16539776
-0.048152387 0.070095241 0.64000005 15362932
-0.047080003 0.070314288 0.64200002 15033967
-0.045857143 0.070314288 0.64200002 15359861
-0.044634286 0.070314288 0.64200002 15294068
-0.04341143 0.070314288 0.64200002 14899576
-0.04218857 0.070314288 0.64200002 14833783
-0.040965714 0.070314288 0.64200002 14375537
-0.039804764 0.070423812 0.64300001 14704502
-0.038579997 0.070423812 0.64300001 13654910
-0.037297145 0.070314288 0.64200002 12931187
-0.036018096 0.070204765 0.64100003 12995442
-0.034797143 0.070204765 0.64100003 14442888
-0.03357619 0.070204765 0.64100003 14448807
-0.032355241 0.070204765 0.64100003 15040944
-0.031182857 0.070314288 0.64200002 14649257
-0.029959999 0.070314288 0.64200002 14780843
-0.028737145 0.070314288 0.64200002 14846902
-0.027514286 0.070314288 0.64200002 13925800
-0.02633238 0.070423812 0.64300001 14317929
-0.02510762 0.070423812 0.64300001 12607311
-0.023845714 0.070314288 0.64200002 12929351
-0.02258762 0.070204765 0.64100003 12534593
-0.021333335 0.070095241 0.64000005 12862546
-0.020114286 0.070095241 0.64000005 13915234
-0.018895241 0.070095241 0.64000005 12869691
-0.017676191 0.070095241 0.64000005 11027487
-0.11469334 0.071760006 0.64400005 11441795
-0.11346667 0.071760006 0.64400005 15257789
-0.11206571 0.071648575 0.64300001 16180515
-0.11084095 0.071648575 0.64300001 16377894
-0.10961619 0.071648575 0.64300001 16379445
-0.10839143 0.071648575 0.64300001 16708410
-0.10716667 0.071648575 0.64300001 16381505
-0.10643619 0.071982861 0.64600003 16777038
-0.10520571 0.071982861 0.64600003 16576213
-0.10397524 0.071982861 0.64600003 14141872
-0.10274477 0.071982861 0.64600003 14792922
-0.10151429 0.071982861 0.64600003 15319266
-0.10028381 0.071982861 0.64600003 15581172
-0.098746672 0.071760006 0.64400005 14989035
-0.097520009 0.071760006 0.64400005 14524869
-0.096143812 0.071648575 0.64300001 15248592
-0.094919048 0.071648575 0.64300001 15706859
-0.093694285 0.071648575 0.64300001 15377894
-0.092469528 0.071648575 0.64300001 15113397
-0.091102861 0.071537144 0.64200002 15376569
-0.089879997 0.071537144 0.64200002 15507140
-0.088657148 0.071537144 0.64200002 16757721
-0.087434284 0.071537144 0.64200002 16170229
-0.086077146 0.071425714 0.64100003 12025270
-0.084856197 0.071425714 0.64100003 13059959
-0.083504766 0.07131429 0.64000005 13059959
-0.081128575 0.070311435 0.63100004 11812181
-0.07980001 0.070200004 0.63000005 10364735
-0.078475237 0.070088573 0.62900001 11610915
-0.077154286 0.069977149 0.62800002 13453119
-0.07583715 0.069865711 0.62700003 13387279
-0.074404761 0.069642857 0.625 14111002
-0.073214285 0.069642857 0.625 14439458
-0.072023809 0.069642857 0.625 14702630
-0.070833333 0.069642857 0.625 14374946
-0.069865711 0.069865711 0.62700003 13914395
-0.068671428 0.069865711 0.62700003 13846294
-0.067477144 0.069865711 0.62700003 14372638
-0.066282853 0.069865711 0.62700003 14241856
-0.06508857 0.069865711 0.62700003 14241856
-0.063690476 0.069642857 0.625 14439492
-0.0625 0.069642857 0.625 14768457
-0.061309524 0.069642857 0.625 14703704
-0.060119048 0.069642857 0.625 16282736
-0.058928572 0.069642857 0.625 15632007
-0.057738096 0.069642857 0.625 13592424
-0.056547619 0.069642857 0.625 14571314
-0.055357143 0.069642857 0.625 14242349
-0.054340001 0.069865711 0.62700003 14111565
-0.053315237 0.070088573 0.62900001 14111565
-0.052200004 0.070200004 0.63000005 12730146
-0.051080953 0.070311435 0.63100004 11677458
-0.050195243 0.070757151 0.63500005 12919351
-0.049217142 0.071091428 0.63800001 16737915
-0.048152387 0.07131429 0.64000005 15496839
-0.047006667 0.071425714 0.64100003 14970495
-0.045785714 0.071425714 0.64100003 15362423
-0.044564765 0.071425714 0.64100003 14901872
-0.043343812 0.071425714 0.64100003 14899564
-0.04212286 0.071425714 0.64100003 14965357
-0.040901907 0.071425714 0.64100003 14570883
-0.039680954 0.071425714 0.64100003 14965641
-0.038460001 0.071425714 0.64100003 14182778
-0.037239049 0.071425714 0.64100003 13195883
-0.035961907 0.07131429 0.64000005 12669548
-0.034742858 0.07131429 0.64000005 13459064
-0.033523809 0.07131429 0.64000005 13329043
-0.032304764 0.07131429 0.64000005 13658008
-0.031134287 0.071425714 0.64100003 13331821
-0.029913336 0.071425714 0.64100003 13660786
-0.028692381 0.071425714 0.64100003 13857427
-0.027471429 0.071425714 0.64100003 13660048
-0.02629143 0.071537144 0.64200002 13527660
-0.025068572 0.071537144 0.64200002 12606558
-0.023808572 0.071425714 0.64100003 12864073
-0.022552382 0.07131429 0.64000005 12995659
-0.021333335 0.07131429 0.64000005 12994906
-0.020114286 0.07131429 0.64000005 13389664
-0.018895241 0.07131429 0.64000005 12406867
-0.017620953 0.071091428 0.63800001 10959421
-0.016405715 0.071091428 0.63800001 10956076
-0.11556 0.072760001 0.64200002 10521740
-0.11433714 0.072760001 0.64200002 11967352
-0.11329047 0.072873332 0.64300001 15914932
-0.11189143 0.072760001 0.64200002 16114704
-0.11066858 0.072760001 0.64200002 16048911
-0.10944572 0.072760001 0.64200002 16116224
-0.1080543 0.07264667 0.64100003 16576768
-0.10683334 0.07264667 0.64100003 16315399
-0.1059419 0.072873332 0.64300001 16776984
-0.10471714 0.072873332 0.64300001 16443566
-0.10349238 0.072873332 0.64300001 13746053
-0.10226762 0.072873332 0.64300001 14860248
-0.10120001 0.072986677 0.64400005 15912936
-0.099973343 0.072986677 0.64400005 15451872
-0.098593332 0.072873332 0.64300001 14596563
-0.097217143 0.072760001 0.64200002 14920691
-0.095994294 0.072760001 0.64200002 16499711
-0.09477143 0.072760001 0.64200002 16370666
-0.093548574 0.072760001 0.64200002 14199497
-0.092325717 0.072760001 0.64200002 14323640
-0.090960957 0.07264667 0.64100003 15244742
-0.089740001 0.07264667 0.64100003 15379122
-0.088519052 0.07264667 0.64100003 16037052
-0.087298095 0.07264667 0.64100003 16103140
-0.086077146 0.07264667 0.64100003 11892388
-0.084723815 0.072533339 0.64000005 12136334
-0.08324381 0.07230667 0.63800001 12991643
-0.08125715 0.071626663 0.63200003 12012386
-0.07980001 0.071400009 0.63000005 9578045
-0.078475237 0.071286663 0.62900001 11350314
-0.077154286 0.071173333 0.62800002 12337209
-0.07583715 0.071060002 0.62700003 12927777
-0.074404761 0.070833333 0.625 12927777
-0.073214285 0.070833333 0.625 13584419
-0.072023809 0.070833333 0.625 14505521
-0.070833333 0.070833333 0.625 14309414
-0.069642857 0.070833333 0.625 14441000
-0.068671428 0.071060002 0.62700003 14373926
-0.067261904 0.070833333 0.625 15755579
-0.066071428 0.070833333 0.625 15499891
-0.064880952 0.070833333 0.625 15763063
-0.063690476 0.070833333 0.625 15632007
-0.0625 0.070833333 0.625 16421523
-0.061309524 0.070833333 0.625 15564690
-0.060119048 0.070833333 0.625 15169932
-0.058928572 0.070833333 0.625 15234398
-0.057645712 0.070720002 0.62400001 13457987
-0.056457143 0.070720002 0.62400001 13978421
-0.055268571 0.070720002 0.62400001 14241593
-0.054340001 0.071060002 0.62700003 13915224
-0.053315237 0.071286663 0.62900001 13783638
-0.052200004 0.071400009 0.63000005 12731438
-0.051323809 0.071853332 0.634 11020820
-0.050195243 0.07196667 0.63500005 12655198
-0.049217142 0.07230667 0.63800001 16739761
-0.048001904 0.07230667 0.63800001 15631764
-0.046933334 0.072533339 0.64000005 15039627
-0.045714289 0.072533339 0.64000005 15497077
-0.044495244 0.072533339 0.64000005 15299698
-0.043276191 0.072533339 0.64000005 15232634
-0.042057145 0.072533339 0.64000005 15627392
-0.0408381 0.072533339 0.64000005 15299485
-0.039619051 0.072533339 0.64000005 14246797
-0.038400002 0.072533339 0.64000005 14181486
-0.037180953 0.072533339 0.64000005 14313072
-0.035961907 0.072533339 0.64000005 13789047
-0.034742858 0.072533339 0.64000005 13723254
-0.033523809 0.072533339 0.64000005 13068674
-0.032304764 0.072533339 0.64000005 11226470
-0.031085717 0.072533339 0.64000005 10765312
-0.029866669 0.072533339 0.64000005 11489024
-0.02864762 0.072533339 0.64000005 11947848
-0.027428573 0.072533339 0.64000005 11618883
-0.026250478 0.07264667 0.64100003 12272702
-0.025029525 0.07264667 0.64100003 12535874
-0.023771429 0.072533339 0.64000005 12864340
-0.022481905 0.07230667 0.63800001 13917028
-0.021266667 0.07230667 0.63800001 12930401
-0.020051429 0.07230667 0.63800001 12798815
-0.018836191 0.07230667 0.63800001 12472678
-0.017620953 0.07230667 0.63800001 10893646
-0.016405715 0.07230667 0.63800001 10891569
-0.11660096 0.073867619 0.64100003 11508378
-0.11538001 0.073867619 0.64100003 10718862
-0.11415905 0.073867619 0.64100003 12558960
-0.1129381 0.073867619 0.64100003 15782817
-0.11154287 0.073752381 0.64000005 16178749
-0.11032382 0.073752381 0.64000005 16178749
-0.10927524 0.073867619 0.64100003 15917334
-0.10788572 0.073752381 0.64000005 16246299
-0.10666667 0.073752381 0.64000005 16182039
-0.10544763 0.073752381 0.64000005 16708383
-0.10422858 0.073752381 0.64000005 15981942
-0.10300954 0.073752381 0.64000005 15587184
-0.10179048 0.073752381 0.64000005 15848085
-0.10072858 0.073867619 0.64100003 16308636
-0.099507622 0.073867619 0.64100003 15385820
-0.098286666 0.073867619 0.64100003 13938374
-0.097065717 0.073867619 0.64100003 14459870
-0.095844768 0.073867619 0.64100003 16565246
-0.094623812 0.073867619 0.64100003 16241138
-0.093402863 0.073867619 0.64100003 14793692
-0.092181914 0.073867619 0.64100003 13996992
-0.090960957 0.073867619 0.64100003 15115473
-0.089600012 0.073752381 0.64000005 15577830
-0.088380955 0.073752381 0.64000005 15775209
-0.087161906 0.073752381 0.64000005 15973111
-0.085942864 0.073752381 0.64000005 12749254
-0.084723815 0.073752381 0.64000005 13986238
-0.08324381 0.073521905 0.63800001 13262515
-0.081642859 0.073176198 0.63500005 12605607
-0.07980001 0.0726 0.63000005 9184371
-0.078475237 0.072484761 0.62900001 10824220
-0.077154286 0.072369523 0.62800002 11613736
-0.075958095 0.072369523 0.62800002 12335642
-0.074642867 0.072254293 0.62700003 12861986
-0.073214285 0.072023809 0.625 12859924
-0.072023809 0.072023809 0.625 14109991
-0.070833333 0.072023809 0.625 13980465
-0.069642857 0.072023809 0.625 14309430
-0.068452381 0.072023809 0.625 14637105
-0.067261904 0.072023809 0.625 15887172
-0.066071428 0.072023809 0.625 15565945
-0.064880952 0.072023809 0.625 15631738
-0.063588567 0.071908571 0.62400001 15566202
-0.062400002 0.071908571 0.62400001 15697788
-0.061309524 0.072023809 0.625 14905463
-0.060119048 0.072023809 0.625 14444912
-0.058928572 0.072023809 0.625 14048577
-0.057645712 0.071908571 0.62400001 13456440
-0.056457143 0.071908571 0.62400001 13652270
-0.055268571 0.071908571 0.62400001 13718063
-0.05442667 0.072369523 0.62800002 13586770
-0.053400002 0.0726 0.63000005 13455184
-0.052282859 0.072715245 0.63100004 12599848
-0.051404767 0.073176198 0.63500005 12402469
-0.050353333 0.073406667 0.63700002 13981799
-0.049139999 0.073406667 0.63700002 16745362
-0.048001904 0.073521905 0.63800001 15632548
-0.046786666 0.073521905 0.63800001 15171997
-0.045714289 0.073752381 0.64000005 15432343
-0.044495244 0.073752381 0.64000005 15037585
-0.043276191 0.073752381 0.64000005 15101838
-0.042057145 0.073752381 0.64000005 15628182
-0.0408381 0.073752381 0.64000005 15433381
-0.039619051 0.073752381 0.64000005 14446486
-0.038400002 0.073752381 0.64000005 14246511
-0.037064761 0.073521905 0.63800001 14575476
-0.035849527 0.073521905 0.63800001 14247801
-0.03458 0.073406667 0.63700002 14576766
-0.033366665 0.073406667 0.63700002 12874375
-0.032203808 0.073521905 0.63800001 10242655
-0.030988572 0.073521905 0.63800001 8989440
-0.029773334 0.073521905 0.63800001 11357978
-0.028558096 0.073521905 0.63800001 11621956
-0.027342858 0.073521905 0.63800001 11161405
-0.026209526 0.073752381 0.64000005 11544352
-0.024912382 0.073521905 0.63800001 13057591
-0.023697143 0.073521905 0.63800001 12601945
-0.022446666 0.073406667 0.63700002 13325668
-0.021233333 0.073406667 0.63700002 12799833
-0.020019999 0.073406667 0.63700002 12799833
-0.018806668 0.073406667 0.63700002 12407403
-0.017593335 0.073406667 0.63700002 11223129
-0.016405715 0.073521905 0.63800001 10891577
-0.11660096 0.075088575 0.64100003 11640734
-0.11538001 0.075088575 0.64100003 10785425
-0.11415905 0.075088575 0.64100003 12821607
-0.11276191 0.074971437 0.64000005 15453327
-0.11119429 0.074737139 0.63800001 15914774
-0.10997905 0.074737139 0.63800001 15585809
-0.10910477 0.074971437 0.64000005 15849751
-0.10754857 0.074737139 0.63800001 16244509
-0.10633333 0.074737139 0.63800001 16181762
-0.1051181 0.074737139 0.63800001 16379141
-0.10390285 0.074737139 0.63800001 16048425
-0.10268762 0.074737139 0.63800001 15851046
-0.10147239 0.074737139 0.63800001 15916544
-0.10025714 0.074737139 0.63800001 16775951
-0.09935239 0.074971437 0.64000005 16244430
-0.09813334 0.074971437 0.64000005 13415331
-0.096914291 0.074971437 0.64000005 14200032
-0.095695242 0.074971437 0.64000005 15844857
-0.094476193 0.074971437 0.64000005 15519455
-0.093257144 0.074971437 0.64000005 15453662
-0.092038102 0.074971437 0.64000005 15053551
-0.090819053 0.074971437 0.64000005 16237823
-0.089600012 0.074971437 0.64000005 16107263
-0.088380955 0.074971437 0.64000005 16567807
-0.087161906 0.074971437 0.64000005 16437759
-0.085942864 0.074971437 0.64000005 16503551
-0.084459044 0.074737139 0.63800001 16170495
-0.08324381 0.074737139 0.63800001 15512567
-0.081642859 0.074385718 0.63500005 14194653
-0.07992667 0.07391715 0.63100004 8997006
-0.078600004 0.073800005 0.63000005 9773866
-0.077154286 0.073565714 0.62800002 10958140
-0.075958095 0.073565714 0.62800002 11745864
-0.074642867 0.073448576 0.62700003 12666966
-0.073214285 0.073214285 0.625 12667435
-0.072023809 0.073214285 0.625 13062193
-0.070833333 0.073214285 0.625 13389870
-0.069642857 0.073214285 0.625 13192491
-0.068452381 0.073214285 0.625 13980958
-0.067261904 0.073214285 0.625 14309923
-0.066071428 0.073214285 0.625 14044698
-0.064777143 0.07309714 0.62400001 13649940
-0.063588567 0.07309714 0.62400001 13716253
-0.062400002 0.07309714 0.62400001 13782046
-0.06121143 0.07309714 0.62400001 13783320
-0.060119048 0.073214285 0.625 13849113
-0.058928572 0.073214285 0.625 13587968
-0.057645712 0.07309714 0.62400001 13785344
-0.056457143 0.07309714 0.62400001 13652790
-0.055268571 0.07309714 0.62400001 13718583
-0.05442667 0.073565714 0.62800002 13390917
-0.053400002 0.073800005 0.63000005 11417127
-0.052282859 0.07391715 0.63100004 11805446
-0.051485714 0.074502863 0.63600004 16741977
-0.050274286 0.074502863 0.63600004 15767716
-0.049139999 0.074620001 0.63700002 16359853
-0.047926668 0.074620001 0.63700002 15901107
-0.046713337 0.074620001 0.63700002 15374763
-0.045571432 0.074737139 0.63800001 15500478
-0.044286668 0.074620001 0.63700002 15105720
-0.043073334 0.074620001 0.63700002 15367849
-0.041860003 0.074620001 0.63700002 15433642
-0.040646669 0.074620001 0.63700002 15301536
-0.039433334 0.074620001 0.63700002 14972571
-0.038279999 0.074737139 0.63800001 14839931
-0.037006669 0.074620001 0.63700002 14839931
-0.035793334 0.074620001 0.63700002 14642039
-0.03458 0.074620001 0.63700002 14707832
-0.033366665 0.074620001 0.63700002 13592715
-0.032153334 0.074620001 0.63700002 12868992
-0.03094 0.074620001 0.63700002 12675414
-0.029726667 0.074620001 0.63700002 13004379
-0.028513335 0.074620001 0.63700002 13265991
-0.0273 0.074620001 0.63700002 12805440
-0.02612762 0.074737139 0.63800001 13196116
-0.024912382 0.074737139 0.63800001 13459288
-0.023697143 0.074737139 0.63800001 13461108
-0.022446666 0.074620001 0.63700002 13526901
-0.021233333 0.074620001 0.63700002 13265759
-0.020019999 0.074620001 0.63700002 13397345
-0.018806668 0.074620001 0.63700002 13135730
-0.017593335 0.074620001 0.63700002 11359319
-0.1176381 0.076190479 0.64000005 11247005
-0.11641905 0.076190479 0.64000005 11443871
-0.11520001 0.076190479 0.64000005 10917527
-0.11398096 0.076190479 0.64000005 13280866
-0.11240952 0.075952381 0.63800001 15057277
-0.11119429 0.075952381 0.63800001 14860597
-0.10997905 0.075952381 0.63800001 15452734
-0.10876381 0.075952381 0.63800001 15454743
-0.10754857 0.075952381 0.63800001 16178466
-0.10633333 0.075952381 0.63800001 16179225
-0.1051181 0.075952381 0.63800001 16310811
-0.10390285 0.075952381 0.63800001 16179262
-0.10268762 0.075952381 0.63800001 15981883
-0.10147239 0.075952381 0.63800001 15587328
-0.10025714 0.075952381 0.63800001 16774423
-0.099041909 0.075952381 0.63800001 16312026
-0.097826667 0.075952381 0.63800001 13614513
-0.096611425 0.075952381 0.63800001 14330061
-0.095396191 0.075952381 0.63800001 14330061
-0.094180949 0.075952381 0.63800001 14859706
-0.092965715 0.075952381 0.63800001 14991292
-0.09175048 0.075952381 0.63800001 14264516
-0.090535238 0.075952381 0.63800001 14198723
-0.089320004 0.075952381 0.63800001 14393048
-0.088104762 0.075952381 0.63800001 16037873
-0.087161906 0.076190479 0.64000005 16043239
-0.085674286 0.075952381 0.63800001 16306411
-0.084459044 0.075952381 0.63800001 15778277
-0.082982861 0.07571429 0.63600004 15646691
-0.081642859 0.075595245 0.63500005 14530007
-0.080053337 0.075238094 0.63200003 10977185
-0.078600004 0.075000003 0.63000005 10374482
-0.077277139 0.07488095 0.62900001 9979724
-0.076079048 0.07488095 0.62900001 11155491
-0.074761905 0.074761905 0.62800002 11945007
-0.073448576 0.074642867 0.62700003 12408358
