# .PCD v0.7 - Point Cloud Data file format
VERSION 0.7
FIELDS x y z rgba
SIZE 4 4 4 4
TYPE F F F U
COUNT 1 1 1 1
WIDTH 1085
HEIGHT 1
VIEWPOINT 0 0 0 1 0 0 0
POINTS 1085
DATA ascii
-0.046594288 0.062700957 0.60400003 16514043
-0.045744762 0.063116193 0.60800004 16514043
-0.044733334 0.063323803 0.61000001 16514043
-0.043642856 0.06342762 0.611 16579836
-0.042548575 0.063531436 0.61200005 16711422
-0.041450478 0.063635238 0.61300004 16711422
-0.040282857 0.063635238 0.61300004 10790052
-0.096541911 0.06416858 0.60700005 9211772
-0.095385723 0.06416858 0.60700005 12830387
-0.094229534 0.06416858 0.60700005 13225940
-0.092613332 0.063851431 0.60400003 14936558
-0.091311432 0.063745722 0.60300004 15593972
-0.090162858 0.063745722 0.60300004 16449279
-0.088866673 0.063640006 0.60200006 16711422
-0.08742857 0.063428573 0.60000002 16579836
-0.086141907 0.063322864 0.59900004 16514043
-0.084859051 0.063217148 0.59800005 16514043
-0.083439998 0.063005716 0.59600002 16514043
-0.082304768 0.063005716 0.59600002 16514043
-0.081033342 0.062900007 0.59500003 16514043
-0.079900004 0.062900007 0.59500003 16514043
-0.078634292 0.06279429 0.59400004 16514043
-0.077502862 0.06279429 0.59400004 16514043
-0.076371431 0.06279429 0.59400004 16514043
-0.075240009 0.06279429 0.59400004 16514043
-0.074108571 0.06279429 0.59400004 16514043
-0.072977148 0.06279429 0.59400004 16514043
-0.071724765 0.062688574 0.59300005 16514043
-0.070595242 0.062688574 0.59300005 16514043
-0.069582857 0.06279429 0.59400004 16514043
-0.068451434 0.06279429 0.59400004 16514043
-0.067320004 0.06279429 0.59400004 16514043
-0.066300005 0.062900007 0.59500003 16514043
-0.065276191 0.063005716 0.59600002 16514043
-0.064140953 0.063005716 0.59600002 16514043
-0.063005716 0.063005716 0.59600002 16514043
-0.061870478 0.063005716 0.59600002 16514043
-0.060735241 0.063005716 0.59600002 16514043
-0.059700001 0.063111424 0.597 16514043
-0.058660958 0.063217148 0.59800005 16514043
-0.057521909 0.063217148 0.59800005 16514043
-0.056382861 0.063217148 0.59800005 16514043
-0.055336196 0.063322864 0.59900004 16514043
-0.05419524 0.063322864 0.59900004 16514043
-0.053142861 0.063428573 0.60000002 16514043
-0.052173339 0.063640006 0.60200006 16514043
-0.051026672 0.063640006 0.60200006 16514043
-0.04996286 0.063745722 0.60300004 16514043
-0.048814289 0.063745722 0.60300004 16514043
-0.047744766 0.063851431 0.60400003 16514043
-0.046748575 0.064062856 0.60600001 16514043
-0.045744762 0.064274289 0.60800004 16514043
-0.044733334 0.064485714 0.61000001 16514043
-0.043714289 0.064697146 0.61200005 16579836
-0.0426181 0.064802863 0.61300004 16711422
-0.041450478 0.064802863 0.61300004 16711422
-0.040282857 0.064802863 0.61300004 10855845
-0.039179049 0.064908572 0.61400002 8948348
-0.095385723 0.065324761 0.60700005 12501424
-0.094074287 0.065217145 0.60600001 12897234
-0.092919998 0.065217145 0.60600001 14739438
-0.091311432 0.064894289 0.60300004 15593974
-0.090162858 0.064894289 0.60300004 16449279
-0.088866673 0.064786673 0.60200006 16711422
-0.08742857 0.064571433 0.60000002 16579836
-0.086141907 0.064463809 0.59900004 16514043
-0.084859051 0.064356193 0.59800005 16514043
-0.083580002 0.064248569 0.597 16514043
-0.082304768 0.064140953 0.59600002 16514043
-0.081033342 0.064033337 0.59500003 16514043
-0.079900004 0.064033337 0.59500003 16514043
-0.078634292 0.063925713 0.59400004 16514043
-0.077502862 0.063925713 0.59400004 16514043
-0.076371431 0.063925713 0.59400004 16514043
-0.075240009 0.063925713 0.59400004 16514043
-0.074108571 0.063925713 0.59400004 16514043
-0.072977148 0.063925713 0.59400004 16514043
-0.071845718 0.063925713 0.59400004 16514043
-0.070714295 0.063925713 0.59400004 16514043
-0.069582857 0.063925713 0.59400004 16514043
-0.068451434 0.063925713 0.59400004 16514043
-0.067320004 0.063925713 0.59400004 16514043
-0.066300005 0.064033337 0.59500003 16514043
-0.065276191 0.064140953 0.59600002 16514043
-0.064140953 0.064140953 0.59600002 16514043
-0.063005716 0.064140953 0.59600002 16514043
-0.061870478 0.064140953 0.59600002 16514043
-0.060837142 0.064248569 0.597 16514043
-0.059700001 0.064248569 0.597 16514043
-0.058660958 0.064356193 0.59800005 16514043
-0.057521909 0.064356193 0.59800005 16514043
-0.056382861 0.064356193 0.59800005 16514043
-0.055336196 0.064463809 0.59900004 16514043
-0.05419524 0.064463809 0.59900004 16514043
-0.053142861 0.064571433 0.60000002 16514043
-0.052173339 0.064786673 0.60200006 16514043
-0.051026672 0.064786673 0.60200006 16514043
-0.04996286 0.064894289 0.60300004 16514043
-0.048814289 0.064894289 0.60300004 16514043
-0.047744766 0.065001912 0.60400003 16514043
-0.046748575 0.065217145 0.60600001 16514043
-0.045744762 0.065432385 0.60800004 16514043
-0.044733334 0.065647617 0.61000001 16579836
-0.043714289 0.065862864 0.61200005 16579836
-0.0426181 0.06597048 0.61300004 16711422
-0.041450478 0.06597048 0.61300004 16711422
-0.040348571 0.066078097 0.61400002 10855845
-0.039179049 0.066078097 0.61400002 9080440
-0.097019047 0.066809528 0.61000001 9145727
-0.095385723 0.066480957 0.60700005 12172205
-0.094074287 0.066371433 0.60600001 12831182
-0.092919998 0.066371433 0.60600001 14739179
-0.091311432 0.066042863 0.60300004 15462388
-0.090162858 0.066042863 0.60300004 16449279
-0.088866673 0.065933339 0.60200006 16711422
-0.08742857 0.065714285 0.60000002 16579836
-0.086141907 0.065604761 0.59900004 16514043
-0.084859051 0.065495245 0.59800005 16514043
-0.083580002 0.065385714 0.597 16514043
-0.082304768 0.065276191 0.59600002 16514043
-0.081033342 0.065166667 0.59500003 16514043
-0.079900004 0.065166667 0.59500003 16514043
-0.078766666 0.065166667 0.59500003 16514043
-0.077633336 0.065166667 0.59500003 16514043
-0.076500006 0.065166667 0.59500003 16514043
-0.075240009 0.065057144 0.59400004 16514043
-0.074108571 0.065057144 0.59400004 16514043
-0.072977148 0.065057144 0.59400004 16514043
-0.071845718 0.065057144 0.59400004 16514043
-0.070714295 0.065057144 0.59400004 16514043
-0.069582857 0.065057144 0.59400004 16514043
-0.068451434 0.065057144 0.59400004 16514043
-0.067320004 0.065057144 0.59400004 16514043
-0.066300005 0.065166667 0.59500003 16514043
-0.065276191 0.065276191 0.59600002 16514043
-0.064140953 0.065276191 0.59600002 16514043
-0.063005716 0.065276191 0.59600002 16514043
-0.061870478 0.065276191 0.59600002 16514043
-0.060837142 0.065385714 0.597 16514043
-0.059800003 0.065495245 0.59800005 16514043
-0.058759049 0.065604761 0.59900004 16514043
-0.0576181 0.065604761 0.59900004 16514043
-0.056477144 0.065604761 0.59900004 16514043
-0.055428572 0.065714285 0.60000002 16514043
-0.054285716 0.065714285 0.60000002 16514043
-0.053142861 0.065714285 0.60000002 16514043
-0.052086666 0.065823808 0.60100001 16514043
-0.051026672 0.065933339 0.60200006 16514043
-0.04996286 0.066042863 0.60300004 16514043
-0.04889524 0.066152386 0.60400003 16514043
-0.047744766 0.066152386 0.60400003 16514043
-0.046748575 0.066371433 0.60600001 16514043
-0.045744762 0.066590481 0.60800004 16514043
-0.044660002 0.066700004 0.60900003 16579836
-0.043714289 0.067028575 0.61200005 16711422
-0.0426181 0.067138098 0.61300004 16711422
-0.041518096 0.067247622 0.61400002 16711422
-0.040348571 0.067247622 0.61400002 11053224
-0.098180957 0.067971431 0.61000001 9801601
-0.096859999 0.067860007 0.60900003 9145722
-0.095542863 0.067748569 0.60800004 12172200
-0.094384767 0.067748569 0.60800004 12765391
-0.093073338 0.067637146 0.60700005 14607595
-0.091765717 0.067525715 0.60600001 15265009
-0.090312384 0.06730286 0.60400003 16251903
-0.088866673 0.067080006 0.60200006 16711422
-0.08742857 0.066857144 0.60000002 16645629
-0.086141907 0.066745721 0.59900004 16514043
-0.084859051 0.06663429 0.59800005 16514043
-0.083580002 0.066522859 0.597 16514043
-0.082304768 0.066411428 0.59600002 16514043
-0.081169531 0.066411428 0.59600002 16514043
-0.079900004 0.066300005 0.59500003 16514043
-0.078766666 0.066300005 0.59500003 16514043
-0.077633336 0.066300005 0.59500003 16514043
-0.076500006 0.066300005 0.59500003 16514043
-0.075366668 0.066300005 0.59500003 16514043
-0.074108571 0.066188574 0.59400004 16514043
-0.072977148 0.066188574 0.59400004 16514043
-0.071845718 0.066188574 0.59400004 16514043
-0.070714295 0.066188574 0.59400004 16514043
-0.069582857 0.066188574 0.59400004 16514043
-0.068451434 0.066188574 0.59400004 16514043
-0.067320004 0.066188574 0.59400004 16514043
-0.066411428 0.066411428 0.59600002 16514043
-0.065276191 0.066411428 0.59600002 16514043
-0.064140953 0.066411428 0.59600002 16514043
-0.063005716 0.066411428 0.59600002 16514043
-0.061974283 0.066522859 0.597 16514043
-0.060837142 0.066522859 0.597 16514043
-0.059800003 0.06663429 0.59800005 16514043
-0.058759049 0.066745721 0.59900004 16514043
-0.0576181 0.066745721 0.59900004 16514043
-0.056477144 0.066745721 0.59900004 16514043
-0.055428572 0.066857144 0.60000002 16514043
-0.054285716 0.066857144 0.60000002 16514043
-0.053142861 0.066857144 0.60000002 16514043
-0.052000001 0.066857144 0.60000002 16514043
-0.051026672 0.067080006 0.60200006 16514043
-0.04996286 0.067191429 0.60300004 16514043
-0.04889524 0.06730286 0.60400003 16514043
-0.047744766 0.06730286 0.60400003 16514043
-0.046748575 0.067525715 0.60600001 16514043
-0.045744762 0.067748569 0.60800004 16514043
-0.044660002 0.067860007 0.60900003 16645629
-0.043714289 0.068194285 0.61200005 16711422
-0.0426181 0.068305716 0.61300004 16711422
-0.041518096 0.068417147 0.61400002 16711422
-0.040348571 0.068417147 0.61400002 10461087
-0.098180957 0.069133334 0.61000001 9867140
-0.096859999 0.069020003 0.60900003 9539454
-0.095542863 0.068906672 0.60800004 12368553
-0.094384767 0.068906672 0.60800004 12961743
-0.093226671 0.068906672 0.60800004 14606568
-0.09191715 0.068793342 0.60700005 15133169
-0.090611428 0.068679996 0.60600001 16185855
-0.088866673 0.068226673 0.60200006 16711422
-0.08742857 0.068000004 0.60000002 16645629
-0.086141907 0.067886673 0.59900004 16514043
-0.084859051 0.067773335 0.59800005 16514043
-0.083720006 0.067773335 0.59800005 16514043
-0.082442857 0.067659996 0.597 16514043
-0.081169531 0.067546666 0.59600002 16514043
-0.080034286 0.067546666 0.59600002 16514043
-0.078766666 0.067433335 0.59500003 16514043
-0.077633336 0.067433335 0.59500003 16514043
-0.076500006 0.067433335 0.59500003 16514043
-0.075366668 0.067433335 0.59500003 16514043
-0.074108571 0.067320004 0.59400004 16514043
-0.072977148 0.067320004 0.59400004 16514043
-0.071845718 0.067320004 0.59400004 16514043
-0.070714295 0.067320004 0.59400004 16514043
-0.069582857 0.067320004 0.59400004 16514043
-0.068451434 0.067320004 0.59400004 16514043
-0.067320004 0.067320004 0.59400004 16514043
-0.066411428 0.067546666 0.59600002 16514043
-0.065276191 0.067546666 0.59600002 16514043
-0.064140953 0.067546666 0.59600002 16514043
-0.063005716 0.067546666 0.59600002 16514043
-0.061974283 0.067659996 0.597 16514043
-0.060837142 0.067659996 0.597 16514043
-0.059800003 0.067773335 0.59800005 16514043
-0.058759049 0.067886673 0.59900004 16514043
-0.0576181 0.067886673 0.59900004 16514043
-0.056477144 0.067886673 0.59900004 16514043
-0.055428572 0.068000004 0.60000002 16514043
-0.054285716 0.068000004 0.60000002 16514043
-0.053142861 0.068000004 0.60000002 16514043
-0.052000001 0.068000004 0.60000002 16514043
-0.051026672 0.068226673 0.60200006 16514043
-0.04996286 0.068340003 0.60300004 16514043
-0.04889524 0.068453342 0.60400003 16514043
-0.047902856 0.068679996 0.60600001 16514043
-0.046825718 0.068793342 0.60700005 16514043
-0.045744762 0.068906672 0.60800004 16579836
-0.044660002 0.069020003 0.60900003 16711422
-0.043714289 0.069360003 0.61200005 16711422
-0.0426181 0.069473341 0.61300004 16316664
-0.041518096 0.069586664 0.61400002 15133364
-0.098180957 0.070295244 0.61000001 9933187
-0.097019047 0.070295244 0.61000001 9998721
-0.095857143 0.070295244 0.61000001 12235683
-0.094540007 0.070179999 0.60900003 12698567
-0.093226671 0.070064768 0.60800004 14474978
-0.092068575 0.070064768 0.60800004 15133169
-0.090611428 0.069834292 0.60600001 16185855
-0.088866673 0.069373339 0.60200006 16579836
-0.08742857 0.069142863 0.60000002 16645629
-0.086141907 0.069027625 0.59900004 16514043
-0.084859051 0.068912387 0.59800005 16514043
-0.083720006 0.068912387 0.59800005 16514043
-0.082442857 0.068797141 0.597 16514043
-0.081169531 0.068681911 0.59600002 16514043
-0.080034286 0.068681911 0.59600002 16514043
-0.078766666 0.068566665 0.59500003 16514043
-0.077633336 0.068566665 0.59500003 16514043
-0.076500006 0.068566665 0.59500003 16514043
-0.075366668 0.068566665 0.59500003 16514043
-0.074108571 0.068451434 0.59400004 16514043
-0.072977148 0.068451434 0.59400004 16514043
-0.071845718 0.068451434 0.59400004 16514043
-0.070714295 0.068451434 0.59400004 16514043
-0.069582857 0.068451434 0.59400004 16514043
-0.068566665 0.068566665 0.59500003 16514043
-0.067433335 0.068566665 0.59500003 16514043
-0.066411428 0.068681911 0.59600002 16514043
-0.065276191 0.068681911 0.59600002 16514043
-0.064140953 0.068681911 0.59600002 16514043
-0.063005716 0.068681911 0.59600002 16514043
-0.061974283 0.068797141 0.597 16514043
-0.060939051 0.068912387 0.59800005 16514043
-0.059800003 0.068912387 0.59800005 16514043
-0.058759049 0.069027625 0.59900004 16514043
-0.0576181 0.069027625 0.59900004 16514043
-0.056477144 0.069027625 0.59900004 16514043
-0.055428572 0.069142863 0.60000002 16514043
-0.054285716 0.069142863 0.60000002 16514043
-0.053142861 0.069142863 0.60000002 16514043
-0.052086666 0.069258094 0.60100001 16514043
-0.051026672 0.069373339 0.60200006 16514043
-0.04996286 0.069488578 0.60300004 16514043
-0.04889524 0.069603816 0.60400003 16514043
-0.047902856 0.069834292 0.60600001 16514043
-0.046825718 0.06994953 0.60700005 16579836
-0.045744762 0.070064768 0.60800004 16711422
-0.044660002 0.070179999 0.60900003 16711422
-0.043642856 0.070410475 0.611 16711422
-0.042687621 0.070756197 0.61400002 13948116
-0.041518096 0.070756197 0.61400002 10070117
-0.098180957 0.07145714 0.61000001 10130566
-0.097019047 0.07145714 0.61000001 9933437
-0.095700003 0.071340002 0.60900003 11117711
-0.094540007 0.071340002 0.60900003 12302771
-0.093226671 0.071222864 0.60800004 15197663
-0.09191715 0.071105719 0.60700005 15790322
-0.090611428 0.070988573 0.60600001 16645631
-0.089014292 0.070637152 0.60300004 16711422
-0.087574288 0.070402861 0.60100001 16711422
-0.086285718 0.070285715 0.60000002 16514043
-0.084859051 0.070051439 0.59800005 16514043
-0.083720006 0.070051439 0.59800005 16514043
-0.082580961 0.070051439 0.59800005 16514043
-0.081305712 0.069934286 0.597 16514043
-0.080034286 0.069817141 0.59600002 16514043
-0.078899048 0.069817141 0.59600002 16514043
-0.077633336 0.069700003 0.59500003 16514043
-0.076500006 0.069700003 0.59500003 16514043
-0.075366668 0.069700003 0.59500003 16514043
-0.074233338 0.069700003 0.59500003 16514043
-0.073100001 0.069700003 0.59500003 16514043
-0.07196667 0.069700003 0.59500003 16514043
-0.070833333 0.069700003 0.59500003 16514043
-0.069700003 0.069700003 0.59500003 16514043
-0.068566665 0.069700003 0.59500003 16514043
-0.067433335 0.069700003 0.59500003 16514043
-0.066411428 0.069817141 0.59600002 16514043
-0.065276191 0.069817141 0.59600002 16514043
-0.064140953 0.069817141 0.59600002 16514043
-0.063005716 0.069817141 0.59600002 16514043
-0.061974283 0.069934286 0.597 16514043
-0.060939051 0.070051439 0.59800005 16514043
-0.059800003 0.070051439 0.59800005 16514043
-0.058759049 0.07016857 0.59900004 16514043
-0.0576181 0.07016857 0.59900004 16514043
-0.056477144 0.07016857 0.59900004 16514043
-0.055428572 0.070285715 0.60000002 16514043
-0.054285716 0.070285715 0.60000002 16514043
-0.053142861 0.070285715 0.60000002 16514043
-0.052086666 0.070402861 0.60100001 16514043
-0.051026672 0.070520006 0.60200006 16514043
-0.04996286 0.070637152 0.60300004 16514043
-0.04889524 0.07075429 0.60400003 16579836
-0.047902856 0.070988573 0.60600001 16711422
-0.046902861 0.071222864 0.60800004 16711422
-0.045744762 0.071222864 0.60800004 16711422
-0.044660002 0.071340002 0.60900003 16711422
-0.043642856 0.071574286 0.611 14079202
-0.095700003 0.072499998 0.60900003 10460558
-0.094540007 0.072499998 0.60900003 11250543
-0.093073338 0.072261915 0.60700005 14474400
-0.09191715 0.072261915 0.60700005 15461094
-0.090312384 0.071904771 0.60400003 16645368
-0.089014292 0.071785718 0.60300004 16711422
-0.087720007 0.071666673 0.60200006 16711422
-0.086285718 0.071428567 0.60000002 16645629
-0.085000955 0.071309529 0.59900004 16514043
-0.083720006 0.071190484 0.59800005 16514043
-0.082580961 0.071190484 0.59800005 16514043
-0.081305712 0.071071431 0.597 16514043
-0.080168575 0.071071431 0.597 16514043
-0.07903143 0.071071431 0.597 16514043
-0.077894285 0.071071431 0.597 16514043
-0.076885715 0.071190484 0.59800005 16514043
-0.075620003 0.071071431 0.597 16514043
-0.074482858 0.071071431 0.597 16514043
-0.073100001 0.070833333 0.59500003 16514043
-0.07196667 0.070833333 0.59500003 16514043
-0.070952378 0.070952378 0.59600002 16514043
-0.069817141 0.070952378 0.59600002 16514043
-0.068566665 0.070833333 0.59500003 16514043
-0.067433335 0.070833333 0.59500003 16514043
-0.066522859 0.071071431 0.597 16514043
-0.065385714 0.071071431 0.597 16514043
-0.064248569 0.071071431 0.597 16514043
-0.063111424 0.071071431 0.597 16514043
-0.061974283 0.071071431 0.597 16514043
-0.060939051 0.071190484 0.59800005 16514043
-0.059900004 0.071309529 0.59900004 16514043
-0.058759049 0.071309529 0.59900004 16514043
-0.0576181 0.071309529 0.59900004 16514043
-0.056571428 0.071428567 0.60000002 16514043
-0.055428572 0.071428567 0.60000002 16514043
-0.054285716 0.071428567 0.60000002 16514043
-0.053142861 0.071428567 0.60000002 16514043
-0.052173339 0.071666673 0.60200006 16514043
-0.051026672 0.071666673 0.60200006 16579836
-0.050045718 0.071904771 0.60400003 16711422
-0.04889524 0.071904771 0.60400003 16711422
-0.047902856 0.072142854 0.60600001 16711422
-0.046902861 0.07238096 0.60800004 16711422
-0.045744762 0.07238096 0.60800004 16711422
-0.044660002 0.072499998 0.60900003 15000804
-0.095700003 0.073660001 0.60900003 6972761
-0.094540007 0.073660001 0.60900003 7961600
-0.093073338 0.073418096 0.60700005 10527510
-0.09191715 0.073418096 0.60700005 14143891
-0.090312384 0.073055245 0.60400003 16775868
-0.089014292 0.072934292 0.60300004 16711420
-0.087720007 0.07281334 0.60200006 16711420
-0.086429521 0.072692387 0.60100001 16711422
-0.085000955 0.072450481 0.59900004 16711422
-0.08386001 0.072450481 0.59900004 16711422
-0.082580961 0.072329529 0.59800005 16579836
-0.081441909 0.072329529 0.59800005 16514043
-0.080168575 0.072208568 0.597 16514043
-0.07903143 0.072208568 0.597 16514043
-0.077894285 0.072208568 0.597 16514043
-0.07675714 0.072208568 0.597 16514043
-0.075620003 0.072208568 0.597 16514043
-0.074482858 0.072208568 0.597 16514043
-0.073222861 0.072087623 0.59600002 16514043
-0.072087623 0.072087623 0.59600002 16514043
-0.070952378 0.072087623 0.59600002 16514043
-0.069934286 0.072208568 0.597 16514043
-0.068681911 0.072087623 0.59600002 16514043
-0.067546666 0.072087623 0.59600002 16514043
-0.066411428 0.072087623 0.59600002 16514043
-0.065276191 0.072087623 0.59600002 16514043
-0.064248569 0.072208568 0.597 16514043
-0.063217148 0.072329529 0.59800005 16514043
-0.0620781 0.072329529 0.59800005 16514043
-0.060939051 0.072329529 0.59800005 16514043
-0.059900004 0.072450481 0.59900004 16514043
-0.058759049 0.072450481 0.59900004 16514043
-0.0576181 0.072450481 0.59900004 16514043
-0.056571428 0.072571434 0.60000002 16579834
-0.055428572 0.072571434 0.60000002 16711420
-0.054285716 0.072571434 0.60000002 16711422
-0.053142861 0.072571434 0.60000002 16711422
-0.052173339 0.07281334 0.60200006 16711422
-0.051026672 0.07281334 0.60200006 16711422
-0.050045718 0.073055245 0.60400003 16711422
-0.04889524 0.073055245 0.60400003 16711422
-0.047981907 0.073418096 0.60700005 15329535
-0.046825718 0.073418096 0.60700005 11184578
-0.045744762 0.073539048 0.60800004 2891461
-0.044660002 0.073660001 0.60900003 262301
-0.095857143 0.074942857 0.61000001 6709076
-0.094540007 0.074820004 0.60900003 4339968
-0.093226671 0.074697152 0.60800004 7629609
-0.091765717 0.074451432 0.60600001 10261338
-0.090312384 0.074205711 0.60400003 15327399
-0.089014292 0.074082859 0.60300004 15658984
-0.087720007 0.073960006 0.60200006 16711672
-0.086429521 0.073837139 0.60100001 16711420
-0.085000955 0.073591433 0.59900004 16711420
-0.08386001 0.073591433 0.59900004 16711420
-0.082580961 0.073468573 0.59800005 16711420
-0.081441909 0.073468573 0.59800005 16711422
-0.080302864 0.073468573 0.59800005 16711422
-0.07903143 0.073345713 0.597 16579836
-0.077894285 0.073345713 0.597 16514043
-0.07675714 0.073345713 0.597 16514043
-0.075620003 0.073345713 0.597 16514043
-0.074482858 0.073345713 0.597 16514043
-0.073345713 0.073345713 0.597 16514043
-0.072208568 0.073345713 0.597 16514043
-0.071071431 0.073345713 0.597 16514043
-0.069934286 0.073345713 0.597 16514043
-0.068681911 0.073222861 0.59600002 16514043
-0.067546666 0.073222861 0.59600002 16514043
-0.066411428 0.073222861 0.59600002 16514043
-0.065276191 0.073222861 0.59600002 16514043
-0.064356193 0.073468573 0.59800005 16514043
-0.063217148 0.073468573 0.59800005 16514043
-0.0620781 0.073468573 0.59800005 16514043
-0.060939051 0.073468573 0.59800005 16514043
-0.059900004 0.073591433 0.59900004 16645629
-0.058759049 0.073591433 0.59900004 16711422
-0.0576181 0.073591433 0.59900004 16711422
-0.056571428 0.073714286 0.60000002 16711422
-0.055428572 0.073714286 0.60000002 16711422
-0.054285716 0.073714286 0.60000002 16711422
-0.053231429 0.073837139 0.60100001 16711422
-0.052173339 0.073960006 0.60200006 16711422
-0.05111143 0.074082859 0.60300004 16711422
-0.050045718 0.074205711 0.60400003 16711422
-0.049057145 0.074451432 0.60600001 15790320
-0.047981907 0.074574292 0.60700005 9355483
-0.046825718 0.074574292 0.60700005 3763078
-0.045744762 0.074697152 0.60800004 198160
-0.044660002 0.074820004 0.60900003 856090
-0.09469524 0.076104768 0.61000001 4271648
-0.093226671 0.07585524 0.60800004 1114112
-0.091462858 0.075356193 0.60400003 2623488
-0.090312384 0.075356193 0.60400003 4334102
-0.089014292 0.075231433 0.60300004 6438726
-0.087720007 0.075106673 0.60200006 11965338
-0.086429521 0.074981906 0.60100001 13418398
-0.085142858 0.074857146 0.60000002 15655360
-0.08386001 0.074732378 0.59900004 16646101
-0.08271905 0.074732378 0.59900004 16777176
-0.081441909 0.074607626 0.59800005 16711422
-0.080302864 0.074607626 0.59800005 16711422
-0.07916382 0.074607626 0.59800005 16711422
-0.078024767 0.074607626 0.59800005 16711422
-0.07675714 0.074482858 0.597 16711422
-0.075620003 0.074482858 0.597 16711422
-0.074482858 0.074482858 0.597 16711422
-0.073345713 0.074482858 0.597 16711422
-0.072208568 0.074482858 0.597 16711422
-0.071071431 0.074482858 0.597 16711422
-0.069934286 0.074482858 0.597 16711422
-0.068797141 0.074482858 0.597 16711422
-0.067659996 0.074482858 0.597 16711422
-0.066522859 0.074482858 0.597 16711422
-0.065385714 0.074482858 0.597 16711422
-0.064356193 0.074607626 0.59800005 16711422
-0.063217148 0.074607626 0.59800005 16711422
-0.0620781 0.074607626 0.59800005 16711422
-0.060939051 0.074607626 0.59800005 16711422
-0.059800003 0.074607626 0.59800005 16711422
-0.058759049 0.074732378 0.59900004 16711422
-0.0576181 0.074732378 0.59900004 16711422
-0.056571428 0.074857146 0.60000002 16711422
-0.055428572 0.074857146 0.60000002 16053492
-0.054285716 0.074857146 0.60000002 13881340
-0.053231429 0.074981906 0.60100001 11973343
-0.052173339 0.075106673 0.60200006 4927712
-0.05111143 0.075231433 0.60300004 3019715
-0.050045718 0.075356193 0.60400003 200216
-0.04889524 0.075356193 0.60400003 2837
-0.047902856 0.075605713 0.60600001 206340
-0.046825718 0.07573048 0.60700005 1127442
-0.045744762 0.07585524 0.60800004 3684390
-0.091462858 0.076506667 0.60400003 1376768
-0.090312384 0.076506667 0.60400003 1771523
-0.089014292 0.076380007 0.60300004 3277824
-0.087720007 0.07625334 0.60200006 4659474
-0.086429521 0.076126665 0.60100001 9856816
-0.085142858 0.076000005 0.60000002 13014880
-0.08386001 0.075873338 0.59900004 13023916
-0.08271905 0.075873338 0.59900004 15195085
-0.081441909 0.07574667 0.59800005 15066338
-0.080302864 0.07574667 0.59800005 16645370
-0.07916382 0.07574667 0.59800005 16711422
-0.078024767 0.07574667 0.59800005 16711422
-0.07675714 0.075620003 0.597 16711422
-0.075620003 0.075620003 0.597 16711422
-0.074607626 0.07574667 0.59800005 16711422
-0.073345713 0.075620003 0.597 16711422
-0.072087623 0.075493336 0.59600002 16711422
-0.070952378 0.075493336 0.59600002 16711422
-0.069934286 0.075620003 0.597 16711422
-0.068797141 0.075620003 0.597 16711422
-0.067659996 0.075620003 0.597 16711422
-0.066522859 0.075620003 0.597 16711422
-0.065385714 0.075620003 0.597 16711422
-0.064356193 0.07574667 0.59800005 16711422
-0.063217148 0.07574667 0.59800005 16711422
-0.0620781 0.07574667 0.59800005 16711422
-0.060939051 0.07574667 0.59800005 16711422
-0.059800003 0.07574667 0.59800005 16711422
-0.058759049 0.075873338 0.59900004 16317434
-0.0576181 0.075873338 0.59900004 15462125
-0.056571428 0.076000005 0.60000002 14344171
-0.055428572 0.076000005 0.60000002 13094104
-0.054285716 0.076000005 0.60000002 6853559
-0.053320002 0.07625334 0.60200006 2116463
-0.052260004 0.076380007 0.60300004 262204
-0.05111143 0.076380007 0.60300004 196667
-0.050045718 0.076506667 0.60400003 983296
-0.04889524 0.076506667 0.60400003 2233360
-0.047902856 0.076760001 0.60600001 5653033
-0.046825718 0.076886676 0.60700005 5653033
-0.045669526 0.076886676 0.60700005 5785902
-0.090312384 0.077657141 0.60400003 4860425
-0.089014292 0.077528574 0.60300004 5317120
-0.087865725 0.077528574 0.60300004 4593408
-0.086429521 0.077271432 0.60100001 4195840
-0.085142858 0.077142857 0.60000002 3801088
-0.084000006 0.077142857 0.60000002 2294528
-0.08271905 0.07701429 0.59900004 1835008
-0.081578098 0.07701429 0.59900004 1376768
-0.080302864 0.076885715 0.59800005 1968902
-0.07916382 0.076885715 0.59800005 4599047
-0.078024767 0.076885715 0.59800005 6243872
-0.07675714 0.07675714 0.597 6904406
-0.075620003 0.07675714 0.597 8022887
-0.074607626 0.076885715 0.59800005 9076347
-0.073345713 0.07675714 0.597 9997449
-0.072087623 0.076628573 0.59600002 10261141
-0.070952378 0.076628573 0.59600002 10326934
-0.069934286 0.07675714 0.597 9211792
-0.068797141 0.07675714 0.597 8685448
-0.067773335 0.076885715 0.59800005 7108238
-0.066522859 0.07675714 0.597 5792378
-0.065385714 0.07675714 0.597 4342648
-0.064463809 0.07701429 0.59900004 1776721
-0.063322864 0.07701429 0.59900004 65617
-0.0620781 0.076885715 0.59800005 79
-0.060939051 0.076885715 0.59800005 22
-0.059800003 0.076885715 0.59800005 21
-0.058759049 0.07701429 0.59900004 1281
-0.057714287 0.077142857 0.60000002 198660
-0.056571428 0.077142857 0.60000002 1536
-0.055520952 0.077271432 0.60100001 1024
-0.054466672 0.077400006 0.60200006 513
-0.053408574 0.077528574 0.60300004 770
-0.052346669 0.077657141 0.60400003 197379
-0.051196195 0.077657141 0.60400003 1513239
-0.050045718 0.077657141 0.60400003 3744041
-0.049057145 0.077914283 0.60600001 6112589
-0.047981907 0.078042865 0.60700005 6704949
-0.046902861 0.078171432 0.60800004 6704949
-0.045744762 0.078171432 0.60800004 8671799
-0.089014292 0.078677148 0.60300004 6569489
-0.087865725 0.078677148 0.60300004 5714180
-0.086717151 0.078677148 0.60300004 4988420
-0.085142858 0.078285716 0.60000002 3606784
-0.084000006 0.078285716 0.60000002 2294784
-0.082857139 0.078285716 0.60000002 2031616
-0.081578098 0.078155242 0.59900004 1376768
-0.080437146 0.078155242 0.59900004 1245184
-0.07916382 0.078024767 0.59800005 983296
-0.078024767 0.078024767 0.59800005 1114880
-0.076885715 0.078024767 0.59800005 1376768
-0.07574667 0.078024767 0.59800005 1442560
-0.074607626 0.078024767 0.59800005 1376768
-0.073345713 0.077894285 0.597 1376768
-0.072087623 0.077763811 0.59600002 983296
-0.070952378 0.077763811 0.59600002 786432
-0.069934286 0.077894285 0.597 60
-0.068912387 0.078024767 0.59800005 657990
-0.067773335 0.078024767 0.59800005 65651
-0.06663429 0.078024767 0.59800005 459385
-0.065604761 0.078155242 0.59900004 65565
-0.064463809 0.078155242 0.59900004 131102
-0.063322864 0.078155242 0.59900004 31
-0.062181905 0.078155242 0.59900004 591912
-0.061040953 0.078155242 0.59900004 852148
-0.059900004 0.078155242 0.59900004 262315
-0.058759049 0.078155242 0.59900004 327702
-0.057714287 0.078285716 0.60000002 722460
-0.056571428 0.078285716 0.60000002 4071187
-0.055520952 0.078416191 0.60100001 2623744
-0.054466672 0.078546673 0.60200006 2754307
-0.053497147 0.078807622 0.60400003 2885893
-0.052346669 0.078807622 0.60400003 3149315
-0.051196195 0.078807622 0.60400003 3873038
-0.05021143 0.079068571 0.60600001 3610880
-0.049057145 0.079068571 0.60600001 5321496
-0.047981907 0.079199053 0.60700005 6700058
-0.046825718 0.079199053 0.60700005 7226402
-0.046346672 0.080373339 0.61600006 10241334
-0.045173336 0.080373339 0.61600006 11096643
-0.044000003 0.080373339 0.61600006 11224638
-0.042826667 0.080373339 0.61600006 9908778
-0.041788574 0.080634288 0.61800003 9445888
-0.040611431 0.080634288 0.61800003 9906437
-0.08916191 0.079958096 0.60400003 5776907
-0.087865725 0.079825722 0.60300004 5908493
-0.086717151 0.079825722 0.60300004 5319964
-0.085568577 0.079825722 0.60300004 5122585
-0.084420003 0.079825722 0.60300004 4200238
-0.082857139 0.079428568 0.60000002 3805480
-0.081578098 0.079296194 0.59900004 3544082
-0.080437146 0.079296194 0.59900004 3280910
-0.079296194 0.079296194 0.59900004 2952215
-0.078155242 0.079296194 0.59900004 2425871
-0.076885715 0.07916382 0.59800005 1901576
-0.07574667 0.07916382 0.59800005 2493713
-0.074607626 0.07916382 0.59800005 3084051
-0.073345713 0.07903143 0.597 4202532
-0.072087623 0.078899048 0.59600002 4730880
-0.070952378 0.078899048 0.59600002 6967834
-0.070051439 0.07916382 0.59800005 10522771
-0.068912387 0.07916382 0.59800005 14141386
-0.067773335 0.07916382 0.59800005 13944319
-0.06663429 0.07916382 0.59800005 13089015
-0.065604761 0.079296194 0.59900004 15001308
-0.064463809 0.079296194 0.59900004 16646133
-0.063322864 0.079296194 0.59900004 16251123
-0.062181905 0.079296194 0.59900004 16514295
-0.061040953 0.079296194 0.59900004 13417471
-0.059900004 0.079296194 0.59900004 8351417
-0.058759049 0.079296194 0.59900004 4997230
-0.057714287 0.079428568 0.60000002 6049918
-0.056571428 0.079428568 0.60000002 6049354
-0.055520952 0.07956095 0.60100001 5128252
-0.054466672 0.07969334 0.60200006 5975093
-0.053497147 0.079958096 0.60400003 5843507
-0.052346669 0.079958096 0.60400003 7285797
-0.051196195 0.079958096 0.60400003 8272692
-0.05021143 0.08022286 0.60600001 9522747
-0.049057145 0.08022286 0.60600001 10114884
-0.047981907 0.080355242 0.60700005 10637369
-0.046825718 0.080355242 0.60700005 10374197
-0.046346672 0.081546672 0.61600006 11026219
-0.045173336 0.081546672 0.61600006 10697254
-0.044000003 0.081546672 0.61600006 10957603
-0.042826667 0.081546672 0.61600006 10497052
-0.041653335 0.081546672 0.61600006 9444868
-0.040611431 0.081811436 0.61800003 9971212
-0.039434288 0.081811436 0.61800003 9002824
-0.038257144 0.081811436 0.61800003 13345162
-0.089604765 0.08151143 0.60700005 6038798
-0.088302858 0.081377141 0.60600001 5709833
-0.087148577 0.081377141 0.60600001 5183748
-0.085426673 0.080840006 0.60200006 5052162
-0.084280007 0.080840006 0.60200006 3804935
-0.08313334 0.080840006 0.60200006 3607556
-0.081986673 0.080840006 0.60200006 3345924
-0.080840006 0.080840006 0.60200006 3477510
-0.079296194 0.080437146 0.59900004 3083272
-0.078155242 0.080437146 0.59900004 2556928
-0.07701429 0.080437146 0.59900004 1312512
-0.075873338 0.080437146 0.59900004 3023130
-0.074732378 0.080437146 0.59900004 4008450
-0.073468573 0.080302864 0.59800005 5061138
-0.072208568 0.080168575 0.597 6179344
-0.071071431 0.080168575 0.597 7232032
-0.070051439 0.080302864 0.59800005 12622244
-0.068912387 0.080302864 0.59800005 15911894
-0.067773335 0.080302864 0.59800005 16509950
-0.06663429 0.080302864 0.59800005 14996711
-0.065495245 0.080302864 0.59800005 15198185
-0.064463809 0.080437146 0.59900004 15395564
-0.063322864 0.080437146 0.59900004 15330532
-0.062181905 0.080437146 0.59900004 15133153
-0.061040953 0.080437146 0.59900004 10661115
-0.059900004 0.080437146 0.59900004 5200296
-0.058857147 0.080571435 0.60000002 1126990
-0.057714287 0.080571435 0.60000002 2640229
-0.056571428 0.080571435 0.60000002 3678722
-0.055520952 0.080705717 0.60100001 4270859
-0.054557145 0.080974288 0.60300004 7024410
-0.053497147 0.08110857 0.60400003 7682340
-0.052346669 0.08110857 0.60400003 9385001
-0.051196195 0.08110857 0.60400003 9911345
-0.05021143 0.081377141 0.60600001 11881796
-0.049138099 0.08151143 0.60700005 12276554
-0.048060957 0.08164572 0.60800004 12534075
-0.046980001 0.081780002 0.60900003 12402489
-0.045970477 0.082048573 0.611 11875121
-0.044953335 0.082317151 0.61300004 11546156
-0.043928571 0.082585715 0.61500001 11086888
-0.042757142 0.082585715 0.61500001 10692130
-0.041585714 0.082585715 0.61500001 9509121
-0.040611431 0.082988568 0.61800003 9706500
-0.039434288 0.082988568 0.61800003 8475188
-0.038257144 0.082988568 0.61800003 13409663
-0.090910487 0.082803816 0.60800004 8861224
-0.089604765 0.082667626 0.60700005 8861243
-0.088302858 0.082531422 0.60600001 9256001
-0.087148577 0.082531422 0.60600001 8602129
-0.085426673 0.081986673 0.60200006 7878406
-0.084280007 0.081986673 0.60200006 7747108
-0.08313334 0.081986673 0.60200006 7812901
-0.081986673 0.081986673 0.60200006 7354149
-0.080840006 0.081986673 0.60200006 7222563
-0.07956095 0.081850477 0.60100001 5706799
-0.078285716 0.081714287 0.60000002 5180455
-0.077142857 0.081714287 0.60000002 5116191
-0.076000005 0.081714287 0.60000002 6300465
-0.074732378 0.081578098 0.59900004 5844753
-0.073468573 0.081441909 0.59800005 5910546
-0.072329529 0.081441909 0.59800005 6239500
-0.071190484 0.081441909 0.59800005 5318400
-0.070051439 0.081441909 0.59800005 7085824
-0.069142863 0.081714287 0.60000002 6888448
-0.067886673 0.081578098 0.59900004 6689280
-0.066745721 0.081578098 0.59900004 5308416
-0.065604761 0.081578098 0.59900004 3802624
-0.064463809 0.081578098 0.59900004 3276800
-0.063428573 0.081714287 0.60000002 4655104
-0.062285714 0.081714287 0.60000002 4984064
-0.061142862 0.081714287 0.60000002 6559488
-0.060000002 0.081714287 0.60000002 7612172
-0.058857147 0.081714287 0.60000002 9128498
-0.057714287 0.081714287 0.60000002 9852221
-0.056760006 0.081986673 0.60200006 10770999
-0.055613339 0.081986673 0.60200006 11363136
-0.054557145 0.082122862 0.60300004 11688778
-0.053497147 0.082259052 0.60400003 11622985
-0.052346669 0.082259052 0.60400003 11880523
-0.051196195 0.082259052 0.60400003 11485765
-0.05021143 0.082531422 0.60600001 12139310
-0.049138099 0.082667626 0.60700005 11876138
-0.048060957 0.082803816 0.60800004 12202530
-0.046980001 0.082940005 0.60900003 11939358
-0.045895241 0.083076194 0.61000001 11807270
-0.044880003 0.08334858 0.61200005 11609891
-0.043857146 0.083620951 0.61400002 11151913
-0.042687621 0.083620951 0.61400002 10888741
-0.041585714 0.08375714 0.61500001 9903921
-0.040480006 0.083893336 0.61600006 9640749
-0.039434288 0.084165722 0.61800003 8210212
-0.038257144 0.084165722 0.61800003 13473652
-0.095005721 0.08451429 0.61200005 7015424
-0.093840003 0.08451429 0.61200005 8133901
-0.092220001 0.084100001 0.60900003 8987674
-0.090910487 0.083961904 0.60800004 9777190
-0.089604765 0.083823815 0.60700005 10038580
-0.088302858 0.083685718 0.60600001 10630717
-0.087148577 0.083685718 0.60600001 10107168
-0.085568577 0.083271429 0.60300004 10041375
-0.084420003 0.083271429 0.60300004 9517348
-0.08313334 0.08313334 0.60200006 9122590
-0.081986673 0.08313334 0.60200006 8728586
-0.080705717 0.082995243 0.60100001 8925965
-0.07956095 0.082995243 0.60100001 8205604
-0.078285716 0.082857139 0.60000002 8074018
-0.077142857 0.082857139 0.60000002 7812139
-0.076000005 0.082857139 0.60000002 8009518
-0.074857146 0.082857139 0.60000002 7814950
-0.073468573 0.082580961 0.59800005 7814950
-0.072329529 0.082580961 0.59800005 7487770
-0.071309529 0.08271905 0.59900004 6698254
-0.07016857 0.08271905 0.59900004 6625536
-0.069142863 0.082857139 0.60000002 5967616
-0.067886673 0.08271905 0.59900004 6359040
-0.066745721 0.08271905 0.59900004 6359040
-0.065604761 0.08271905 0.59900004 6490368
-0.064463809 0.08271905 0.59900004 6621952
-0.063322864 0.08271905 0.59900004 7473664
-0.062181905 0.08271905 0.59900004 7868416
-0.061142862 0.082857139 0.60000002 9905930
-0.060000002 0.082857139 0.60000002 11353376
-0.058955237 0.082995243 0.60100001 12472134
-0.057810474 0.082995243 0.60100001 13327443
-0.056760006 0.08313334 0.60200006 13524041
-0.055705719 0.083271429 0.60300004 13524041
-0.054557145 0.083271429 0.60300004 13586504
-0.053497147 0.083409525 0.60400003 13125953
-0.052346669 0.083409525 0.60400003 13187910
-0.051196195 0.083409525 0.60400003 12793152
-0.05021143 0.083685718 0.60600001 12660262
-0.04921905 0.083961904 0.60800004 12528676
-0.048060957 0.083961904 0.60800004 12200747
-0.046980001 0.084100001 0.60900003 12134954
-0.045895241 0.084238097 0.61000001 11806248
-0.044880003 0.08451429 0.61200005 12003627
-0.043857146 0.084790483 0.61400002 11282214
-0.042687621 0.084790483 0.61400002 11019042
-0.041585714 0.084928572 0.61500001 9970706
-0.040480006 0.085066676 0.61600006 9707534
-0.039434288 0.085342854 0.61800003 8010528
-0.038257144 0.085342854 0.61800003 13273968
-0.095005721 0.08568 0.61200005 6818560
-0.093840003 0.08568 0.61200005 7937037
-0.092220001 0.085260004 0.60900003 8657680
-0.090910487 0.085120007 0.60800004 8789266
-0.089604765 0.084980011 0.60700005 9640205
-0.088302858 0.08484 0.60600001 10034963
-0.086860955 0.084559999 0.60400003 10232335
-0.085568577 0.084420003 0.60300004 10627093
-0.084420003 0.084420003 0.60300004 10431257
-0.08313334 0.084280007 0.60200006 11220773
-0.081986673 0.084280007 0.60200006 10762779
-0.080705717 0.084140003 0.60100001 11157537
-0.07956095 0.084140003 0.60100001 11027507
-0.078285716 0.084000006 0.60000002 11290679
-0.077142857 0.084000006 0.60000002 11095108
-0.076000005 0.084000006 0.60000002 11687245
-0.074857146 0.084000006 0.60000002 11426119
-0.073714286 0.084000006 0.60000002 11426119
-0.072571434 0.084000006 0.60000002 11622476
-0.071428567 0.084000006 0.60000002 11622476
-0.070285715 0.084000006 0.60000002 11688269
-0.069142863 0.084000006 0.60000002 12017234
-0.067886673 0.08386001 0.59900004 12082505
-0.066745721 0.08386001 0.59900004 11950919
-0.065714285 0.084000006 0.60000002 12080713
-0.064463809 0.08386001 0.59900004 12146506
-0.063322864 0.08386001 0.59900004 12277065
-0.062181905 0.08386001 0.59900004 12540237
-0.061142862 0.084000006 0.60000002 12736585
-0.060000002 0.084000006 0.60000002 12802378
-0.058955237 0.084140003 0.60100001 13127225
-0.057810474 0.084140003 0.60100001 12864053
-0.056760006 0.084280007 0.60200006 13123371
-0.055613339 0.084280007 0.60200006 12925992
-0.054557145 0.084420003 0.60300004 12990256
-0.053497147 0.084559999 0.60400003 12595498
-0.052346669 0.084559999 0.60400003 12790824
-0.051450484 0.084980011 0.60700005 12659238
-0.050377145 0.085120007 0.60800004 12593186
-0.04921905 0.085120007 0.60800004 12658979
-0.048140001 0.085260004 0.60900003 12266015
-0.046980001 0.085260004 0.60900003 12134429
-0.045895241 0.085400008 0.61000001 11871271
-0.044880003 0.08568 0.61200005 11937064
-0.043714289 0.08568 0.61200005 11282214
-0.042687621 0.085960001 0.61400002 11150628
-0.041585714 0.086099997 0.61500001 10102303
-0.040480006 0.086240008 0.61600006 9839131
-0.039434288 0.086520009 0.61800003 7943706
-0.038257144 0.086520009 0.61800003 13009767
-0.096328571 0.086987622 0.61300004 3349542
-0.095005721 0.086845718 0.61200005 6818560
-0.093840003 0.086845718 0.61200005 8068621
-0.092371434 0.086561903 0.61000001 8788755
-0.091060005 0.086420007 0.60900003 9117720
-0.089752384 0.086278096 0.60800004 9706759
-0.088448577 0.0861362 0.60700005 10035724
-0.086860955 0.085710481 0.60400003 10559506
-0.085568577 0.085568577 0.60300004 11217436
-0.084420003 0.085568577 0.60300004 11347232
-0.08313334 0.085426673 0.60200006 12070955
-0.081986673 0.085426673 0.60200006 11875868
-0.080705717 0.085284762 0.60100001 12073247
-0.07956095 0.085284762 0.60100001 12401460
-0.078285716 0.085142858 0.60000002 12467253
-0.077142857 0.085142858 0.60000002 12728633
-0.076000005 0.085142858 0.60000002 13452356
-0.074732378 0.085000955 0.59900004 13126210
-0.073591433 0.085000955 0.59900004 13389382
-0.072571434 0.085142858 0.60000002 13388871
-0.071428567 0.085142858 0.60000002 13717836
-0.07016857 0.085000955 0.59900004 13717577
-0.069027625 0.085000955 0.59900004 13849163
-0.067886673 0.085000955 0.59900004 13783883
-0.066745721 0.085000955 0.59900004 13389125
-0.065714285 0.085142858 0.60000002 13715271
-0.064571433 0.085142858 0.60000002 13781064
-0.063428573 0.085142858 0.60000002 13781064
-0.062285714 0.085142858 0.60000002 14241615
-0.061142862 0.085142858 0.60000002 13914438
-0.0601 0.085284762 0.60100001 13651266
-0.058955237 0.085284762 0.60100001 13781053
-0.057810474 0.085284762 0.60100001 13452088
-0.056760006 0.085426673 0.60200006 13384494
-0.055613339 0.085426673 0.60200006 13187115
-0.054557145 0.085568577 0.60300004 13054768
-0.053497147 0.085710481 0.60400003 12857389
-0.052346669 0.085710481 0.60400003 12856110
-0.051365715 0.085994281 0.60600001 12724524
-0.050294291 0.0861362 0.60700005 12527143
-0.04921905 0.086278096 0.60800004 12592936
-0.048060957 0.086278096 0.60800004 12199722
-0.046980001 0.086420007 0.60900003 12397101
-0.045895241 0.086561903 0.61000001 11872041
-0.044880003 0.086845718 0.61200005 12003627
-0.043714289 0.086845718 0.61200005 11282214
-0.042687621 0.087129526 0.61400002 11150628
-0.041585714 0.08727143 0.61500001 10236183
-0.040480006 0.087413341 0.61600006 9183495
-0.039434288 0.087697141 0.61800003 7876105
-0.038257144 0.087697141 0.61800003 13139545
-0.096328571 0.08815524 0.61300004 3546903
-0.095005721 0.088011436 0.61200005 6753280
-0.093840003 0.088011436 0.61200005 7937548
-0.092371434 0.087723807 0.61000001 8787222
-0.091060005 0.087580003 0.60900003 9181980
-0.089604765 0.087292388 0.60700005 9705989
-0.088302858 0.087148577 0.60600001 10100747
-0.086860955 0.086860955 0.60400003 10491921
-0.085568577 0.086717151 0.60300004 10755093
-0.084420003 0.086717151 0.60300004 10951443
-0.08313334 0.08657334 0.60200006 11214615
-0.081986673 0.08657334 0.60200006 11410970
-0.080705717 0.086429521 0.60100001 11608349
-0.07956095 0.086429521 0.60100001 12002082
-0.078285716 0.086285718 0.60000002 12133668
-0.077142857 0.086285718 0.60000002 12263982
-0.076000005 0.086285718 0.60000002 12987705
-0.074732378 0.086141907 0.59900004 12662061
-0.073591433 0.086141907 0.59900004 12727854
-0.072571434 0.086285718 0.60000002 12924724
-0.071428567 0.086285718 0.60000002 13122103
-0.07016857 0.086141907 0.59900004 13122362
-0.069027625 0.086141907 0.59900004 13648706
-0.067886673 0.086141907 0.59900004 13319487
-0.066745721 0.086141907 0.59900004 12924729
-0.065714285 0.086285718 0.60000002 13251379
-0.064571433 0.086285718 0.60000002 13317172
-0.063428573 0.086285718 0.60000002 13317429
-0.062285714 0.086285718 0.60000002 13843773
-0.061142862 0.086285718 0.60000002 13451316
-0.0601 0.086429521 0.60100001 13385523
-0.058955237 0.086429521 0.60100001 13451316
-0.057810474 0.086429521 0.60100001 13253937
-0.056760006 0.08657334 0.60200006 13252660
-0.055613339 0.08657334 0.60200006 13186867
-0.054557145 0.086717151 0.60300004 13121324
-0.053497147 0.086860955 0.60400003 12792359
-0.052346669 0.086860955 0.60400003 12856110
-0.051365715 0.087148577 0.60600001 12724524
-0.050294291 0.087292388 0.60700005 12462885
-0.04921905 0.087436199 0.60800004 12331299
-0.048060957 0.087436199 0.60800004 12198700
-0.046980001 0.087580003 0.60900003 12264493
-0.045895241 0.087723807 0.61000001 11937064
-0.044880003 0.088011436 0.61200005 11937064
-0.043714289 0.088011436 0.61200005 11414822
-0.042687621 0.088299051 0.61400002 11085857
-0.041585714 0.088442855 0.61500001 10432290
-0.040480006 0.088586673 0.61600006 9840153
-0.039434288 0.088874295 0.61800003 8335893
-0.038257144 0.088874295 0.61800003 13007196
-0.037080001 0.088874295 0.61800003 11511171
-0.096328571 0.089322865 0.61300004 2956049
-0.095005721 0.089177154 0.61200005 6753280
-0.093840003 0.089177154 0.61200005 8003341
-0.092220001 0.088739999 0.60900003 8787985
-0.091060005 0.088739999 0.60900003 9051157
-0.089604765 0.088448577 0.60700005 9770501
-0.088302858 0.088302858 0.60600001 10296845
-0.086860955 0.088011429 0.60400003 10492434
-0.085568577 0.087865725 0.60300004 11150364
-0.084420003 0.087865725 0.60300004 11018517
-0.08313334 0.087720007 0.60200006 11215896
-0.081986673 0.087720007 0.60200006 11477276
-0.080705717 0.087574288 0.60100001 11806241
-0.07956095 0.087574288 0.60100001 11936546
-0.078285716 0.08742857 0.60000002 12331304
-0.077142857 0.08742857 0.60000002 12199984
-0.075873338 0.087282859 0.59900004 12857914
-0.074732378 0.087282859 0.59900004 12662829
-0.073591433 0.087282859 0.59900004 12728622
-0.072450481 0.087282859 0.59900004 12990004
-0.071309529 0.087282859 0.59900004 13121590
-0.07016857 0.087282859 0.59900004 13122612
-0.069027625 0.087282859 0.59900004 13319991
-0.067886673 0.087282859 0.59900004 13319739
-0.066745721 0.087282859 0.59900004 13056567
-0.065714285 0.08742857 0.60000002 13252660
-0.064571433 0.08742857 0.60000002 13318453
-0.063428573 0.08742857 0.60000002 13384244
-0.062285714 0.08742857 0.60000002 13581623
-0.061142862 0.08742857 0.60000002 13450807
-0.0601 0.087574288 0.60100001 13450807
-0.058955237 0.087574288 0.60100001 13385014
-0.057810474 0.087574288 0.60100001 13319221
-0.056760006 0.087720007 0.60200006 13318199
-0.055705719 0.087865725 0.60300004 13318199
-0.054557145 0.087865725 0.60300004 13121074
-0.053497147 0.088011429 0.60400003 13055281
-0.052519999 0.088302858 0.60600001 12791085
-0.051450484 0.088448577 0.60700005 12593706
-0.050294291 0.088448577 0.60700005 12594471
-0.04921905 0.088594295 0.60800004 12594471
-0.048060957 0.088594295 0.60800004 12199470
-0.046980001 0.088739999 0.60900003 12396849
-0.045895241 0.088885717 0.61000001 11937327
-0.044880003 0.089177154 0.61200005 12200499
-0.043785717 0.089322865 0.61300004 11413802
-0.042687621 0.089468569 0.61400002 11348009
-0.041585714 0.089614287 0.61500001 10364453
-0.040480006 0.089760005 0.61600006 9574937
-0.039434288 0.090051427 0.61800003 8793868
-0.038257144 0.090051427 0.61800003 13136206
-0.037080001 0.090051427 0.61800003 10918533
-0.098291434 0.091228582 0.61800003 9797490
-0.096328571 0.090490483 0.61300004 3218190
-0.095005721 0.090342864 0.61200005 6884352
-0.093840003 0.090342864 0.61200005 8068621
-0.092220001 0.089900002 0.60900003 8852238
-0.091060005 0.089900002 0.60900003 9049617
-0.089752384 0.089752384 0.60800004 9704204
-0.088448577 0.089604765 0.60700005 10098962
-0.086860955 0.08916191 0.60400003 10361616
-0.085568577 0.089014292 0.60300004 10953753
-0.084420003 0.089014292 0.60300004 11018517
-0.08313334 0.088866673 0.60200006 11084310
-0.081986673 0.088866673 0.60200006 11409443
-0.080840006 0.088866673 0.60200006 11080478
-0.07956095 0.088719048 0.60100001 11538962
-0.078285716 0.088571429 0.60000002 11802134
-0.07701429 0.088423818 0.59900004 11867939
-0.075873338 0.088423818 0.59900004 12394283
-0.074732378 0.088423818 0.59900004 12198428
-0.073591433 0.088423818 0.59900004 12132635
-0.072450481 0.088423818 0.59900004 12591139
-0.071309529 0.088423818 0.59900004 12722725
-0.07016857 0.088423818 0.59900004 12656678
-0.069027625 0.088423818 0.59900004 12854057
-0.067886673 0.088423818 0.59900004 12790054
-0.066745721 0.088423818 0.59900004 12658468
-0.065714285 0.088571429 0.60000002 12788516
-0.064571433 0.088571429 0.60000002 12854309
-0.063428573 0.088571429 0.60000002 12919843
-0.062285714 0.088571429 0.60000002 13051429
-0.061142862 0.088571429 0.60000002 13051947
