# .PCD v0.7 - Point Cloud Data file format
VERSION 0.7
FIELDS x y z rgba
SIZE 4 4 4 4
TYPE F F F U
COUNT 1 1 1 1
WIDTH 1080
HEIGHT 1
VIEWPOINT 0 0 0 1 0 0 0
POINTS 1080
DATA ascii
-0.055640001 0.056862857 0.64200002 16514043
-0.054501906 0.056951426 0.64300001 16514043
-0.053360004 0.057040006 0.64400005 16514043
-0.052133337 0.057040006 0.64400005 16514043
-0.050906669 0.057040006 0.64400005 16514043
-0.049834289 0.057217143 0.64600003 16514043
-0.048904765 0.057571433 0.65000004 16514043
-0.047886673 0.057837147 0.65300006 16514043
-0.046642862 0.057837147 0.65300006 16514043
-0.045468576 0.057925716 0.65400004 16711422
-0.044290476 0.058014289 0.65500003 16711422
-0.043042861 0.058014289 0.65500003 13158600
-0.041795239 0.058014289 0.65500003 11776175
-0.096741907 0.058538094 0.64700001 13290429
-0.095066674 0.05826667 0.64400005 13751255
-0.093840003 0.05826667 0.64400005 15330287
-0.092613339 0.05826667 0.64400005 16251130
-0.091244757 0.05817619 0.64300001 16645887
-0.089879997 0.058085714 0.64200002 16645629
-0.088380955 0.057904765 0.64000005 16514043
-0.087161906 0.057904765 0.64000005 16514043
-0.085674286 0.057723809 0.63800001 16514043
-0.084459044 0.057723809 0.63800001 16514043
-0.08324381 0.057723809 0.63800001 16514043
-0.081900001 0.057633337 0.63700002 16514043
-0.080686666 0.057633337 0.63700002 16514043
-0.079348572 0.057542857 0.63600004 16514043
-0.078137144 0.057542857 0.63600004 16514043
-0.076925717 0.057542857 0.63600004 16514043
-0.07571429 0.057542857 0.63600004 16514043
-0.074385718 0.057452384 0.63500005 16514043
-0.073176198 0.057452384 0.63500005 16514043
-0.07196667 0.057452384 0.63500005 16514043
-0.070757151 0.057452384 0.63500005 16514043
-0.069547623 0.057452384 0.63500005 16514043
-0.06844572 0.057542857 0.63600004 16514043
-0.067234285 0.057542857 0.63600004 16514043
-0.066022858 0.057542857 0.63600004 16514043
-0.064811431 0.057542857 0.63600004 16514043
-0.0638 0.057723809 0.63800001 16514043
-0.062584765 0.057723809 0.63800001 16514043
-0.061561912 0.057904765 0.64000005 16514043
-0.060342859 0.057904765 0.64000005 16514043
-0.059123814 0.057904765 0.64000005 16514043
-0.057995241 0.057995241 0.64100003 16514043
-0.056862857 0.058085714 0.64200002 16514043
-0.055640001 0.058085714 0.64200002 16514043
-0.054501906 0.05817619 0.64300001 16514043
-0.053360004 0.05826667 0.64400005 16514043
-0.052133337 0.05826667 0.64400005 16514043
-0.051064763 0.058447622 0.64600003 16514043
-0.049834289 0.058447622 0.64600003 16514043
-0.048904765 0.058809526 0.65000004 16514043
-0.047813334 0.058990479 0.65200001 16514043
-0.04657143 0.058990479 0.65200001 16645629
-0.045399051 0.059080955 0.65300006 16711422
-0.044222858 0.059171431 0.65400004 16711422
-0.043042861 0.059261907 0.65500003 12698049
-0.041795239 0.059261907 0.65500003 10130346
-0.096741907 0.05977048 0.64700001 13027248
-0.095066674 0.059493337 0.64400005 13553878
-0.093840003 0.059493337 0.64400005 15132910
-0.092469528 0.059400953 0.64300001 15987960
-0.091244757 0.059400953 0.64300001 16645887
-0.089879997 0.059308574 0.64200002 16645629
-0.088380955 0.059123814 0.64000005 16514043
-0.087161906 0.059123814 0.64000005 16514043
-0.085674286 0.058939047 0.63800001 16514043
-0.084459044 0.058939047 0.63800001 16514043
-0.08324381 0.058939047 0.63800001 16514043
-0.081900001 0.058846667 0.63700002 16514043
-0.080686666 0.058846667 0.63700002 16514043
-0.079473339 0.058846667 0.63700002 16514043
-0.078137144 0.058754291 0.63600004 16514043
-0.076925717 0.058754291 0.63600004 16514043
-0.07571429 0.058754291 0.63600004 16514043
-0.074502863 0.058754291 0.63600004 16514043
-0.073291428 0.058754291 0.63600004 16514043
-0.07196667 0.058661908 0.63500005 16514043
-0.070757151 0.058661908 0.63500005 16514043
-0.069547623 0.058661908 0.63500005 16514043
-0.068553336 0.058846667 0.63700002 16514043
-0.067340001 0.058846667 0.63700002 16514043
-0.066126674 0.058846667 0.63700002 16514043
-0.065015234 0.058939047 0.63800001 16514043
-0.0638 0.058939047 0.63800001 16514043
-0.062780954 0.059123814 0.64000005 16514043
-0.061561912 0.059123814 0.64000005 16514043
-0.060342859 0.059123814 0.64000005 16514043
-0.05921619 0.05921619 0.64100003 16514043
-0.058085714 0.059308574 0.64200002 16514043
-0.056862857 0.059308574 0.64200002 16514043
-0.055726666 0.059400953 0.64300001 16514043
-0.054501906 0.059400953 0.64300001 16514043
-0.053360004 0.059493337 0.64400005 16514043
-0.052295242 0.059678096 0.64600003 16514043
-0.051064763 0.059678096 0.64600003 16514043
-0.049911428 0.05977048 0.64700001 16514043
-0.048904765 0.060047623 0.65000004 16514043
-0.047813334 0.060232379 0.65200001 16645629
-0.04657143 0.060232379 0.65200001 16711422
-0.045399051 0.060324769 0.65300006 16711422
-0.044222858 0.060417145 0.65400004 16711422
-0.043042861 0.060509525 0.65500003 11316396
-0.096741907 0.061002858 0.64700001 13419944
-0.095066674 0.060720004 0.64400005 13815517
-0.093840003 0.060720004 0.64400005 15460342
-0.092469528 0.060625713 0.64300001 16119544
-0.091244757 0.060625713 0.64300001 16645887
-0.089879997 0.06053143 0.64200002 16711422
-0.088519052 0.060437147 0.64100003 16514043
-0.087161906 0.060342859 0.64000005 16514043
-0.085674286 0.060154289 0.63800001 16514043
-0.084459044 0.060154289 0.63800001 16514043
-0.08324381 0.060154289 0.63800001 16514043
-0.081900001 0.060060002 0.63700002 16514043
-0.080686666 0.060060002 0.63700002 16514043
-0.079473339 0.060060002 0.63700002 16514043
-0.078137144 0.059965719 0.63600004 16514043
-0.076925717 0.059965719 0.63600004 16514043
-0.075833336 0.060060002 0.63700002 16514043
-0.074502863 0.059965719 0.63600004 16514043
-0.073291428 0.059965719 0.63600004 16514043
-0.072080001 0.059965719 0.63600004 16514043
-0.070757151 0.059871431 0.63500005 16514043
-0.069547623 0.059871431 0.63500005 16514043
-0.068553336 0.060060002 0.63700002 16514043
-0.067340001 0.060060002 0.63700002 16514043
-0.066126674 0.060060002 0.63700002 16514043
-0.065015234 0.060154289 0.63800001 16514043
-0.064000003 0.060342859 0.64000005 16514043
-0.062780954 0.060342859 0.64000005 16514043
-0.061561912 0.060342859 0.64000005 16514043
-0.060342859 0.060342859 0.64000005 16514043
-0.05921619 0.060437147 0.64100003 16514043
-0.058085714 0.06053143 0.64200002 16514043
-0.056862857 0.06053143 0.64200002 16514043
-0.055726666 0.060625713 0.64300001 16514043
-0.054501906 0.060625713 0.64300001 16514043
-0.053525716 0.060908575 0.64600003 16514043
-0.052295242 0.060908575 0.64600003 16514043
-0.051064763 0.060908575 0.64600003 16514043
-0.049911428 0.061002858 0.64700001 16514043
-0.048904765 0.061285719 0.65000004 16711422
-0.047813334 0.06147429 0.65200001 16711422
-0.04657143 0.06147429 0.65200001 16711422
-0.045399051 0.061568573 0.65300006 15066597
-0.04415524 0.061568573 0.65300006 11777460
-0.043042861 0.061757144 0.65500003 6250848
-0.095066674 0.061946671 0.64400005 13355452
-0.093840003 0.061946671 0.64400005 15526621
-0.092613339 0.061946671 0.64400005 15988217
-0.091244757 0.061850477 0.64300001 16580351
-0.089879997 0.061754286 0.64200002 16711422
-0.088519052 0.061658099 0.64100003 16579836
-0.087161906 0.061561912 0.64000005 16514043
-0.085674286 0.061369527 0.63800001 16514043
-0.084459044 0.061369527 0.63800001 16514043
-0.08324381 0.061369527 0.63800001 16514043
-0.082028575 0.061369527 0.63800001 16514043
-0.080686666 0.061273336 0.63700002 16514043
-0.079473339 0.061273336 0.63700002 16514043
-0.078260005 0.061273336 0.63700002 16514043
-0.07704667 0.061273336 0.63700002 16514043
-0.075833336 0.061273336 0.63700002 16514043
-0.074502863 0.061177142 0.63600004 16514043
-0.073291428 0.061177142 0.63600004 16514043
-0.072080001 0.061177142 0.63600004 16514043
-0.070868574 0.061177142 0.63600004 16514043
-0.069657147 0.061177142 0.63600004 16514043
-0.068660952 0.061369527 0.63800001 16514043
-0.067445718 0.061369527 0.63800001 16514043
-0.066230476 0.061369527 0.63800001 16514043
-0.065219052 0.061561912 0.64000005 16514043
-0.064000003 0.061561912 0.64000005 16514043
-0.062780954 0.061561912 0.64000005 16514043
-0.061658099 0.061658099 0.64100003 16514043
-0.060437147 0.061658099 0.64100003 16514043
-0.059308574 0.061754286 0.64200002 16514043
-0.058085714 0.061754286 0.64200002 16514043
-0.056951426 0.061850477 0.64300001 16514043
-0.055726666 0.061850477 0.64300001 16514043
-0.054501906 0.061850477 0.64300001 16514043
-0.053525716 0.062139049 0.64600003 16514043
-0.052295242 0.062139049 0.64600003 16514043
-0.051064763 0.062139049 0.64600003 16645629
-0.049911428 0.062235236 0.64700001 16711422
-0.048829526 0.062427621 0.64900005 16711422
-0.047666669 0.062523812 0.65000004 16711422
-0.04657143 0.062716186 0.65200001 16711422
-0.045399051 0.06281238 0.65300006 12566463
-0.04415524 0.06281238 0.65300006 5471826
-0.095066674 0.063173339 0.64400005 11710290
-0.093840003 0.063173339 0.64400005 15657870
-0.092613339 0.063173339 0.64400005 16711411
-0.091244757 0.063075244 0.64300001 16777204
-0.090020001 0.063075244 0.64300001 16711422
-0.088657148 0.062977143 0.64200002 16711422
-0.087298095 0.062879048 0.64100003 16711422
-0.085942864 0.062780954 0.64000005 16579836
-0.084723815 0.062780954 0.64000005 16514043
-0.08324381 0.062584765 0.63800001 16514043
-0.082028575 0.062584765 0.63800001 16514043
-0.080813333 0.062584765 0.63800001 16514043
-0.079598099 0.062584765 0.63800001 16514043
-0.078260005 0.062486667 0.63700002 16514043
-0.07704667 0.062486667 0.63700002 16514043
-0.075833336 0.062486667 0.63700002 16514043
-0.074502863 0.062388573 0.63600004 16514043
-0.073291428 0.062388573 0.63600004 16514043
-0.072193332 0.062486667 0.63700002 16514043
-0.070868574 0.062388573 0.63600004 16514043
-0.069657147 0.062388573 0.63600004 16514043
-0.068660952 0.062584765 0.63800001 16514043
-0.06765715 0.062780954 0.64000005 16514043
-0.066438094 0.062780954 0.64000005 16514043
-0.065219052 0.062780954 0.64000005 16514043
-0.064000003 0.062780954 0.64000005 16514043
-0.062879048 0.062879048 0.64100003 16514043
-0.061658099 0.062879048 0.64100003 16514043
-0.060437147 0.062879048 0.64100003 16514043
-0.059308574 0.062977143 0.64200002 16514043
-0.058085714 0.062977143 0.64200002 16514043
-0.056951426 0.063075244 0.64300001 16645629
-0.055726666 0.063075244 0.64300001 16711422
-0.054586671 0.063173339 0.64400005 16711422
-0.053525716 0.063369527 0.64600003 16711422
-0.052295242 0.063369527 0.64600003 16711422
-0.05114381 0.063467614 0.64700001 16711422
-0.050065719 0.063663818 0.64900005 16711422
-0.048829526 0.063663818 0.64900005 16053503
-0.047666669 0.063761905 0.65000004 10790063
-0.04657143 0.063958094 0.65200001 3088307
-0.045399051 0.064056195 0.65300006 132
-0.095066674 0.064400002 0.64400005 7494656
-0.093840003 0.064400002 0.64400005 14271324
-0.092613339 0.064400002 0.64400005 14736333
-0.091244757 0.064300001 0.64300001 16776687
-0.090020001 0.064300001 0.64300001 16711674
-0.088657148 0.064200006 0.64200002 16711674
-0.087434284 0.064200006 0.64200002 16711420
-0.085942864 0.064000003 0.64000005 16711420
-0.084723815 0.064000003 0.64000005 16711422
-0.083504766 0.064000003 0.64000005 16645629
-0.082028575 0.0638 0.63800001 16514043
-0.080813333 0.0638 0.63800001 16514043
-0.079598099 0.0638 0.63800001 16514043
-0.078260005 0.063699998 0.63700002 16514043
-0.07704667 0.063699998 0.63700002 16514043
-0.075833336 0.063699998 0.63700002 16514043
-0.074620001 0.063699998 0.63700002 16514043
-0.073406667 0.063699998 0.63700002 16514043
-0.072193332 0.063699998 0.63700002 16514043
-0.070868574 0.063600004 0.63600004 16514043
-0.069657147 0.063600004 0.63600004 16514043
-0.068660952 0.0638 0.63800001 16514043
-0.06765715 0.064000003 0.64000005 16514043
-0.066438094 0.064000003 0.64000005 16514043
-0.065219052 0.064000003 0.64000005 16514043
-0.064000003 0.064000003 0.64000005 16514043
-0.062879048 0.064099997 0.64100003 16514043
-0.061658099 0.064099997 0.64100003 16514043
-0.060437147 0.064099997 0.64100003 16645629
-0.059308574 0.064200006 0.64200002 16711422
-0.058085714 0.064200006 0.64200002 16711422
-0.056951426 0.064300001 0.64300001 16711422
-0.055726666 0.064300001 0.64300001 16711422
-0.054586671 0.064400002 0.64400005 16711422
-0.053525716 0.064599998 0.64600003 16711422
-0.052295242 0.064599998 0.64600003 16711422
-0.05114381 0.064700007 0.64700001 16711422
-0.049988572 0.064800002 0.648 16053492
-0.048829526 0.064900003 0.64900005 10012636
-0.047666669 0.064999998 0.65000004 3630715
-0.04657143 0.065200001 0.65200001 2361359
-0.045399051 0.065300003 0.65300006 2098187
-0.095066674 0.065626673 0.64400005 2558976
-0.093840003 0.065626673 0.64400005 2887937
-0.092613339 0.065626673 0.64400005 6110464
-0.091244757 0.065524764 0.64300001 11505479
-0.090020001 0.065524764 0.64300001 13352335
-0.088657148 0.065422855 0.64200002 15852469
-0.087434284 0.065422855 0.64200002 16646095
-0.086077146 0.065320954 0.64100003 16777170
-0.084723815 0.065219052 0.64000005 16711422
-0.083504766 0.065219052 0.64000005 16711422
-0.082285725 0.065219052 0.64000005 16711422
-0.080813333 0.065015234 0.63800001 16711422
-0.079598099 0.065015234 0.63800001 16711422
-0.078382857 0.065015234 0.63800001 16711422
-0.077167623 0.065015234 0.63800001 16711422
-0.075952381 0.065015234 0.63800001 16711422
-0.074620001 0.06491334 0.63700002 16711422
-0.073406667 0.06491334 0.63700002 16711422
-0.072193332 0.06491334 0.63700002 16711422
-0.070979998 0.06491334 0.63700002 16711422
-0.069876194 0.065015234 0.63800001 16711422
-0.068876199 0.065219052 0.64000005 16711422
-0.067762859 0.065320954 0.64100003 16711422
-0.066438094 0.065219052 0.64000005 16711422
-0.065219052 0.065219052 0.64000005 16711422
-0.064000003 0.065219052 0.64000005 16711422
-0.062879048 0.065320954 0.64100003 16711422
-0.061658099 0.065320954 0.64100003 16711422
-0.060437147 0.065320954 0.64100003 16711422
-0.059308574 0.065422855 0.64200002 16711422
-0.058085714 0.065422855 0.64200002 16711422
-0.056951426 0.065524764 0.64300001 16711422
-0.055726666 0.065524764 0.64300001 16184574
-0.054586671 0.065626673 0.64400005 13684440
-0.053525716 0.065830477 0.64600003 6574834
-0.052295242 0.065830477 0.64600003 5324767
-0.05114381 0.065932386 0.64700001 3028565
-0.049988572 0.066034287 0.648 594224
-0.048829526 0.066136196 0.64900005 138498
-0.047666669 0.066238098 0.65000004 1914909
-0.094131432 0.067060955 0.64600003 1967360
-0.092613339 0.066853337 0.64400005 2294528
-0.091244757 0.066749521 0.64300001 3610386
-0.090020001 0.066749521 0.64300001 9068056
-0.088657148 0.066645719 0.64200002 12884050
-0.087434284 0.066645719 0.64200002 13220520
-0.086077146 0.06654191 0.64100003 15654861
-0.084723815 0.066438094 0.64000005 15263974
-0.083504766 0.066438094 0.64000005 16645627
-0.082285725 0.066438094 0.64000005 16711422
-0.080813333 0.066230476 0.63800001 16711422
-0.079598099 0.066230476 0.63800001 16711422
-0.078382857 0.066230476 0.63800001 16711422
-0.077167623 0.066230476 0.63800001 16711422
-0.075952381 0.066230476 0.63800001 16711422
-0.074620001 0.066126674 0.63700002 16711422
-0.073406667 0.066126674 0.63700002 16711422
-0.072193332 0.066126674 0.63700002 16711422
-0.070979998 0.066126674 0.63700002 16711422
-0.069876194 0.066230476 0.63800001 16711422
-0.068876199 0.066438094 0.64000005 16711422
-0.067762859 0.06654191 0.64100003 16711422
-0.066438094 0.066438094 0.64000005 16711422
-0.065219052 0.066438094 0.64000005 16711422
-0.064000003 0.066438094 0.64000005 16711422
-0.062879048 0.06654191 0.64100003 16711422
-0.061658099 0.06654191 0.64100003 16711422
-0.060437147 0.06654191 0.64100003 16711422
-0.059400953 0.066749521 0.64300001 16514043
-0.05817619 0.066749521 0.64300001 15462902
-0.056951426 0.066749521 0.64300001 14870765
-0.055726666 0.066749521 0.64300001 9812693
-0.054586671 0.066853337 0.64400005 6128285
-0.053525716 0.067060955 0.64600003 270927
-0.052295242 0.067060955 0.64600003 2358
-0.05114381 0.067164764 0.64700001 786688
-0.049988572 0.067268573 0.648 2168339
-0.048829526 0.067372382 0.64900005 4205323
-0.094131432 0.068291426 0.64600003 4202275
-0.092613339 0.068080008 0.64400005 4461827
-0.091244757 0.067974284 0.64300001 4593413
-0.090020001 0.067974284 0.64300001 4392704
-0.088657148 0.067868568 0.64200002 3932160
-0.087434284 0.067868568 0.64200002 2294528
-0.086077146 0.067762859 0.64100003 1966080
-0.084856197 0.067762859 0.64100003 1376768
-0.083504766 0.06765715 0.64000005 2297867
-0.082285725 0.06765715 0.64000005 5257521
-0.080813333 0.067445718 0.63800001 6968139
-0.079598099 0.067445718 0.63800001 8089198
-0.078382857 0.067445718 0.63800001 9405058
-0.077167623 0.067445718 0.63800001 10524043
-0.075952381 0.067445718 0.63800001 11576731
-0.074737139 0.067445718 0.63800001 11971755
-0.073521905 0.067445718 0.63800001 12300720
-0.07230667 0.067445718 0.63800001 11579048
-0.071091428 0.067445718 0.63800001 11184290
-0.069876194 0.067445718 0.63800001 9739174
-0.068983816 0.067762859 0.64100003 8686486
-0.067762859 0.067762859 0.64100003 6910362
-0.066438094 0.06765715 0.64000005 5068158
-0.065219052 0.06765715 0.64000005 3288438
-0.064000003 0.06765715 0.64000005 262216
-0.062879048 0.067762859 0.64100003 65
-0.061658099 0.067762859 0.64100003 63
-0.060437147 0.067762859 0.64100003 515
-0.059308574 0.067868568 0.64200002 198151
-0.05817619 0.067974284 0.64300001 790
-0.056951426 0.067974284 0.64300001 276
-0.055813335 0.068080008 0.64400005 1792
-0.054586671 0.068080008 0.64400005 67842
-0.053525716 0.068291426 0.64600003 1024
-0.052295242 0.068291426 0.64600003 1119503
-0.051064763 0.068291426 0.64600003 5061948
-0.049834289 0.068291426 0.64600003 7101531
-0.092613339 0.069306672 0.64400005 5448462
-0.091386676 0.069306672 0.64400005 6237978
-0.090020001 0.069199048 0.64300001 5646852
-0.088795237 0.069199048 0.64300001 3804672
-0.087570474 0.069199048 0.64300001 2491136
-0.086211428 0.069091432 0.64200002 2162688
-0.084988572 0.069091432 0.64200002 1376768
-0.083504766 0.068876199 0.64000005 1376768
-0.082285725 0.068876199 0.64000005 1376768
-0.081066668 0.068876199 0.64000005 1376768
-0.079598099 0.068660952 0.63800001 1507840
-0.078382857 0.068660952 0.63800001 1507840
-0.077167623 0.068660952 0.63800001 2097920
-0.075952381 0.068660952 0.63800001 2295296
-0.074737139 0.068660952 0.63800001 2688000
-0.073521905 0.068660952 0.63800001 2424832
-0.07230667 0.068660952 0.63800001 66866
-0.071091428 0.068660952 0.63800001 659003
-0.070095241 0.068876199 0.64000005 74
-0.068983816 0.068983816 0.64100003 394064
-0.067762859 0.068983816 0.64100003 45
-0.066438094 0.068876199 0.64000005 1118271
-0.065219052 0.068876199 0.64000005 2304
-0.064000003 0.068876199 0.64000005 265730
-0.062780954 0.068876199 0.64000005 65689
-0.061658099 0.068983816 0.64100003 148
-0.060437147 0.068983816 0.64100003 327682
-0.05921619 0.068983816 0.64100003 525061
-0.05817619 0.069199048 0.64300001 1245456
-0.056951426 0.069199048 0.64300001 983052
-0.055813335 0.069306672 0.64400005 262144
-0.054586671 0.069306672 0.64400005 591106
-0.053360004 0.069306672 0.64400005 1508352
-0.052133337 0.069306672 0.64400005 3218967
-0.051776193 0.070490479 0.65500003 5651491
-0.050528575 0.070490479 0.65500003 7164730
-0.049431428 0.070705712 0.65700001 8802636
-0.048179999 0.070705712 0.65700001 9131601
-0.046928573 0.070705712 0.65700001 10834759
-0.04567714 0.070705712 0.65700001 10703173
-0.044425715 0.070705712 0.65700001 10173220
-0.091386676 0.070533335 0.64400005 5907231
-0.090020001 0.070423812 0.64300001 5776907
-0.088795237 0.070423812 0.64300001 5776907
-0.087570474 0.070423812 0.64300001 4659244
-0.086345717 0.070423812 0.64300001 4330279
-0.084988572 0.070314288 0.64200002 3741724
-0.083635241 0.070204765 0.64100003 3281173
-0.082285725 0.070095241 0.64000005 2755077
-0.081066668 0.070095241 0.64000005 2294528
-0.079598099 0.069876194 0.63800001 2426625
-0.078382857 0.069876194 0.63800001 2492418
-0.077167623 0.069876194 0.63800001 2425864
-0.075952381 0.069876194 0.63800001 3281173
-0.074737139 0.069876194 0.63800001 2951680
-0.073521905 0.069876194 0.63800001 3083264
-0.072533339 0.070095241 0.64000005 7100046
-0.07131429 0.070095241 0.64000005 14074104
-0.070095241 0.070095241 0.64000005 13421520
-0.068983816 0.070204765 0.64100003 11052972
-0.067762859 0.070204765 0.64100003 13621184
-0.066438094 0.070095241 0.64000005 14805458
-0.065219052 0.070095241 0.64000005 14608324
-0.064000003 0.070095241 0.64000005 15397840
-0.062780954 0.070095241 0.64000005 9996543
-0.061658099 0.070204765 0.64100003 5983178
-0.060437147 0.070204765 0.64100003 4470358
-0.05921619 0.070204765 0.64100003 6773113
-0.057995241 0.070204765 0.64100003 6111585
-0.057217143 0.070752382 0.64600003 4861518
-0.055813335 0.070533335 0.64400005 6041118
-0.054586671 0.070533335 0.64400005 6238497
-0.053360004 0.070533335 0.64400005 7481881
-0.051697146 0.071628578 0.65400004 10181177
-0.050528575 0.071738102 0.65500003 10312763
-0.049280953 0.071738102 0.65500003 10832965
-0.048033334 0.071738102 0.65500003 10240828
-0.046785716 0.071738102 0.65500003 11024940
-0.04567714 0.071957141 0.65700001 10630182
-0.044425715 0.071957141 0.65700001 10038286
-0.043174285 0.071957141 0.65700001 9248770
-0.093188569 0.072205715 0.648 6628889
-0.091954283 0.072205715 0.648 6036752
-0.090020001 0.071648575 0.64300001 5249536
-0.088795237 0.071648575 0.64300001 5249536
-0.087570474 0.071648575 0.64300001 4395521
-0.086345717 0.071648575 0.64300001 4066560
-0.084988572 0.071537144 0.64200002 4066826
-0.083635241 0.071425714 0.64100003 3935240
-0.082414292 0.071425714 0.64100003 2820608
-0.081193335 0.071425714 0.64100003 2228480
-0.079847619 0.07131429 0.64000005 918528
-0.078382857 0.071091428 0.63800001 2168593
-0.077167623 0.071091428 0.63800001 3085568
-0.075952381 0.071091428 0.63800001 5190942
-0.074971437 0.07131429 0.64000005 4994057
-0.073752381 0.07131429 0.64000005 4533506
-0.072533339 0.07131429 0.64000005 10120061
-0.07131429 0.07131429 0.64000005 15975638
-0.070095241 0.07131429 0.64000005 15196134
-0.068983816 0.071425714 0.64100003 14340825
-0.067762859 0.071425714 0.64100003 13687515
-0.06654191 0.071425714 0.64100003 13950687
-0.065320954 0.071425714 0.64100003 14147530
-0.064099997 0.071425714 0.64100003 13555393
-0.062977143 0.071537144 0.64200002 7245260
-0.061754286 0.071537144 0.64200002 2573957
-0.060437147 0.071425714 0.64100003 1973259
-0.05921619 0.071425714 0.64100003 4539186
-0.058447622 0.071982861 0.64600003 5647409
-0.057217143 0.071982861 0.64600003 5844788
-0.055813335 0.071760006 0.64400005 8206887
-0.054586671 0.071760006 0.64400005 8206887
-0.053360004 0.071760006 0.64400005 9908247
-0.052538101 0.072317146 0.64900005 11750451
-0.051697146 0.072874293 0.65400004 12342086
-0.050451431 0.072874293 0.65400004 12276293
-0.049205717 0.072874293 0.65400004 12271171
-0.048033334 0.072985716 0.65500003 11613241
-0.046785716 0.072985716 0.65500003 11480615
-0.04567714 0.07320857 0.65700001 11217443
-0.044425715 0.07320857 0.65700001 10563358
-0.043174285 0.07320857 0.65700001 9708049
-0.042050481 0.073431432 0.65900004 7746068
-0.09778858 0.07412 0.65400004 6558464
-0.096542865 0.07412 0.65400004 7479844
-0.095297143 0.07412 0.65400004 8071981
-0.093188569 0.07344 0.648 8137501
-0.091954283 0.07344 0.648 9058603
-0.090160005 0.072986677 0.64400005 8731405
-0.088933334 0.072986677 0.64400005 8928784
-0.087570474 0.072873332 0.64300001 8404257
-0.086345717 0.072873332 0.64300001 7746327
-0.085120954 0.072873332 0.64300001 7878183
-0.083765715 0.072760001 0.64200002 8009769
-0.082414292 0.07264667 0.64100003 7354649
-0.081193335 0.07264667 0.64100003 6828305
-0.079847619 0.072533339 0.64000005 7025173
-0.078628577 0.072533339 0.64000005 7156759
-0.077409528 0.072533339 0.64000005 7156768
-0.076190479 0.072533339 0.64000005 7617319
-0.074737139 0.07230667 0.63800001 7222300
-0.073521905 0.07230667 0.63800001 6038026
-0.072533339 0.072533339 0.64000005 7876352
-0.071091428 0.07230667 0.63800001 7613184
-0.069876194 0.07230667 0.63800001 7610368
-0.068983816 0.07264667 0.64100003 6360320
-0.067762859 0.07264667 0.64100003 5312256
-0.06654191 0.07264667 0.64100003 5312256
-0.065320954 0.07264667 0.64100003 6300928
-0.064099997 0.07264667 0.64100003 6103552
-0.063173339 0.072986677 0.64400005 8206848
-0.061754286 0.072760001 0.64200002 8996355
-0.06053143 0.072760001 0.64200002 10575669
-0.059400953 0.072873332 0.64300001 11102013
-0.058447622 0.073213331 0.64600003 11361610
-0.057217143 0.073213331 0.64600003 11230024
-0.055813335 0.072986677 0.64400005 11818829
-0.054586671 0.072986677 0.64400005 11489864
-0.053360004 0.072986677 0.64400005 12010048
-0.052538101 0.073553339 0.64900005 11878462
-0.051301908 0.073553339 0.64900005 12269863
-0.050142858 0.073666669 0.65000004 12006691
-0.049130481 0.074006677 0.65300006 12069933
-0.047960002 0.07412 0.65400004 11806761
-0.046785716 0.074233338 0.65500003 11479847
-0.045538098 0.074233338 0.65500003 11414054
-0.044425715 0.07446 0.65700001 10496809
-0.043174285 0.07446 0.65700001 9838879
-0.042050481 0.074686669 0.65900004 7810584
-0.040795241 0.074686669 0.65900004 12284508
-0.099034294 0.075365715 0.65400004 7286590
-0.09778858 0.075365715 0.65400004 5049628
-0.096395247 0.075250484 0.65300006 7673874
-0.095151439 0.075250484 0.65300006 8266011
-0.093907632 0.075250484 0.65300006 9313807
-0.091954283 0.074674278 0.648 10432288
-0.090440005 0.07444381 0.64600003 10235926
-0.088933334 0.074213333 0.64400005 11354407
-0.087706678 0.074213333 0.64400005 10372146
-0.086345717 0.074098095 0.64300001 10108974
-0.085120954 0.074098095 0.64300001 9385503
-0.083765715 0.073982857 0.64200002 9253917
-0.082542859 0.073982857 0.64200002 9122583
-0.081193335 0.073867619 0.64100003 9056790
-0.079972379 0.073867619 0.64100003 8924189
-0.078628577 0.073752381 0.64000005 9384740
-0.077409528 0.073752381 0.64000005 9519154
-0.076190479 0.073752381 0.64000005 9255982
-0.074737139 0.073521905 0.63800001 9122853
-0.073521905 0.073521905 0.63800001 9122853
-0.072533339 0.073752381 0.64000005 8925186
-0.071091428 0.073521905 0.63800001 7411968
-0.069876194 0.073521905 0.63800001 7866880
-0.068983816 0.073867619 0.64100003 7866880
-0.067762859 0.073867619 0.64100003 7998208
-0.06654191 0.073867619 0.64100003 7998208
-0.065320954 0.073867619 0.64100003 8981504
-0.064099997 0.073867619 0.64100003 9507840
-0.063369527 0.07444381 0.64600003 12140850
-0.061946671 0.074213333 0.64400005 13785675
-0.060720004 0.074213333 0.64400005 13524813
-0.059400953 0.074098095 0.64300001 13459020
-0.05817619 0.074098095 0.64300001 13850698
-0.057217143 0.07444381 0.64600003 13587526
-0.055986669 0.07444381 0.64600003 13583944
-0.054756194 0.07444381 0.64600003 13452358
-0.053608574 0.074559048 0.64700001 13122619
-0.052457143 0.074674278 0.648 12727861
-0.051301908 0.074789532 0.64900005 12530473
-0.050142858 0.074904762 0.65000004 12135715
-0.049130481 0.075250484 0.65300006 12134954
-0.047960002 0.075365715 0.65400004 12069161
-0.046785716 0.075480953 0.65500003 11413802
-0.045538098 0.075480953 0.65500003 11413802
-0.044425715 0.075711429 0.65700001 10563878
-0.043174285 0.075711429 0.65700001 9511190
-0.042050481 0.075941913 0.65900004 7743499
-0.040795241 0.075941913 0.65900004 12349009
-0.099034294 0.076611437 0.65400004 9200247
-0.097639054 0.076494291 0.65300006 4265772
-0.096395247 0.076494291 0.65300006 7473922
-0.095151439 0.076494291 0.65300006 8592403
-0.093763813 0.076377138 0.65200001 9245204
-0.092096195 0.076025717 0.64900005 9705755
-0.090580001 0.075791426 0.64700001 10033423
-0.089209527 0.075674288 0.64600003 11283490
-0.087706678 0.075440004 0.64400005 10629401
-0.086345717 0.075322859 0.64300001 10563608
-0.085120954 0.075322859 0.64300001 10695203
-0.08389619 0.075322859 0.64300001 11024168
-0.082671426 0.075322859 0.64300001 11090740
-0.081320003 0.075205714 0.64200002 11551291
-0.080097146 0.075205714 0.64200002 11354680
-0.07875143 0.075088575 0.64100003 11881024
-0.077409528 0.074971437 0.64000005 11816262
-0.076190479 0.074971437 0.64000005 12079434
-0.074971437 0.074971437 0.64000005 12080204
-0.073752381 0.074971437 0.64000005 12343376
-0.072533339 0.074971437 0.64000005 12409421
-0.07131429 0.074971437 0.64000005 12475214
-0.070095241 0.074971437 0.64000005 12605771
-0.068983816 0.075088575 0.64100003 12539978
-0.067762859 0.075088575 0.64100003 12538952
-0.06654191 0.075088575 0.64100003 12473159
-0.065320954 0.075088575 0.64100003 12669770
-0.064200006 0.075205714 0.64200002 12998735
-0.062977143 0.075205714 0.64200002 13455958
-0.061754286 0.075205714 0.64200002 13324372
-0.06053143 0.075205714 0.64200002 13452597
-0.059400953 0.075322859 0.64300001 13123632
-0.05817619 0.075322859 0.64300001 13253426
-0.057217143 0.075674288 0.64600003 13056047
-0.055986669 0.075674288 0.64600003 13121074
-0.054756194 0.075674288 0.64600003 12792109
-0.053525716 0.075674288 0.64600003 12856367
-0.052457143 0.075908571 0.648 12658988
-0.051301908 0.076025717 0.64900005 12462640
-0.050142858 0.076142862 0.65000004 12462640
-0.049130481 0.076494291 0.65300006 12267553
-0.047960002 0.076611437 0.65400004 12004381
-0.046714287 0.076611437 0.65400004 11545640
-0.045538098 0.076728575 0.65500003 11414054
-0.044425715 0.076962851 0.65700001 10628645
-0.043174285 0.076962851 0.65700001 9773336
-0.041986667 0.077080004 0.65800005 8006412
-0.040795241 0.077197149 0.65900004 12348750
-0.097639054 0.077738099 0.65300006 3807522
-0.096395247 0.077738099 0.65300006 7408640
-0.095005721 0.077619046 0.65200001 8527116
-0.093763813 0.077619046 0.65200001 9179927
-0.092096195 0.07726191 0.64900005 9574685
-0.090580001 0.077023812 0.64700001 10099216
-0.089209527 0.076904759 0.64600003 10888732
-0.087706678 0.076666676 0.64400005 10953751
-0.086345717 0.076547615 0.64300001 11348509
-0.085120954 0.076547615 0.64300001 11610663
-0.08389619 0.076547615 0.64300001 12400179
-0.082671426 0.076547615 0.64300001 12269109
-0.081320003 0.07642857 0.64200002 12400695
-0.079972379 0.076309532 0.64100003 12596027
-0.07875143 0.076309532 0.64100003 13188164
-0.077530481 0.076309532 0.64100003 13058373
-0.076190479 0.076190479 0.64000005 13518924
-0.074971437 0.076190479 0.64000005 13519946
-0.073752381 0.076190479 0.64000005 13848911
-0.072533339 0.076190479 0.64000005 13783624
-0.07131429 0.076190479 0.64000005 13981003
-0.070095241 0.076190479 0.64000005 13979979
-0.068983816 0.076309532 0.64100003 13979979
-0.067762859 0.076309532 0.64100003 13978950
-0.06654191 0.076309532 0.64100003 13847364
-0.065320954 0.076309532 0.64100003 14110538
-0.064200006 0.07642857 0.64200002 14242124
-0.062977143 0.07642857 0.64200002 14109005
-0.061754286 0.07642857 0.64200002 13911626
-0.06053143 0.07642857 0.64200002 13713979
-0.059400953 0.076547615 0.64300001 13319221
-0.05817619 0.076547615 0.64300001 13383735
-0.057217143 0.076904759 0.64600003 13252149
-0.055986669 0.076904759 0.64600003 13121072
-0.054756194 0.076904759 0.64600003 12989486
-0.053525716 0.076904759 0.64600003 12856878
-0.052457143 0.077142857 0.648 12791085
-0.051301908 0.07726191 0.64900005 12529189
-0.050142858 0.077380955 0.65000004 12463396
-0.049130481 0.077738099 0.65300006 12070185
-0.047960002 0.077857152 0.65400004 12135978
-0.046714287 0.077857152 0.65400004 11479595
-0.045468576 0.077857152 0.65400004 11348009
-0.044290476 0.077976197 0.65500003 10759720
-0.043174285 0.078214288 0.65700001 9838618
-0.041986667 0.078333341 0.65800005 8332302
-0.040795241 0.078452386 0.65900004 12543054
-0.097639054 0.078981914 0.65300006 3939855
-0.096247621 0.078860953 0.65200001 7473920
-0.095005721 0.078860953 0.65200001 8592396
-0.093763813 0.078860953 0.65200001 9181194
-0.092096195 0.078498095 0.64900005 9510159
-0.090580001 0.07825619 0.64700001 10032651
-0.089209527 0.078135237 0.64600003 10493202
-0.087706678 0.077893339 0.64400005 10821136
-0.086345717 0.077772386 0.64300001 10755343
-0.085120954 0.077772386 0.64300001 11343650
-0.08389619 0.077772386 0.64300001 12133166
-0.082671426 0.077772386 0.64300001 12001571
-0.081320003 0.077651434 0.64200002 11804192
-0.079972379 0.077530481 0.64100003 12131115
-0.07875143 0.077530481 0.64100003 12986424
-0.077530481 0.077530481 0.64100003 12725803
-0.076190479 0.077409528 0.64000005 13186354
-0.074971437 0.077409528 0.64000005 13056306
-0.073752381 0.077409528 0.64000005 13253685
-0.072533339 0.077409528 0.64000005 13253176
-0.07131429 0.077409528 0.64000005 13516348
-0.070095241 0.077409528 0.64000005 13450553
-0.068983816 0.077530481 0.64100003 13318967
-0.067762859 0.077530481 0.64100003 13448756
-0.06654191 0.077530481 0.64100003 13514549
-0.065422855 0.077651434 0.64200002 13449278
-0.064200006 0.077651434 0.64200002 13844036
-0.062977143 0.077651434 0.64200002 13647682
-0.061754286 0.077651434 0.64200002 13516096
-0.06053143 0.077651434 0.64200002 13647670
-0.059400953 0.077772386 0.64300001 13516084
-0.05817619 0.077772386 0.64300001 13318199
-0.057217143 0.078135237 0.64600003 13186613
-0.055986669 0.078135237 0.64600003 13186606
-0.054756194 0.078135237 0.64600003 12857641
-0.053525716 0.078135237 0.64600003 12790828
-0.052457143 0.078377143 0.648 12725035
-0.051301908 0.078498095 0.64900005 12529189
-0.050065719 0.078498095 0.64900005 12397603
-0.048904765 0.078619048 0.65000004 12200747
-0.047960002 0.079102859 0.65400004 12003368
-0.046714287 0.079102859 0.65400004 11544107
-0.045468576 0.079102859 0.65400004 11544107
-0.044290476 0.079223812 0.65500003 10628645
-0.043174285 0.079465717 0.65700001 9904922
-0.041986667 0.079586677 0.65800005 8594965
-0.040795241 0.079707623 0.65900004 11818822
-0.039659999 0.079949521 0.66100001 9928822
-0.099034294 0.080348574 0.65400004 9071455
-0.097639054 0.080225721 0.65300006 3808015
-0.096247621 0.080102861 0.65200001 7473920
-0.095005721 0.080102861 0.65200001 8658189
-0.093763813 0.080102861 0.65200001 9246987
-0.092096195 0.079734296 0.64900005 9444366
-0.090719998 0.079611428 0.648 10096913
-0.089209527 0.079365723 0.64600003 10952222
-0.087979056 0.079365723 0.64600003 10885911
-0.086480007 0.079120003 0.64400005 10820118
-0.085120954 0.078997143 0.64300001 11212316
-0.08389619 0.078997143 0.64300001 11672867
-0.082671426 0.078997143 0.64300001 11736855
-0.081320003 0.078874283 0.64200002 11736855
-0.079972379 0.07875143 0.64100003 12064032
-0.07875143 0.07875143 0.64100003 12787755
-0.077530481 0.07875143 0.64100003 12659753
-0.076309532 0.07875143 0.64100003 12988718
-0.074971437 0.078628577 0.64000005 12989229
-0.073752381 0.078628577 0.64000005 12923436
-0.072533339 0.078628577 0.64000005 13119273
-0.07131429 0.078628577 0.64000005 13645617
-0.070095241 0.078628577 0.64000005 13383724
-0.068983816 0.07875143 0.64100003 13186345
-0.067762859 0.07875143 0.64100003 12920356
-0.06654191 0.07875143 0.64100003 13117735
-0.065422855 0.078874283 0.64200002 13052967
-0.064200006 0.078874283 0.64200002 13710897
-0.063173339 0.079120003 0.64400005 13449274
-0.061946671 0.079120003 0.64400005 13515067
-0.060720004 0.079120003 0.64400005 13450553
-0.059493337 0.079120003 0.64400005 13384760
-0.05826667 0.079120003 0.64400005 13383992
-0.057217143 0.079365723 0.64600003 13383992
-0.055986669 0.079365723 0.64600003 13120309
-0.054756194 0.079365723 0.64600003 12988723
-0.053691428 0.079611428 0.648 12791085
-0.052457143 0.079611428 0.648 12659499
-0.051301908 0.079734296 0.64900005 12463910
-0.050065719 0.079734296 0.64900005 12463910
-0.048904765 0.079857148 0.65000004 12200238
-0.047886673 0.080225721 0.65300006 12134445
-0.046642862 0.080225721 0.65300006 11609900
-0.045468576 0.080348574 0.65400004 11807279
-0.044290476 0.080471434 0.65500003 10761003
-0.043174285 0.080717139 0.65700001 9510936
-0.041986667 0.080839999 0.65800005 8527105
-0.040795241 0.080962859 0.65900004 10566688
-0.039659999 0.081208572 0.66100001 10058595
-0.099034294 0.081594288 0.65400004 9071455
-0.09778858 0.081594288 0.65400004 3939601
-0.096395247 0.081469528 0.65300006 7539712
-0.095005721 0.081344761 0.65200001 8855570
-0.093763813 0.081344761 0.65200001 9246233
-0.092096195 0.080970481 0.64900005 9312026
-0.090719998 0.080845714 0.648 9901081
-0.089209527 0.080596194 0.64600003 10690597
-0.087979056 0.080596194 0.64600003 10820125
-0.086480007 0.080346674 0.64400005 10425367
-0.085120954 0.080221906 0.64300001 10948122
-0.08389619 0.080221906 0.64300001 11935017
-0.082671426 0.080221906 0.64300001 11676197
-0.081446663 0.080221906 0.64300001 11610404
-0.080097146 0.080097146 0.64200002 11937827
-0.07875143 0.079972379 0.64100003 12266792
-0.077530481 0.079972379 0.64100003 12332837
-0.076309532 0.079972379 0.64100003 12530216
-0.074971437 0.079847619 0.64000005 12662054
-0.073752381 0.079847619 0.64000005 12398882
-0.072533339 0.079847619 0.64000005 12857641
-0.07131429 0.079847619 0.64000005 13318192
-0.070095241 0.079847619 0.64000005 13057839
-0.068983816 0.079972379 0.64100003 13321011
-0.067762859 0.079972379 0.64100003 13059127
-0.06654191 0.079972379 0.64100003 12993334
-0.065422855 0.080097146 0.64200002 13258048
-0.064200006 0.080097146 0.64200002 13521220
-0.063075244 0.080221906 0.64300001 13256254
-0.061946671 0.080346674 0.64400005 12532531
-0.060720004 0.080346674 0.64400005 13186867
-0.059493337 0.080346674 0.64400005 13450039
-0.058447622 0.080596194 0.64600003 13383992
-0.057217143 0.080596194 0.64600003 13252406
-0.055986669 0.080596194 0.64600003 12986684
-0.054840952 0.080720954 0.64700001 13118270
-0.053691428 0.080845714 0.648 12789302
-0.052457143 0.080845714 0.648 12920888
-0.051301908 0.080970481 0.64900005 12594728
-0.050065719 0.080970481 0.64900005 12397349
-0.048904765 0.081095241 0.65000004 12200490
-0.047813334 0.081344761 0.65200001 12068904
-0.046642862 0.081469528 0.65300006 11740970
-0.045468576 0.081594288 0.65400004 11740970
-0.044290476 0.081719048 0.65500003 10825515
-0.043174285 0.081968568 0.65700001 10167585
-0.041986667 0.082093336 0.65800005 8855575
-0.040795241 0.082218096 0.65900004 10303021
-0.039720006 0.08259239 0.66200006 9664096
-0.10089334 0.083346672 0.65800005 9472895
-0.099034294 0.082840003 0.65400004 9005662
-0.09778858 0.082840003 0.65400004 3873808
-0.096395247 0.082713336 0.65300006 7671040
-0.095151439 0.082713336 0.65300006 8986893
-0.093763813 0.082586668 0.65200001 9247003
-0.092096195 0.082206674 0.64900005 9049624
-0.090719998 0.082079999 0.648 9900309
-0.089347623 0.081953332 0.64700001 10624032
-0.087979056 0.081826672 0.64600003 10886168
-0.086480007 0.081573337 0.64400005 11346719
-0.085253336 0.081573337 0.64400005 11676239
-0.08389619 0.081446663 0.64300001 15492233
-0.082671426 0.081446663 0.64300001 13468253
-0.081446663 0.081446663 0.64300001 13073495
-0.080097146 0.081320003 0.64200002 13661278
-0.078874283 0.081320003 0.64200002 13661278
-0.077530481 0.081193335 0.64100003 13922142
-0.076309532 0.081193335 0.64100003 13987935
-0.075088575 0.081193335 0.64100003 14119008
-0.073752381 0.081066668 0.64000005 14184801
-0.072533339 0.081066668 0.64000005 14315885
-0.07131429 0.081066668 0.64000005 15236987
-0.070095241 0.081066668 0.64000005 14714486
-0.068983816 0.081193335 0.64100003 15306623
-0.067762859 0.081193335 0.64100003 15175805
-0.06654191 0.081193335 0.64100003 15044219
-0.065524764 0.081446663 0.64300001 15769475
-0.064300001 0.081446663 0.64300001 15440510
-0.063075244 0.081446663 0.64300001 14779267
-0.061946671 0.081573337 0.64400005 13594993
-0.060720004 0.081573337 0.64400005 12861258
-0.059493337 0.081573337 0.64400005 12795465
-0.058447622 0.081826672 0.64600003 13318199
-0.057217143 0.081826672 0.64600003 13383992
-0.055986669 0.081826672 0.64600003 13053748
-0.054840952 0.081953332 0.64700001 12922162
-0.053691428 0.082079999 0.648 12789302
-0.052457143 0.082079999 0.648 12855095
-0.051301908 0.082206674 0.64900005 12463410
-0.050065719 0.082206674 0.64900005 12529203
-0.048904765 0.082333334 0.65000004 12199984
-0.047813334 0.082586668 0.65200001 12199984
-0.046642862 0.082713336 0.65300006 11740970
-0.045468576 0.082840003 0.65400004 11609384
-0.044290476 0.08296667 0.65500003 10956326
-0.043042861 0.08296667 0.65500003 10298396
-0.041922856 0.083220005 0.65700001 8919552
-0.040795241 0.083473332 0.65900004 10103825
-0.039720006 0.083853334 0.66200006 9268819
-0.10089334 0.084600009 0.65800005 9538688
-0.099034294 0.084085725 0.65400004 9202784
-0.09778858 0.084085725 0.65400004 3873551
-0.096395247 0.083957151 0.65300006 7539712
-0.095151439 0.083957151 0.65300006 8658191
-0.093907632 0.083957151 0.65300006 9179927
-0.092096195 0.083442859 0.64900005 9443099
-0.090719998 0.083314285 0.648 9901081
-0.089347623 0.083185717 0.64700001 10295839
-0.087979056 0.08305715 0.64600003 10622478
-0.086480007 0.082800008 0.64400005 14306886
-0.085253336 0.082800008 0.64400005 12420165
-0.08389619 0.082671426 0.64300001 12551751
-0.082671426 0.082671426 0.64300001 10782540
-0.081446663 0.082671426 0.64300001 10914126
-0.080097146 0.082542859 0.64200002 10780250
-0.078874283 0.082542859 0.64200002 12030317
-0.077530481 0.082414292 0.64100003 11503462
-0.076309532 0.082414292 0.64100003 12819322
-0.075088575 0.082414292 0.64100003 11767154
-0.073867619 0.082414292 0.64100003 12951428
-0.07264667 0.082414292 0.64100003 12559471
-0.071425714 0.082414292 0.64100003 12822643
-0.070204765 0.082414292 0.64100003 11437445
-0.068983816 0.082414292 0.64100003 12095375
-0.067762859 0.082414292 0.64100003 11437926
-0.066749521 0.082671426 0.64300001 11240547
-0.065422855 0.082542859 0.64200002 11571027
-0.064200006 0.082542859 0.64200002 12031578
-0.063075244 0.082671426 0.64300001 14194319
-0.061946671 0.082800008 0.64400005 14852249
-0.060720004 0.082800008 0.64400005 14973009
-0.059493337 0.082800008 0.64400005 12078117
-0.058447622 0.08305715 0.64600003 13184823
-0.057217143 0.08305715 0.64600003 13316409
-0.055986669 0.08305715 0.64600003 13119040
-0.054756194 0.08305715 0.64600003 13184833
-0.053691428 0.083314285 0.648 12855608
-0.052457143 0.083314285 0.648 12789815
-0.051301908 0.083442859 0.64900005 12527413
-0.050065719 0.083442859 0.64900005 12593206
-0.048904765 0.083571434 0.65000004 12266283
-0.047813334 0.083828576 0.65200001 12200490
-0.046642862 0.083957151 0.65300006 11807270
-0.045468576 0.084085725 0.65400004 11675684
-0.044290476 0.084214285 0.65500003 11021095
-0.043042861 0.084214285 0.65500003 10757923
-0.041922856 0.084471427 0.65700001 9247757
-0.040795241 0.084728576 0.65900004 10103066
-0.10230191 0.085983813 0.65900004 11183513
-0.10089334 0.085853338 0.65800005 9275516
-0.099034294 0.085331433 0.65400004 9202782
-0.09778858 0.085331433 0.65400004 4005135
-0.096542865 0.085331433 0.65400004 7473920
-0.095151439 0.085200958 0.65300006 8460808
-0.093907632 0.085200958 0.65300006 9311242
-0.092096195 0.084679052 0.64900005 10034965
-0.090860009 0.084679052 0.64900005 10164507
-0.089485712 0.08454857 0.648 9769749
-0.088251427 0.08454857 0.648 9901322
-0.086748578 0.084287621 0.64600003 15954278
-0.085253336 0.084026672 0.64400005 10783076
-0.084026672 0.084026672 0.64400005 2887936
-0.082671426 0.08389619 0.64300001 0
-0.081446663 0.08389619 0.64300001 4210750
-0.080097146 0.083765715 0.64200002 269144
-0.07875143 0.083635241 0.64100003 203351
-0.077530481 0.083635241 0.64100003 268839
-0.076309532 0.083635241 0.64100003 3032145
-0.075088575 0.083635241 0.64100003 536918
-0.073867619 0.083635241 0.64100003 4352912
-0.07264667 0.083635241 0.64100003 5405311
-0.071425714 0.083635241 0.64100003 5142139
-0.070204765 0.083635241 0.64100003 410368
-0.069091432 0.083765715 0.64200002 607744
-0.067868568 0.083765715 0.64200002 204544
-0.066749521 0.08389619 0.64300001 4481086
-0.065422855 0.083765715 0.64200002 4675976
-0.064200006 0.083765715 0.64200002 1715291
-0.063075244 0.08389619 0.64300001 10909696
-0.061946671 0.084026672 0.64400005 15383602
-0.060720004 0.084026672 0.64400005 15106976
-0.059493337 0.084026672 0.64400005 10764638
-0.058447622 0.084287621 0.64600003 12919591
-0.057217143 0.084287621 0.64600003 13906486
-0.055986669 0.084287621 0.64600003 13186104
-0.054756194 0.084287621 0.64600003 12988725
-0.053691428 0.08454857 0.648 12856880
-0.052457143 0.08454857 0.648 12988466
-0.051301908 0.084679052 0.64900005 12462131
-0.050065719 0.084679052 0.64900005 12593717
-0.048904765 0.084809527 0.65000004 12200747
-0.047886673 0.085200958 0.65300006 12069161
-0.046642862 0.085200958 0.65300006 11807783
-0.045468576 0.085331433 0.65400004 12136748
-0.044290476 0.085461907 0.65500003 11217963
-0.043174285 0.085722856 0.65700001 10494240
-0.041922856 0.085722856 0.65700001 9641745
-0.040980954 0.086375244 0.66200006 10102296
-0.10214667 0.087106667 0.65800005 11248793
-0.10089334 0.087106667 0.65800005 9209210
-0.099488571 0.086974286 0.65700001 9071448
-0.098237142 0.086974286 0.65700001 4071180
-0.096542865 0.086577147 0.65400004 7539968
-0.095151439 0.086444765 0.65300006 8526855
-0.093907632 0.086444765 0.65300006 9311499
-0.092096195 0.085915245 0.64900005 10101015
-0.090860009 0.085915245 0.64900005 10099216
-0.089485712 0.085782856 0.648 9704458
-0.088251427 0.085782856 0.648 10361112
-0.086882859 0.085650474 0.64700001 16743033
-0.085518099 0.085518099 0.64600003 10848317
-0.084026672 0.085253336 0.64400005 3019008
-0.082671426 0.085120954 0.64300001 1650320
-0.081320003 0.084988572 0.64200002 9677055
-0.080097146 0.084988572 0.64200002 10853847
-0.07875143 0.084856197 0.64100003 9406401
-0.077530481 0.084856197 0.64100003 11122597
-0.076309532 0.084856197 0.64100003 11648941
-0.075088575 0.084856197 0.64100003 10597078
-0.073867619 0.084856197 0.64100003 9807562
-0.07264667 0.084856197 0.64100003 12504763
-0.071425714 0.084856197 0.64100003 12636349
-0.070204765 0.084856197 0.64100003 12242086
-0.069091432 0.084988572 0.64200002 12702637
-0.067868568 0.084988572 0.64200002 12175303
-0.066749521 0.085120954 0.64300001 12570061
-0.065422855 0.084988572 0.64200002 11648218
-0.064200006 0.084988572 0.64200002 266029
-0.063075244 0.085120954 0.64300001 5375744
-0.061946671 0.085253336 0.64400005 16560547
-0.060720004 0.085253336 0.64400005 15903625
-0.059678096 0.085518099 0.64600003 9784876
-0.058447622 0.085518099 0.64600003 12787746
-0.057217143 0.085518099 0.64600003 14037813
-0.056073334 0.085650474 0.64700001 13052734
-0.054840952 0.085650474 0.64700001 13118527
-0.053608574 0.085650474 0.64700001 12989229
-0.052457143 0.085782856 0.648 12660264
-0.051301908 0.085915245 0.64900005 12461620
-0.050065719 0.085915245 0.64900005 12527413
-0.048904765 0.086047627 0.65000004 12267042
-0.047886673 0.086444765 0.65300006 12069663
-0.046714287 0.086577147 0.65400004 11806248
-0.045468576 0.086577147 0.65400004 12069420
-0.044290476 0.086709529 0.65500003 11151139
-0.043174285 0.086974286 0.65700001 10756381
-0.041922856 0.086974286 0.65700001 10037040
-0.041042857 0.087768577 0.66300005 9971247
-0.10214667 0.088360004 0.65800005 11445915
-0.10089334 0.088360004 0.65800005 9143160
-0.099488571 0.088225715 0.65700001 9070678
-0.097938098 0.087957144 0.65500003 4201996
-0.096690476 0.087957144 0.65500003 7671040
-0.095297143 0.087822862 0.65400004 8657928
-0.093907632 0.087688573 0.65300006 9443085
-0.092521906 0.087554283 0.65200001 9969429
-0.090860009 0.087151438 0.64900005 10099216
-0.089485712 0.087017149 0.648 9704458
-0.088251427 0.087017149 0.648 10034704
-0.086882859 0.086882859 0.64700001 16219246
-0.085518099 0.086748578 0.64600003 8941157
-0.084026672 0.086480007 0.64400005 1310720
-0.082671426 0.086345717 0.64300001 9009012
-0.081320003 0.086211428 0.64200002 12759213
-0.080097146 0.086211428 0.64200002 11972027
-0.07875143 0.086077146 0.64100003 11708855
-0.077530481 0.086077146 0.64100003 14146024
-0.076309532 0.086077146 0.64100003 14146024
-0.075088575 0.086077146 0.64100003 13688042
-0.073867619 0.086077146 0.64100003 12766940
-0.072760001 0.086211428 0.64200002 13095880
-0.071537144 0.086211428 0.64200002 13424845
-0.070314288 0.086211428 0.64200002 13620657
-0.069091432 0.086211428 0.64200002 14081208
-0.067868568 0.086211428 0.64200002 13620698
-0.066749521 0.086345717 0.64300001 12765389
-0.065524764 0.086345717 0.64300001 12106215
-0.064300001 0.086345717 0.64300001 45
