# .PCD v0.7 - Point Cloud Data file format
VERSION 0.7
FIELDS x y z rgba
SIZE 4 4 4 4
TYPE F F F U
COUNT 1 1 1 1
WIDTH 1087
HEIGHT 1
VIEWPOINT 0 0 0 1 0 0 0
POINTS 1087
DATA ascii
-0.040611431 0.068862855 0.61800003 12268921
-0.039434288 0.068862855 0.61800003 10442388
-0.038133338 0.068640009 0.61600006 11363490
-0.036960002 0.068640009 0.61600006 9728693
-0.03578667 0.068640009 0.61600006 9662900
-0.034557141 0.06852857 0.61500001 10519233
-0.033385713 0.06852857 0.61500001 10256061
-0.032214288 0.06852857 0.61500001 9207480
-0.031093335 0.068640009 0.61600006 8878515
-0.029920002 0.068640009 0.61600006 10522043
-0.0287 0.06852857 0.61500001 11706317
-0.027528571 0.06852857 0.61500001 10523557
-0.026400004 0.068640009 0.61600006 10720936
-0.025308572 0.068862855 0.61800003 11184100
-0.02413143 0.068862855 0.61800003 9999826
-0.022880001 0.068640009 0.61600006 9735886
-0.021706669 0.068640009 0.61600006 8683198
-0.020499999 0.06852857 0.61500001 12755885
-0.019265717 0.068305716 0.61300004 16771314
-0.018009523 0.067971431 0.61000001 15849406
-0.01684762 0.067971431 0.61000001 11178103
-0.1151981 0.069586664 0.61400002 10915721
-0.11402857 0.069586664 0.61400002 11565438
-0.11304285 0.069699995 0.61500001 12157575
-0.11187143 0.069699995 0.61500001 11759267
-0.1107 0.069699995 0.61500001 8666996
-0.10952857 0.069699995 0.61500001 9253745
-0.10835715 0.069699995 0.61500001 9648503
-0.10718571 0.069699995 0.61500001 10043495
-0.10601429 0.069699995 0.61500001 10109288
-0.10467239 0.069586664 0.61400002 10110076
-0.10350285 0.069586664 0.61400002 9320560
-0.10233334 0.069586664 0.61400002 8863064
-0.10116381 0.069586664 0.61400002 7810376
-0.099994287 0.069586664 0.61400002 9060952
-0.098663814 0.069473341 0.61300004 8731987
-0.097496189 0.069473341 0.61300004 9581406
-0.096328571 0.069473341 0.61300004 9186648
-0.095160954 0.069473341 0.61300004 10172512
-0.094453342 0.069813341 0.61600006 10962028
-0.09328001 0.069813341 0.61600006 10765676
-0.091957144 0.069699995 0.61500001 9844574
-0.090785719 0.069699995 0.61500001 10104934
-0.089614287 0.069699995 0.61500001 10368106
-0.088442855 0.069699995 0.61500001 10565987
-0.087129526 0.069586664 0.61400002 10565987
-0.085960001 0.069586664 0.61400002 11420015
-0.084790483 0.069586664 0.61400002 12670082
-0.083620951 0.069586664 0.61400002 13066105
-0.082317151 0.069473341 0.61300004 12934519
-0.081149533 0.069473341 0.61300004 13192810
-0.077763811 0.067546666 0.59600002 13258603
-0.076500006 0.067433335 0.59500003 13652277
-0.075113341 0.067206673 0.59300005 13915449
-0.073983818 0.067206673 0.59300005 13980208
-0.073100001 0.067433335 0.59500003 14046001
-0.072087623 0.067546666 0.59600002 13784374
-0.070952378 0.067546666 0.59600002 13718581
-0.069817141 0.067546666 0.59600002 13850160
-0.068681911 0.067546666 0.59600002 13784367
-0.067546666 0.067546666 0.59600002 13916695
-0.066522859 0.067659996 0.597 13916695
-0.065385714 0.067659996 0.597 13916196
-0.064248569 0.067659996 0.597 13916196
-0.063111424 0.067659996 0.597 13915699
-0.061974283 0.067659996 0.597 13849906
-0.060939051 0.067773335 0.59800005 13850651
-0.059700001 0.067659996 0.597 13719065
-0.058464762 0.067546666 0.59600002 14109714
-0.057233334 0.067433335 0.59500003 13912335
-0.056100003 0.067433335 0.59500003 14239748
-0.05496667 0.067433335 0.59500003 14897678
-0.053923812 0.067546666 0.59600002 14507815
-0.054914284 0.070266664 0.62 14968366
-0.053646669 0.070153333 0.61900002 13917536
-0.05238286 0.07004001 0.61800003 14443880
-0.051040005 0.069813341 0.61600006 13786746
-0.049866669 0.069813341 0.61600006 13655160
-0.04869334 0.069813341 0.61600006 13654910
-0.047520004 0.069813341 0.61600006 13589117
-0.046346672 0.069813341 0.61600006 13587586
-0.045173336 0.069813341 0.61600006 13127035
-0.044000003 0.069813341 0.61600006 13389183
-0.042826667 0.069813341 0.61600006 14178699
-0.041653335 0.069813341 0.61600006 12342405
-0.040480006 0.069813341 0.61600006 11947647
-0.03924286 0.069699995 0.61500001 10907068
-0.038071431 0.069699995 0.61500001 12025549
-0.036899999 0.069699995 0.61500001 10520271
-0.03572857 0.069699995 0.61500001 9335997
-0.034500953 0.069586664 0.61400002 9664726
-0.033331428 0.069586664 0.61400002 9730519
-0.032161906 0.069586664 0.61400002 9733333
-0.030992381 0.069586664 0.61400002 10193884
-0.029871428 0.069699995 0.61500001 10850769
-0.0287 0.069699995 0.61500001 12561387
-0.027528571 0.069699995 0.61500001 10590138
-0.026357144 0.069699995 0.61500001 10195380
-0.025226669 0.069813341 0.61600006 9673961
-0.024053335 0.069813341 0.61600006 8752859
-0.022842858 0.069699995 0.61500001 9210859
-0.02163619 0.069586664 0.61400002 8684515
-0.020433335 0.069473341 0.61300004 12949962
-0.019234287 0.069360003 0.61200005 16769023
-0.018009523 0.069133334 0.61000001 16306867
-0.01684762 0.069133334 0.61000001 10056532
-0.11482286 0.070525721 0.61200005 10651525
-0.11365715 0.070525721 0.61200005 11432555
-0.11285906 0.070756197 0.61400002 10511453
-0.11168952 0.070756197 0.61400002 10966389
-0.11052001 0.070756197 0.61400002 9453150
-0.10935047 0.070756197 0.61400002 9517921
-0.10818096 0.070756197 0.61400002 9978472
-0.10701144 0.070756197 0.61400002 10177155
-0.1058419 0.070756197 0.61400002 10571913
-0.10450191 0.070640959 0.61300004 10965913
-0.10333429 0.070640959 0.61300004 10505362
-0.10216668 0.070640959 0.61300004 9845642
-0.10083429 0.070525721 0.61200005 9385091
-0.099668577 0.070525721 0.61200005 9452130
-0.098502867 0.070525721 0.61200005 9386337
-0.097337149 0.070525721 0.61200005 9777019
-0.096171439 0.070525721 0.61200005 9645433
-0.095160954 0.070640959 0.61300004 10823075
-0.094146669 0.070756197 0.61400002 12533693
-0.092977151 0.070756197 0.61400002 12670628
-0.0916581 0.070640959 0.61300004 12539042
-0.090490483 0.070640959 0.61300004 12207787
-0.089468569 0.070756197 0.61400002 12141994
-0.088299051 0.070756197 0.61400002 12537279
-0.087129526 0.070756197 0.61400002 13195209
-0.085960001 0.070756197 0.61400002 13127911
-0.084652379 0.070640959 0.61300004 12206809
-0.083484761 0.070640959 0.61300004 12932205
-0.082317151 0.070640959 0.61300004 12932205
-0.081017151 0.070525721 0.61200005 13653086
-0.077633336 0.068566665 0.59500003 14047844
-0.076371431 0.068451434 0.59400004 14113593
-0.075113341 0.068336196 0.59300005 13916214
-0.073983818 0.068336196 0.59300005 13915167
-0.073100001 0.068566665 0.59500003 14112546
-0.07196667 0.068566665 0.59500003 13915442
-0.070833333 0.068566665 0.59500003 13718063
-0.069700003 0.068566665 0.59500003 13783340
-0.068566665 0.068566665 0.59500003 13849133
-0.067546666 0.068681911 0.59600002 13982246
-0.066411428 0.068681911 0.59600002 13982246
-0.065385714 0.068797141 0.597 13916707
-0.064248569 0.068797141 0.597 13916707
-0.063111424 0.068797141 0.597 13851171
-0.061974283 0.068797141 0.597 13851171
-0.060837142 0.068797141 0.597 13915676
-0.059599999 0.068681911 0.59600002 13981469
-0.058464762 0.068681911 0.59600002 14112016
-0.057233334 0.068566665 0.59500003 13914637
-0.056100003 0.068566665 0.59500003 14242830
-0.05496667 0.068566665 0.59500003 14308623
-0.053923812 0.068681911 0.59600002 14177557
-0.052788571 0.068681911 0.59600002 14835487
-0.053560004 0.071217142 0.61800003 14048327
-0.05238286 0.071217142 0.61800003 14114120
-0.051040005 0.070986666 0.61600006 13655151
-0.049785715 0.070871428 0.61500001 13589358
-0.048614286 0.070871428 0.61500001 13523819
-0.047442857 0.070871428 0.61500001 13523819
-0.046271428 0.070871428 0.61500001 13589110
-0.0451 0.070871428 0.61500001 12865387
-0.043928571 0.070871428 0.61500001 13389428
-0.042757142 0.070871428 0.61500001 14113151
-0.041585714 0.070871428 0.61500001 12345210
-0.040414285 0.070871428 0.61500001 12213624
-0.03924286 0.070871428 0.61500001 10056594
-0.038009524 0.070756197 0.61400002 10648731
-0.036840003 0.070756197 0.61400002 9667517
-0.035670478 0.070756197 0.61400002 8549036
-0.034444764 0.070640959 0.61300004 8612781
-0.033277143 0.070640959 0.61300004 8875953
-0.032109525 0.070640959 0.61300004 9206684
-0.030992381 0.070756197 0.61400002 9469856
-0.029822858 0.070756197 0.61400002 10060439
-0.028653333 0.070756197 0.61400002 11442092
-0.027483812 0.070756197 0.61400002 9933964
-0.026357144 0.070871428 0.61500001 9539206
-0.025185714 0.070871428 0.61500001 8493225
-0.024014285 0.070871428 0.61500001 7703709
-0.022805715 0.070756197 0.61400002 8292766
-0.021600954 0.070640959 0.61300004 8161180
-0.020400003 0.070525721 0.61200005 12225669
-0.019202856 0.070410475 0.611 16767442
-0.017980002 0.070179999 0.60900003 16306879
-0.016764762 0.06994953 0.60700005 9267028
-0.015608573 0.06994953 0.60700005 9923354
-0.11463524 0.071574286 0.611 10716804
-0.11347143 0.071574286 0.611 11232114
-0.11267524 0.071808569 0.61300004 10639977
-0.11150762 0.071808569 0.61300004 10965851
-0.11034001 0.071808569 0.61300004 11360609
-0.10917238 0.071808569 0.61300004 11301226
-0.10782858 0.071691439 0.61200005 11893363
-0.10666286 0.071691439 0.61200005 12882354
-0.10549715 0.071691439 0.61200005 13079733
-0.10433144 0.071691439 0.61200005 12947923
-0.10316572 0.071691439 0.61200005 13013716
-0.10200001 0.071691439 0.61200005 11102693
-0.10083429 0.071691439 0.61200005 10378970
-0.099505715 0.071574286 0.611 10380193
-0.098341905 0.071574286 0.611 11827639
-0.097337149 0.071691439 0.61200005 13608889
-0.096171439 0.071691439 0.61200005 14924749
-0.095005721 0.071691439 0.61200005 14726396
-0.093993343 0.071808569 0.61300004 12555227
-0.092825718 0.071808569 0.61300004 15058913
-0.0916581 0.071808569 0.61300004 16506359
-0.090490483 0.071808569 0.61300004 16309759
-0.089322865 0.071808569 0.61300004 16243966
-0.08815524 0.071808569 0.61300004 16508159
-0.086987622 0.071808569 0.61300004 16772607
-0.085820004 0.071808569 0.61300004 16643071
-0.08451429 0.071691439 0.61200005 8616325
-0.08334858 0.071691439 0.61200005 11742302
-0.082182862 0.071691439 0.61200005 13847678
-0.081017151 0.071691439 0.61200005 13785677
-0.077633336 0.069700003 0.59500003 13917263
-0.076371431 0.069582857 0.59400004 13916714
-0.075113341 0.069465719 0.59300005 13850921
-0.073983818 0.069465719 0.59300005 13849635
-0.072854295 0.069465719 0.59300005 14178600
-0.071724765 0.069465719 0.59300005 13850662
-0.070595242 0.069465719 0.59300005 13653283
-0.069582857 0.069582857 0.59400004 13718572
-0.068451434 0.069582857 0.59400004 13718572
-0.067433335 0.069700003 0.59500003 13850912
-0.066300005 0.069700003 0.59500003 13850912
-0.065276191 0.069817141 0.59600002 13851171
-0.064140953 0.069817141 0.59600002 13719585
-0.063005716 0.069817141 0.59600002 13851164
-0.061870478 0.069817141 0.59600002 13982750
-0.060633339 0.069700003 0.59500003 13915676
-0.059500001 0.069700003 0.59500003 13718297
-0.058366671 0.069700003 0.59500003 13980419
-0.057137147 0.069582857 0.59400004 14506763
-0.056005716 0.069582857 0.59400004 14244370
-0.05487429 0.069582857 0.59400004 14244370
-0.05374286 0.069582857 0.59400004 14309153
-0.052700002 0.069700003 0.59500003 14374946
-0.053560004 0.072394289 0.61800003 13916201
-0.052213337 0.072160006 0.61600006 14771510
-0.051040005 0.072160006 0.61600006 14773867
-0.049785715 0.07204286 0.61500001 14510695
-0.048614286 0.07204286 0.61500001 14443873
-0.047365714 0.071925715 0.61400002 14509666
-0.046120953 0.071808569 0.61300004 14179957
-0.044953335 0.071808569 0.61300004 14179957
-0.043785717 0.071808569 0.61300004 13653622
-0.0426181 0.071808569 0.61300004 13982587
-0.041450478 0.071808569 0.61300004 12410744
-0.040282857 0.071808569 0.61300004 12015986
-0.039115239 0.071808569 0.61300004 10314070
-0.037947621 0.071808569 0.61300004 10643035
-0.036780003 0.071808569 0.61300004 11040161
-0.035612382 0.071808569 0.61300004 11303333
-0.034444764 0.071808569 0.61300004 11500683
-0.033277143 0.071808569 0.61300004 11632269
-0.032109525 0.071808569 0.61300004 11501685
-0.030941907 0.071808569 0.61300004 11633271
-0.029774288 0.071808569 0.61300004 11830900
-0.028606668 0.071808569 0.61300004 12752002
-0.027439049 0.071808569 0.61300004 12952410
-0.026314287 0.071925715 0.61400002 13018203
-0.025144761 0.071925715 0.61400002 13545814
-0.023936192 0.071808569 0.61300004 13677400
-0.022768572 0.071808569 0.61300004 13806958
-0.021530475 0.071574286 0.611 13477993
-0.020366667 0.071574286 0.611 15181656
-0.01917143 0.07145714 0.61000001 16766599
-0.017980002 0.071340002 0.60900003 16107437
-0.016764762 0.071105719 0.60700005 7685933
-0.015608573 0.071105719 0.60700005 9460814
-0.11463524 0.072738096 0.611 10584446
-0.11347143 0.072738096 0.611 11756380
-0.11249144 0.072857149 0.61200005 11295829
-0.11132572 0.072857149 0.61200005 11093043
-0.10998 0.072738096 0.611 14382693
-0.10881619 0.072738096 0.611 12223691
-0.10765238 0.072738096 0.611 14526446
-0.10648857 0.072738096 0.611 14004988
-0.10532477 0.072738096 0.611 13149679
-0.10416096 0.072738096 0.611 12424691
-0.10282857 0.072619043 0.61000001 12161519
-0.10166667 0.072619043 0.61000001 11239651
-0.10050476 0.072619043 0.61000001 11634409
-0.09934286 0.072619043 0.61000001 13541114
-0.098341905 0.072738096 0.611 14264831
-0.097178094 0.072738096 0.611 14072575
-0.096014284 0.072738096 0.611 14664703
-0.094850481 0.072738096 0.611 15721215
-0.093840003 0.072857149 0.61200005 13550046
-0.092674293 0.072857149 0.61200005 13158911
-0.091508575 0.072857149 0.61200005 14211583
-0.090342864 0.072857149 0.61200005 14803199
-0.089177154 0.072857149 0.61200005 14211065
-0.088011436 0.072857149 0.61200005 14868732
-0.086845718 0.072857149 0.61200005 16447743
-0.08568 0.072857149 0.61200005 16644607
-0.084376194 0.072738096 0.611 8946826
-0.083212383 0.072738096 0.611 10554444
-0.082182862 0.072857149 0.61200005 13712508
-0.081017151 0.072857149 0.61200005 13784896
-0.077502862 0.070714295 0.59400004 13850689
-0.076114282 0.070476189 0.59200001 13784624
-0.074986666 0.070476189 0.59200001 13653038
-0.073983818 0.070595242 0.59300005 13719839
-0.072731428 0.070476189 0.59200001 13917218
-0.071603805 0.070476189 0.59200001 13785126
-0.070476189 0.070476189 0.59200001 13653540
-0.069465719 0.070595242 0.59300005 13718572
-0.068336196 0.070595242 0.59300005 13718572
-0.067206673 0.070595242 0.59300005 13653531
-0.066300005 0.070833333 0.59500003 13982496
-0.065276191 0.070952378 0.59600002 13785398
-0.064033337 0.070833333 0.59500003 13653812
-0.062900007 0.070833333 0.59500003 13719844
-0.06166286 0.070714295 0.59400004 13719844
-0.060531434 0.070714295 0.59400004 13850137
-0.059300005 0.070595242 0.59300005 13784344
-0.058170483 0.070595242 0.59300005 13783821
-0.057040956 0.070595242 0.59300005 14441751
-0.055911433 0.070595242 0.59300005 14113573
-0.054781906 0.070595242 0.59300005 14113573
-0.053652387 0.070595242 0.59300005 14375455
-0.05252286 0.070595242 0.59300005 14243869
-0.053560004 0.073571429 0.61800003 13979416
-0.052128572 0.073214285 0.61500001 15953206
-0.050874289 0.07309524 0.61400002 15497338
-0.049623813 0.072976194 0.61300004 15234166
-0.048456192 0.072976194 0.61300004 15429226
-0.047288574 0.072976194 0.61300004 15166054
-0.046045717 0.072857149 0.61200005 14904424
-0.044880003 0.072857149 0.61200005 14772838
-0.043714289 0.072857149 0.61200005 14181999
-0.042548575 0.072857149 0.61200005 14445171
-0.04138286 0.072857149 0.61200005 13400951
-0.040217146 0.072857149 0.61200005 11361368
-0.038987618 0.072738096 0.611 11360072
-0.037823807 0.072738096 0.611 11952209
-0.036660001 0.072738096 0.611 12216186
-0.03549619 0.072738096 0.611 12676737
-0.034388572 0.072857149 0.61200005 13730179
-0.033222858 0.072857149 0.61200005 14190730
-0.032057147 0.072857149 0.61200005 14061193
-0.03089143 0.072857149 0.61200005 13995400
-0.029725716 0.072857149 0.61200005 14391679
-0.028560003 0.072857149 0.61200005 14260093
-0.027394287 0.072857149 0.61200005 14982010
-0.026271429 0.072976194 0.61300004 15179389
-0.025062859 0.072857149 0.61200005 15838314
-0.023897145 0.072857149 0.61200005 15904107
-0.022694286 0.072738096 0.611 15837796
-0.021495238 0.072619043 0.61000001 15706210
-0.020333333 0.072619043 0.61000001 15837285
-0.01917143 0.072619043 0.61000001 16759158
-0.017980002 0.072499998 0.60900003 16038063
-0.016737143 0.072142854 0.60600001 8603454
-0.015582857 0.072142854 0.60600001 9657344
-0.11463524 0.073901907 0.611 10452347
-0.11347143 0.073901907 0.611 11558482
-0.11230762 0.073901907 0.611 10834759
-0.11114381 0.073901907 0.611 10505279
-0.10998 0.073901907 0.611 15110789
-0.10881619 0.073901907 0.611 13148927
-0.10765238 0.073901907 0.611 14530559
-0.10631429 0.073780954 0.61000001 14466815
-0.10515238 0.073780954 0.61000001 14203647
-0.10399048 0.073780954 0.61000001 15062527
-0.10266001 0.073660001 0.60900003 15325695
-0.1015 0.073660001 0.60900003 15260159
-0.10034 0.073660001 0.60900003 15983871
-0.099180005 0.073660001 0.60900003 13745663
-0.098020002 0.073660001 0.60900003 13285119
-0.096859999 0.073660001 0.60900003 13088255
-0.095857143 0.073780954 0.61000001 13483007
-0.09469524 0.073780954 0.61000001 14472959
-0.09368667 0.073901907 0.611 9472694
-0.09252286 0.073901907 0.611 7829503
-0.091359049 0.073901907 0.611 8158463
-0.09004762 0.073780954 0.61000001 9869567
-0.088885717 0.073780954 0.61000001 8751093
-0.087867618 0.073901907 0.611 9472506
-0.086561903 0.073780954 0.61000001 15064831
-0.085400008 0.073780954 0.61000001 16643326
-0.084238097 0.073780954 0.61000001 10327198
-0.083076194 0.073780954 0.61000001 11472235
-0.081914283 0.073780954 0.61000001 13840783
-0.07850191 0.071724765 0.59300005 13389357
-0.077372387 0.071724765 0.59300005 13981494
-0.075985715 0.071482852 0.59100002 13785632
-0.074860007 0.071482852 0.59100002 13654046
-0.073859051 0.071603805 0.59200001 13718813
-0.072608575 0.071482852 0.59100002 13981985
-0.071482852 0.071482852 0.59100002 13785119
-0.070357144 0.071482852 0.59100002 13521947
-0.069348574 0.071603805 0.59200001 13587231
-0.068105713 0.071482852 0.59100002 13718817
-0.066980004 0.071482852 0.59100002 13653024
-0.065854289 0.071482852 0.59100002 13916196
-0.064728573 0.071482852 0.59100002 13850689
-0.063710481 0.071603805 0.59200001 13653310
-0.062477149 0.071482852 0.59100002 13718572
-0.061351426 0.071482852 0.59100002 13784365
-0.060327619 0.071603805 0.59200001 13784356
-0.059099998 0.071482852 0.59100002 13850149
-0.057974286 0.071482852 0.59100002 13981217
-0.056944761 0.071603805 0.59200001 14310182
-0.055817142 0.071603805 0.59200001 14179373
-0.054689523 0.071603805 0.59200001 14047787
-0.053561907 0.071603805 0.59200001 14375455
-0.05252286 0.071724765 0.59300005 14243869
-0.053560004 0.074748576 0.61800003 14243863
-0.052128572 0.074385718 0.61500001 15428137
-0.050791427 0.074143812 0.61300004 15429739
-0.049542859 0.074022859 0.61200005 16751510
-0.048298094 0.073901907 0.611 15901596
-0.047134288 0.073901907 0.611 15704217
-0.046045717 0.074022859 0.61200005 15766924
-0.044880003 0.074022859 0.61200005 15701131
-0.043714289 0.074022859 0.61200005 15635066
-0.042548575 0.074022859 0.61200005 15174515
-0.041247621 0.073780954 0.61000001 15241096
-0.040085714 0.073780954 0.61000001 15701647
-0.038923811 0.073780954 0.61000001 15047059
-0.037761904 0.073780954 0.61000001 14586508
-0.036540002 0.073660001 0.60900003 14716041
-0.035380002 0.073660001 0.60900003 14584455
-0.034276191 0.073780954 0.61000001 15243649
-0.033114284 0.073780954 0.61000001 16230544
-0.031952381 0.073780954 0.61000001 15771559
-0.030790478 0.073780954 0.61000001 15442594
-0.029628571 0.073780954 0.61000001 15245709
-0.028466668 0.073780954 0.61000001 14850951
-0.027304761 0.073780954 0.61000001 15112063
-0.026185716 0.073901907 0.611 14519926
-0.024980953 0.073780954 0.61000001 15044927
-0.023819048 0.073780954 0.61000001 15110720
-0.022657143 0.073780954 0.61000001 14978089
-0.02146 0.073660001 0.60900003 14846503
-0.020300001 0.073660001 0.60900003 15636519
-0.01914 0.073660001 0.60900003 16755771
-0.017950477 0.073539048 0.60800004 15901596
-0.016737143 0.073297143 0.60600001 8203815
-0.015582857 0.073297143 0.60600001 8467968
-0.11426 0.074820004 0.60900003 10254459
-0.1131 0.074820004 0.60900003 11754067
-0.11194 0.074820004 0.60900003 11030344
-0.11096191 0.074942857 0.61000001 9063251
-0.1098 0.074942857 0.61000001 13405589
-0.10863809 0.074942857 0.61000001 10326271
-0.10712382 0.074697152 0.60800004 12365823
-0.10596572 0.074697152 0.60800004 13683199
-0.10480762 0.074697152 0.60800004 13551615
-0.10382 0.074820004 0.60900003 14407167
-0.10266001 0.074820004 0.60900003 14209791
-0.1015 0.074820004 0.60900003 14408191
-0.10017524 0.074697152 0.60800004 14605567
-0.099017151 0.074697152 0.60800004 11317503
-0.097859055 0.074697152 0.60800004 9146343
-0.096700951 0.074697152 0.60800004 9474036
-0.095700003 0.074820004 0.60900003 11776767
-0.094540007 0.074820004 0.60900003 14079743
-0.093380004 0.074820004 0.60900003 9474236
-0.092371434 0.074942857 0.61000001 6715126
-0.091209523 0.074942857 0.61000001 7438847
-0.09004762 0.074942857 0.61000001 10197502
-0.088885717 0.074942857 0.61000001 9605365
-0.087723807 0.074942857 0.61000001 9801952
-0.086561903 0.074942857 0.61000001 14736383
-0.085400008 0.074942857 0.61000001 16709119
-0.083961904 0.074697152 0.60800004 10392991
-0.082803816 0.074697152 0.60800004 12725084
-0.08164572 0.074697152 0.60800004 13383014
-0.078237146 0.072608575 0.59100002 13454375
-0.07711143 0.072608575 0.59100002 14309684
-0.075985715 0.072608575 0.59100002 13982239
-0.074860007 0.072608575 0.59100002 13916446
-0.073734291 0.072608575 0.59100002 13850900
-0.072608575 0.072608575 0.59100002 13982486
-0.071361914 0.072485715 0.59000003 13850401
-0.070238099 0.072485715 0.59000003 13718815
-0.069231428 0.072608575 0.59100002 13718813
-0.068105713 0.072608575 0.59100002 13718813
-0.066980004 0.072608575 0.59100002 13719326
-0.065742865 0.072485715 0.59000003 13785119
-0.064619049 0.072485715 0.59000003 13785632
-0.063602857 0.072608575 0.59100002 13785632
-0.062477149 0.072608575 0.59100002 13718563
-0.061351426 0.072608575 0.59100002 13718563
-0.060123812 0.072485715 0.59000003 13850401
-0.059000004 0.072485715 0.59000003 13981987
-0.057876196 0.072485715 0.59000003 14047778
-0.056848574 0.072608575 0.59100002 14047778
-0.055722859 0.072608575 0.59100002 14113071
-0.054597147 0.072608575 0.59100002 14113071
-0.053561907 0.072731428 0.59200001 14308901
-0.052700002 0.073100001 0.59500003 14506280
-0.051566672 0.073100001 0.59500003 14374696
-0.051959049 0.07531143 0.61300004 14506282
-0.050791427 0.07531143 0.61300004 15162436
-0.049461905 0.075065717 0.611 16749435
-0.048219047 0.074942857 0.61000001 15902109
-0.047057141 0.074942857 0.61000001 15441558
-0.045895241 0.074942857 0.61000001 15701642
-0.044733334 0.074942857 0.61000001 15504263
-0.043571427 0.074942857 0.61000001 15699848
-0.042339999 0.074820004 0.60900003 15107711
-0.041180003 0.074820004 0.60900003 15633008
-0.040020004 0.074820004 0.60900003 16619903
-0.038860001 0.074820004 0.60900003 15901614
-0.037700001 0.074820004 0.60900003 15243684
-0.036540002 0.074820004 0.60900003 15700620
-0.035380002 0.074820004 0.60900003 15700620
-0.034219999 0.074820004 0.60900003 15832745
-0.033005714 0.074697152 0.60800004 16359089
-0.031847622 0.074697152 0.60800004 15901609
-0.030689526 0.074697152 0.60800004 15835816
-0.029531429 0.074697152 0.60800004 15703467
-0.028420001 0.074820004 0.60900003 15111330
-0.02726 0.074820004 0.60900003 15438991
-0.026142858 0.074942857 0.61000001 14715268
-0.024980953 0.074942857 0.61000001 15042897
-0.023780001 0.074820004 0.60900003 14648139
-0.022620002 0.074820004 0.60900003 14777639
-0.02146 0.074820004 0.60900003 14646053
-0.020300001 0.074820004 0.60900003 15368253
-0.019108573 0.074697152 0.60800004 16750677
-0.017920954 0.074574292 0.60700005 15768983
-0.016737143 0.074451432 0.60600001 8531753
-0.015582857 0.074451432 0.60600001 8130816
-0.11523048 0.07585524 0.60800004 12425369
-0.11407239 0.07585524 0.60800004 10122614
-0.11291429 0.07585524 0.60800004 11619413
-0.1117562 0.07585524 0.60800004 11290448
-0.1105981 0.07585524 0.60800004 10835828
-0.10944001 0.07585524 0.60800004 16761567
-0.10828191 0.07585524 0.60800004 14012926
-0.10712382 0.07585524 0.60800004 7696798
-0.10579143 0.07573048 0.60700005 5530845
-0.10463525 0.07573048 0.60700005 5136087
-0.10364953 0.07585524 0.60800004 6182120
-0.10249143 0.07585524 0.60800004 5458397
-0.10133334 0.07585524 0.60800004 6773480
-0.10017524 0.07585524 0.60800004 12760575
-0.099017151 0.07585524 0.60800004 12040650
-0.097859055 0.07585524 0.60800004 7961484
-0.096700951 0.07585524 0.60800004 8817878
-0.095542863 0.07585524 0.60800004 10923254
-0.094384767 0.07585524 0.60800004 12171519
-0.093226671 0.07585524 0.60800004 10460908
-0.092068575 0.07585524 0.60800004 9540351
-0.090910487 0.07585524 0.60800004 11908863
-0.089752384 0.07585524 0.60800004 13881086
-0.088594295 0.07585524 0.60800004 14670591
-0.087436199 0.07585524 0.60800004 14999295
-0.086278096 0.07585524 0.60800004 15459839
-0.085120007 0.07585524 0.60800004 16573951
-0.083961904 0.07585524 0.60800004 10257823
-0.082803816 0.07585524 0.60800004 11931225
-0.08164572 0.07585524 0.60800004 13905015
-0.078237146 0.073734291 0.59100002 13386797
-0.07711143 0.073734291 0.59100002 14505278
-0.07585714 0.073609523 0.59000003 13982738
-0.074733332 0.073609523 0.59000003 13851152
-0.073734291 0.073734291 0.59100002 13850900
-0.072485715 0.073609523 0.59000003 13916693
-0.071361914 0.073609523 0.59000003 13850912
-0.070238099 0.073609523 0.59000003 13785119
-0.06911429 0.073609523 0.59000003 13784606
-0.067990482 0.073609523 0.59000003 13784606
-0.066866674 0.073609523 0.59000003 13654301
-0.065742865 0.073609523 0.59000003 13588508
-0.064619049 0.073609523 0.59000003 13589254
-0.063495241 0.073609523 0.59000003 13984012
-0.062371433 0.073609523 0.59000003 13851171
-0.061143812 0.073484764 0.58900005 13653792
-0.060021911 0.073484764 0.58900005 13850401
-0.058900002 0.073484764 0.58900005 13981987
-0.057778098 0.073484764 0.58900005 14113309
-0.056752384 0.073609523 0.59000003 14179102
-0.055628575 0.073609523 0.59000003 14242856
-0.054504763 0.073609523 0.59000003 14308649
-0.053471427 0.073734291 0.59100002 14308138
-0.052345715 0.073734291 0.59100002 14505517
-0.05122 0.073734291 0.59100002 13779779
-0.051620003 0.075980008 0.60900003 12003368
-0.05046 0.075980008 0.60900003 13972270
-0.049300004 0.075980008 0.60900003 16603990
-0.048060957 0.07585524 0.60800004 15363172
-0.046902861 0.07585524 0.60800004 15889516
-0.045744762 0.07585524 0.60800004 15497318
-0.04458667 0.07585524 0.60800004 15563111
-0.043428574 0.07585524 0.60800004 15498342
-0.042339999 0.075980008 0.60900003 15629928
-0.041112382 0.07585524 0.60800004 15500620
-0.03995429 0.07585524 0.60800004 15961171
-0.038796194 0.07585524 0.60800004 15371163
-0.037638098 0.07585524 0.60800004 14384268
-0.036480002 0.07585524 0.60800004 14841467
-0.035321906 0.07585524 0.60800004 15762569
-0.03416381 0.07585524 0.60800004 15502263
-0.032951429 0.07573048 0.60700005 16094400
-0.031795241 0.07573048 0.60700005 15571879
-0.030689526 0.07585524 0.60800004 15835051
-0.029531429 0.07585524 0.60800004 15637181
-0.028326668 0.07573048 0.60700005 14847665
-0.027170479 0.07573048 0.60700005 14515611
-0.0261 0.075980008 0.60900003 14120853
-0.024940001 0.075980008 0.60900003 14119769
-0.023701908 0.07573048 0.60700005 14053976
-0.022545716 0.07573048 0.60700005 14447171
-0.021354286 0.075605713 0.60600001 14512964
-0.020200001 0.075605713 0.60600001 14973765
-0.019077145 0.07573048 0.60700005 16026453
-0.017920954 0.07573048 0.60700005 15110005
-0.016737143 0.075605713 0.60600001 9386014
-0.015582857 0.075605713 0.60600001 8924160
-0.11523048 0.077013336 0.60800004 12424858
-0.11407239 0.077013336 0.60800004 9924724
-0.11291429 0.077013336 0.60800004 11810854
-0.1117562 0.077013336 0.60800004 11416096
-0.1105981 0.077013336 0.60800004 10966272
-0.10926001 0.076886676 0.60700005 16767355
-0.10810382 0.076886676 0.60700005 14738687
-0.10694763 0.076886676 0.60700005 7369872
-0.10579143 0.076886676 0.60700005 1135859
-0.10463525 0.076886676 0.60700005 1530617
-0.10347905 0.076886676 0.60700005 3486163
-0.10232287 0.076886676 0.60700005 4867816
-0.10116667 0.076886676 0.60700005 5915330
-0.10001048 0.076886676 0.60700005 13218303
-0.098854296 0.076886676 0.60700005 13093362
-0.097537145 0.076760001 0.60600001 9408954
-0.096382856 0.076760001 0.60600001 9016011
-0.095385723 0.076886676 0.60700005 9937113
-0.094074287 0.076760001 0.60600001 11580148
-0.092919998 0.076760001 0.60600001 10330081
-0.091765717 0.076760001 0.60600001 9605111
-0.090760961 0.076886676 0.60700005 12105215
-0.089604765 0.076886676 0.60700005 14143231
-0.088302858 0.076760001 0.60600001 15130111
-0.087148577 0.076760001 0.60600001 15459839
-0.0861362 0.076886676 0.60700005 14143980
-0.084980011 0.076886676 0.60700005 15122165
-0.083823815 0.076886676 0.60700005 9595553
-0.082667626 0.076886676 0.60700005 12065297
-0.08151143 0.076886676 0.60700005 13775915
-0.07797239 0.074606672 0.58900005 13452579
-0.076850481 0.074606672 0.58900005 14571060
-0.075599998 0.074480005 0.588 13916695
-0.074480005 0.074480005 0.588 13916695
-0.073359996 0.074480005 0.588 13784606
-0.072362863 0.074606672 0.58900005 13718813
-0.071240962 0.074606672 0.58900005 13719587
-0.070119053 0.074606672 0.58900005 13785380
-0.068997145 0.074606672 0.58900005 13785632
-0.067759998 0.074480005 0.588 13785632
-0.066639997 0.074480005 0.588 13522448
-0.065519996 0.074480005 0.588 13719827
-0.064400002 0.074480005 0.588 13721101
-0.063280001 0.074480005 0.588 13786894
-0.062159996 0.074480005 0.588 13851684
-0.061040003 0.074480005 0.588 13654305
-0.059919998 0.074480005 0.588 13850137
-0.058800001 0.074480005 0.588 14179102
-0.05768 0.074480005 0.588 14113309
-0.056656197 0.074606672 0.58900005 14047516
-0.055534288 0.074606672 0.58900005 14308399
-0.054412384 0.074606672 0.58900005 14308399
-0.053471427 0.074860007 0.59100002 14373163
-0.052345715 0.074860007 0.59100002 14438956
-0.050294291 0.076886676 0.60700005 13844761
-0.049138099 0.076886676 0.60700005 16015930
-0.047981907 0.076886676 0.60700005 15228515
-0.046825718 0.076886676 0.60700005 15162722
-0.045669526 0.076886676 0.60700005 15429478
-0.044513334 0.076886676 0.60700005 15626857
-0.043357149 0.076886676 0.60700005 15364971
-0.042270478 0.077013336 0.60800004 15759729
-0.041112382 0.077013336 0.60800004 14974049
-0.039888576 0.076886676 0.60700005 13066052
-0.038732383 0.076886676 0.60700005 13457496
-0.037576191 0.076886676 0.60700005 13260117
-0.036420003 0.076886676 0.60700005 13984585
-0.035263814 0.076886676 0.60700005 14774101
-0.034051429 0.076760001 0.60600001 15106465
-0.032897141 0.076760001 0.60600001 15895981
-0.03174286 0.076760001 0.60600001 15308991
-0.030588571 0.076760001 0.60600001 15703749
-0.029434286 0.076760001 0.60600001 15506633
-0.028279999 0.076760001 0.60600001 14585531
-0.027125714 0.076760001 0.60600001 14252939
-0.025971429 0.076760001 0.60600001 13397630
-0.024817143 0.076760001 0.60600001 14119767
-0.023662858 0.076760001 0.60600001 14053974
-0.022508573 0.076760001 0.60600001 14250310
-0.021354286 0.076760001 0.60600001 14184517
-0.020200001 0.076760001 0.60600001 14511429
-0.019045714 0.076760001 0.60600001 16485219
-0.017891428 0.076760001 0.60600001 15175809
-0.016737143 0.076760001 0.60600001 9122853
-0.11272858 0.078042865 0.60700005 13270631
-0.11157238 0.078042865 0.60700005 12086357
-0.11023428 0.077914283 0.60600001 12287267
-0.10908 0.077914283 0.60600001 16771471
-0.10792571 0.077914283 0.60600001 16250108
-0.10677142 0.077914283 0.60600001 13289423
-0.10561714 0.077914283 0.60600001 13225471
-0.10446286 0.077914283 0.60600001 11909617
-0.10330857 0.077914283 0.60600001 12103679
-0.10215428 0.077914283 0.60600001 13551103
-0.101 0.077914283 0.60600001 12363263
-0.099516191 0.077657141 0.60400003 12297471
-0.098365717 0.077657141 0.60400003 12034030
-0.097215243 0.077657141 0.60400003 10323412
-0.096064761 0.077657141 0.60400003 10059959
-0.094757155 0.077528574 0.60300004 8875685
-0.093608581 0.077528574 0.60300004 11505307
-0.092460006 0.077528574 0.60300004 12755374
-0.091311432 0.077528574 0.60300004 12687597
-0.090162858 0.077528574 0.60300004 14332415
-0.089014292 0.077528574 0.60300004 13672441
-0.087865725 0.077528574 0.60300004 12948718
-0.086717151 0.077528574 0.60300004 10967524
-0.085710481 0.077657141 0.60400003 9717457
-0.084559999 0.077657141 0.60400003 11355489
-0.083685718 0.077914283 0.60600001 10894938
-0.082667626 0.078042865 0.60700005 12400386
-0.078691438 0.075342856 0.58600003 13058316
-0.077575237 0.075342856 0.58600003 13453092
-0.07645905 0.075342856 0.58600003 14505780
-0.075599998 0.075599998 0.588 14178838
-0.07435333 0.075471431 0.58700001 14178838
-0.073235244 0.075471431 0.58700001 13915944
-0.072239995 0.075599998 0.588 13850151
-0.071120001 0.075599998 0.588 13783854
-0.07 0.075599998 0.588 13718061
-0.068879999 0.075599998 0.588 13785632
-0.067759998 0.075599998 0.588 14246183
-0.066639997 0.075599998 0.588 13785877
-0.065408573 0.075471431 0.58700001 13851670
-0.064180948 0.075342856 0.58600003 13785877
-0.063064761 0.075342856 0.58600003 13785877
-0.061948575 0.075342856 0.58600003 13851171
-0.06093619 0.075471431 0.58700001 13719585
-0.059818096 0.075471431 0.58700001 13849111
-0.058800001 0.075599998 0.588 14112283
-0.05768 0.075599998 0.588 14309664
-0.056559999 0.075599998 0.588 14178078
-0.055534288 0.07572858 0.58900005 14439987
-0.054412384 0.07572858 0.58900005 15295296
-0.053290483 0.07572858 0.58900005 14572843
-0.052168574 0.07572858 0.58900005 14309671
-0.05111143 0.077528574 0.60300004 12202815
-0.050045718 0.077657141 0.60400003 13913920
-0.04889524 0.077657141 0.60400003 15558745
-0.047744766 0.077657141 0.60400003 15359863
-0.046594288 0.077657141 0.60400003 14965105
-0.045443811 0.077657141 0.60400003 15294810
-0.044293337 0.077657141 0.60400003 15623775
-0.043142859 0.077657141 0.60400003 15163250
-0.042131428 0.077914283 0.60600001 15426422
-0.040977143 0.077914283 0.60600001 14575476
-0.039822854 0.077914283 0.60600001 13522788
-0.038668573 0.077914283 0.60600001 12798510
-0.037514284 0.077914283 0.60600001 11745822
-0.036359999 0.077914283 0.60600001 12467018
-0.035089526 0.077657141 0.60400003 14967152
-0.033939049 0.077657141 0.60400003 14185372
-0.032788571 0.077657141 0.60400003 15895990
-0.031638097 0.077657141 0.60400003 15637976
-0.030487619 0.077657141 0.60400003 16032734
-0.029337144 0.077657141 0.60400003 15703767
-0.028186668 0.077657141 0.60400003 14716872
-0.027036192 0.077657141 0.60400003 14715032
-0.025971429 0.077914283 0.60600001 13267586
-0.024817143 0.077914283 0.60600001 13922142
-0.023662858 0.077914283 0.60600001 13330005
-0.022508573 0.077914283 0.60600001 13060923
-0.021354286 0.077914283 0.60600001 12797751
-0.020133335 0.077657141 0.60400003 13388103
-0.018982857 0.077657141 0.60400003 15559272
-0.017832382 0.077657141 0.60400003 14054489
-0.016681906 0.077657141 0.60400003 9054221
-0.11180001 0.078546673 0.60200006 14858333
-0.11065334 0.078546673 0.60200006 12752957
-0.11023428 0.079068571 0.60600001 12553472
-0.10872 0.078807622 0.60400003 16771142
-0.10756953 0.078807622 0.60400003 16183272
-0.10641905 0.078807622 0.60400003 14209482
-0.10526858 0.078807622 0.60400003 14209771
-0.10394572 0.078677148 0.60300004 11972809
-0.10279715 0.078677148 0.60300004 11380434
-0.10181715 0.078807622 0.60400003 11314641
-0.10050001 0.078677148 0.60300004 11575001
-0.099351436 0.078677148 0.60300004 10522313
-0.098202862 0.078677148 0.60300004 10975153
-0.097054288 0.078677148 0.60300004 10711981
-0.095905714 0.078677148 0.60300004 11566735
-0.094757155 0.078677148 0.60300004 10711426
-0.09345334 0.078546673 0.60200006 12677752
-0.092306681 0.078546673 0.60200006 13467268
-0.091160007 0.078546673 0.60200006 13730992
-0.09001334 0.078546673 0.60200006 12020374
-0.088866673 0.078546673 0.60200006 12539802
-0.087720007 0.078546673 0.60200006 12145044
-0.08657334 0.078546673 0.60200006 12138126
-0.085426673 0.078546673 0.60200006 12269712
-0.084420003 0.078677148 0.60300004 12531791
-0.083271429 0.078677148 0.60300004 12005447
-0.082122862 0.078677148 0.60300004 12399648
-0.078557149 0.076328576 0.58500004 12202269
-0.077442862 0.076328576 0.58500004 13452336
-0.07645905 0.07645905 0.58600003 14768196
-0.075342856 0.07645905 0.58600003 14375716
-0.07422667 0.07645905 0.58600003 14309923
-0.073110484 0.07645905 0.58600003 14244391
-0.072117142 0.076589525 0.58700001 14178598
-0.070999049 0.076589525 0.58700001 13848611
-0.069880955 0.076589525 0.58700001 14045990
-0.068762861 0.076589525 0.58700001 13916707
-0.06764476 0.076589525 0.58700001 13916707
-0.066413336 0.07645905 0.58600003 13851423
-0.065297149 0.07645905 0.58600003 13851423
-0.064180948 0.07645905 0.58600003 13851922
-0.063064761 0.07645905 0.58600003 13917715
-0.061948575 0.07645905 0.58600003 13916966
-0.06093619 0.076589525 0.58700001 13653794
-0.059818096 0.076589525 0.58700001 13914896
-0.058700003 0.076589525 0.58700001 14112275
-0.057581905 0.076589525 0.58700001 14374433
-0.056463812 0.076589525 0.58700001 14374433
-0.055440001 0.076719999 0.588 14373424
-0.054412384 0.076850481 0.58900005 14965561
-0.053290483 0.076850481 0.58900005 14572870
-0.052168574 0.076850481 0.58900005 13717561
-0.05111143 0.078677148 0.60300004 11807529
-0.04996286 0.078677148 0.60300004 13782332
-0.048814289 0.078677148 0.60300004 15690329
-0.047586668 0.078546673 0.60200006 15163252
-0.046440005 0.078546673 0.60200006 14965873
-0.045368575 0.078677148 0.60300004 15294308
-0.044220004 0.078677148 0.60300004 15228515
-0.04307143 0.078677148 0.60300004 15031664
-0.041992385 0.078807622 0.60400003 15163250
-0.040841907 0.078807622 0.60400003 14575215
-0.03969143 0.078807622 0.60400003 14048871
-0.038540956 0.078807622 0.60400003 13391703
-0.037390478 0.078807622 0.60400003 12141636
-0.03624 0.078807622 0.60400003 12273170
-0.035089526 0.078807622 0.60400003 14707511
-0.03388286 0.078677148 0.60300004 14055060
-0.032734286 0.078677148 0.60300004 15897264
-0.031585716 0.078677148 0.60300004 15441365
-0.030437144 0.078677148 0.60300004 15507158
-0.029288573 0.078677148 0.60300004 15572953
-0.028140003 0.078677148 0.60300004 14717644
-0.027036192 0.078807622 0.60400003 15044013
-0.025885716 0.078807622 0.60400003 13267602
-0.02473524 0.078807622 0.60400003 13921897
-0.023584763 0.078807622 0.60400003 11882314
-0.022434287 0.078807622 0.60400003 12862754
-0.021283811 0.078807622 0.60400003 13060133
-0.020100001 0.078677148 0.60300004 13322801
-0.018951431 0.078677148 0.60300004 15493970
-0.017802857 0.078677148 0.60300004 14054244
-0.016681906 0.078807622 0.60400003 9514527
-0.11390381 0.07956095 0.60100001 11965586
-0.11275905 0.07956095 0.60100001 15715787
-0.11142858 0.079428568 0.60000002 16246336
-0.11028571 0.079428568 0.60000002 16377922
-0.10950667 0.07969334 0.60200006 15850278
-0.10854001 0.079825722 0.60300004 14534418
-0.10739144 0.079825722 0.60300004 14602616
-0.10624287 0.079825722 0.60300004 12826205
-0.10509429 0.079825722 0.60300004 12825464
-0.10394572 0.079825722 0.60300004 10917467
-0.10279715 0.079825722 0.60300004 11372688
-0.10148001 0.07969334 0.60200006 8740968
-0.10033335 0.07969334 0.60200006 10707049
-0.099186674 0.07969334 0.60200006 11101807
-0.098040007 0.07969334 0.60200006 11427666
-0.09689334 0.07969334 0.60200006 10309185
-0.095746674 0.07969334 0.60200006 11424071
-0.094600007 0.07969334 0.60200006 11555657
-0.09345334 0.07969334 0.60200006 12013140
-0.092306681 0.07969334 0.60200006 11684175
-0.091160007 0.07969334 0.60200006 11812436
-0.089863814 0.07956095 0.60100001 11286092
-0.088719048 0.07956095 0.60100001 12075353
-0.087574288 0.07956095 0.60100001 12667490
-0.086429521 0.07956095 0.60100001 12995442
-0.085284762 0.07956095 0.60100001 13390200
-0.084140003 0.07956095 0.60100001 13457224
-0.083271429 0.079825722 0.60300004 12075571
-0.082122862 0.079825722 0.60300004 12072514
-0.078557149 0.077442862 0.58500004 11743549
-0.077442862 0.077442862 0.58500004 12664621
-0.076328576 0.077442862 0.58500004 13519930
-0.075214289 0.077442862 0.58500004 14242580
-0.07410001 0.077442862 0.58500004 14966303
-0.072985716 0.077442862 0.58500004 14441499
-0.07199429 0.077575237 0.58600003 14441499
-0.070878096 0.077575237 0.58600003 14112053
-0.069761902 0.077575237 0.58600003 14177846
-0.068645716 0.077575237 0.58600003 13980465
-0.067529529 0.077575237 0.58600003 13848879
-0.066300005 0.077442862 0.58500004 13915944
-0.065185718 0.077442862 0.58500004 13981737
-0.064180948 0.077575237 0.58600003 13718784
-0.062957145 0.077442862 0.58500004 13718784
-0.061842863 0.077442862 0.58500004 13783829
-0.060728572 0.077442862 0.58500004 13718036
-0.059716195 0.077575237 0.58600003 13715996
-0.058600001 0.077575237 0.58600003 14044961
-0.057483811 0.077575237 0.58600003 14241825
-0.056463812 0.077707618 0.58700001 14965548
-0.055440001 0.07784 0.588 14507302
-0.05432 0.07784 0.588 13783579
-0.053199999 0.07784 0.588 14044477
-0.052079998 0.07784 0.588 13583926
-0.051653333 0.078899048 0.59600002 12928052
-0.051026672 0.07969334 0.60200006 11085848
-0.049880005 0.07969334 0.60200006 13452865
-0.048652381 0.07956095 0.60100001 16018792
-0.047507618 0.07956095 0.60100001 15428477
-0.046362858 0.07956095 0.60100001 15165305
-0.045293339 0.07969334 0.60200006 15296107
-0.044146668 0.07969334 0.60200006 14967142
-0.043000005 0.07969334 0.60200006 15097209
-0.04192286 0.079825722 0.60300004 15228795
-0.04077429 0.079825722 0.60300004 14835820
-0.039625715 0.079825722 0.60300004 15230578
-0.038477149 0.079825722 0.60300004 13983623
-0.037328575 0.079825722 0.60300004 12733556
-0.036180001 0.079825722 0.60300004 12603470
-0.034973338 0.07969334 0.60200006 14379881
-0.033826668 0.07969334 0.60200006 14121621
-0.032680001 0.07969334 0.60200006 14845344
-0.031533338 0.07969334 0.60200006 15111866
-0.03038667 0.07969334 0.60200006 15177659
-0.029191429 0.07956095 0.60100001 15243729
-0.028046668 0.07956095 0.60100001 14717385
-0.027036192 0.079958096 0.60400003 14979233
-0.025842858 0.079825722 0.60300004 13268615
-0.024694288 0.079825722 0.60300004 13790043
-0.023545716 0.079825722 0.60300004 12079425
-0.022397144 0.079825722 0.60300004 12929596
-0.021213336 0.07969334 0.60200006 13324354
-0.020066667 0.07969334 0.60200006 13325124
-0.018920001 0.07969334 0.60200006 13851468
-0.017773336 0.07969334 0.60200006 13132115
-0.11390381 0.080705717 0.60100001 11572611
-0.11275905 0.080705717 0.60100001 15980742
-0.11142858 0.080571435 0.60000002 16247874
-0.11028571 0.080571435 0.60000002 16247874
-0.10914286 0.080571435 0.60000002 16247372
-0.10818 0.080705717 0.60100001 15721028
-0.10703523 0.080705717 0.60100001 15591479
-0.10606667 0.080840006 0.60200006 15591479
-0.10492001 0.080840006 0.60200006 15387807
-0.10377335 0.080840006 0.60200006 13874568
-0.10262667 0.080840006 0.60200006 15182004
-0.10131142 0.080705717 0.60100001 14195109
-0.10016667 0.080705717 0.60100001 14649748
-0.099186674 0.080840006 0.60200006 14386576
-0.098040007 0.080840006 0.60200006 14514628
-0.096732378 0.080705717 0.60100001 14383042
-0.095587619 0.080705717 0.60100001 14447774
-0.094442859 0.080705717 0.60100001 14710946
-0.0932981 0.080705717 0.60100001 14778038
-0.092153333 0.080705717 0.60100001 14975417
-0.091008566 0.080705717 0.60100001 14911132
-0.089714289 0.080571435 0.60000002 14976925
-0.088571429 0.080571435 0.60000002 15304895
-0.08742857 0.080571435 0.60000002 15173309
-0.086429521 0.080705717 0.60100001 15105202
-0.085000955 0.080437146 0.59900004 13855135
-0.08386001 0.080437146 0.59900004 13456995
-0.08271905 0.080437146 0.59900004 11943756
-0.079535246 0.078422867 0.58400005 11610663
-0.078422867 0.078422867 0.58400005 11150112
-0.077310488 0.078422867 0.58400005 12335874
-0.076198101 0.078422867 0.58400005 13191183
-0.075085714 0.078422867 0.58400005 13910797
-0.073973335 0.078422867 0.58400005 15160864
-0.072860956 0.078422867 0.58400005 14572575
-0.07187143 0.078557149 0.58500004 14506782
-0.070757151 0.078557149 0.58500004 14113321
-0.069642864 0.078557149 0.58500004 13915942
-0.06852857 0.078557149 0.58500004 13915944
-0.067414291 0.078557149 0.58500004 13784358
-0.066300005 0.078557149 0.58500004 13849374
-0.065074287 0.078422867 0.58400005 13651995
-0.063961908 0.078422867 0.58400005 13585408
-0.062741905 0.07828857 0.583 13848576
-0.061525717 0.078154288 0.58200002 13980449
-0.060417145 0.078154288 0.58200002 13651484
-0.059410475 0.07828857 0.583 13846275
-0.058400001 0.078422867 0.58400005 14833170
-0.057483811 0.078691438 0.58600003 14571089
-0.056367621 0.078691438 0.58600003 14834261
-0.055440001 0.078959994 0.588 14639417
-0.05432 0.078959994 0.588 14113073
-0.053199999 0.078959994 0.588 13848631
-0.052079998 0.078959994 0.588 13585459
-0.051653333 0.080034286 0.59600002 13126730
-0.050518095 0.080034286 0.59600002 11547698
-0.049382858 0.080034286 0.59600002 13321533
-0.04849048 0.080437146 0.59900004 16282218
-0.047428574 0.080571435 0.60000002 15430024
-0.046285715 0.080571435 0.60000002 15101059
-0.045142859 0.080571435 0.60000002 15427712
-0.044073332 0.080705717 0.60100001 14901368
-0.042928573 0.080705717 0.60100001 15162230
-0.04178381 0.080705717 0.60100001 15228023
-0.04063905 0.080705717 0.60100001 14966123
-0.039560005 0.080840006 0.60200006 15360881
-0.038413335 0.080840006 0.60200006 14443906
-0.037266672 0.080840006 0.60200006 12864874
-0.036120001 0.080840006 0.60200006 12800605
-0.034915239 0.080705717 0.60100001 14445430
-0.033770476 0.080705717 0.60100001 13594516
-0.032571428 0.080571435 0.60000002 14186653
-0.031428572 0.080571435 0.60000002 13794464
-0.030285714 0.080571435 0.60000002 13860257
-0.029142857 0.080571435 0.60000002 14123674
-0.028000001 0.080571435 0.60000002 14255260
-0.026901904 0.080705717 0.60100001 14188182
-0.025757143 0.080705717 0.60100001 13464459
-0.02461238 0.080705717 0.60100001 13394021
-0.023467619 0.080705717 0.60100001 12604505
-0.022322858 0.080705717 0.60100001 13062990
-0.021178095 0.080705717 0.60100001 13194576
-0.020033333 0.080705717 0.60100001 13128272
-0.018888572 0.080705717 0.60100001 13194065
-0.017743809 0.080705717 0.60100001 12605016
-0.016599048 0.080705717 0.60100001 9644331
-0.11352476 0.081578098 0.59900004 12362110
-0.11238381 0.081578098 0.59900004 16507069
-0.11124286 0.081578098 0.59900004 16250624
-0.11010192 0.081578098 0.59900004 16316416
-0.10896096 0.081578098 0.59900004 16316698
-0.108 0.081714287 0.60000002 16382491
-0.10667905 0.081578098 0.59900004 16318208
-0.1055381 0.081578098 0.59900004 16776964
-0.10439715 0.081578098 0.59900004 16646070
-0.1032562 0.081578098 0.59900004 13225346
-0.10211524 0.081578098 0.59900004 14461393
-0.10097429 0.081578098 0.59900004 16500976
-0.099833339 0.081578098 0.59900004 15843010
-0.098692387 0.081578098 0.59900004 16171975
-0.097551435 0.081578098 0.59900004 16236799
-0.096571431 0.081714287 0.60000002 16499967
-0.095428571 0.081714287 0.60000002 15770855
-0.094285719 0.081714287 0.60000002 15836648
-0.09314286 0.081714287 0.60000002 15968500
-0.092000008 0.081714287 0.60000002 16692223
-0.090857141 0.081714287 0.60000002 15507662
-0.089714289 0.081714287 0.60000002 15639248
-0.088423818 0.081578098 0.59900004 16034543
-0.087282859 0.081578098 0.59900004 16560887
-0.086141907 0.081578098 0.59900004 15900866
-0.084717147 0.081305712 0.597 12348044
-0.083300002 0.081033342 0.59500003 12795249
-0.082166664 0.081033342 0.59500003 12334698
-0.081305712 0.081305712 0.597 11547708
-0.078422867 0.079535246 0.58400005 11021364
-0.077178098 0.079399049 0.583 11679009
-0.076067619 0.079399049 0.583 12402732
-0.075085714 0.079535246 0.58400005 13254178
-0.073846668 0.079399049 0.583 13846315
-0.072736189 0.079399049 0.583 14111246
-0.071625717 0.079399049 0.583 14571797
-0.070515238 0.079399049 0.583 14309153
-0.069404759 0.079399049 0.583 14374946
-0.068411432 0.079535246 0.58400005 14572586
-0.067299053 0.079535246 0.58400005 14572586
-0.066186674 0.079535246 0.58400005 14705192
-0.064962856 0.079399049 0.583 14770985
-0.063852377 0.079399049 0.583 15167532
