# .PCD v0.7 - Point Cloud Data file format
VERSION 0.7
FIELDS x y z rgba
SIZE 4 4 4 4
TYPE F F F U
COUNT 1 1 1 1
WIDTH 1099
HEIGHT 1
VIEWPOINT 0 0 0 1 0 0 0
POINTS 1099
DATA ascii
-0.067191429 0.070637152 0.60300004 6534655
-0.066152386 0.07075429 0.60400003 6403071
-0.064894289 0.070637152 0.60300004 6205695
-0.063745722 0.070637152 0.60300004 6271231
-0.062597148 0.070637152 0.60300004 3705317
-0.061550479 0.07075429 0.60400003 5282303
-0.058500003 0.06852857 0.58500004 11927295
-0.057385717 0.06852857 0.58500004 16646142
-0.056463812 0.068762861 0.58700001 16646142
-0.055345718 0.068762861 0.58700001 16514043
-0.05422762 0.068762861 0.58700001 16514043
-0.053109523 0.068762861 0.58700001 16514043
-0.051991429 0.068762861 0.58700001 16514043
-0.050873332 0.068762861 0.58700001 16514043
-0.049755238 0.068762861 0.58700001 16514043
-0.048719998 0.068879999 0.588 16514043
-0.047599997 0.068879999 0.588 16514043
-0.04648 0.068879999 0.588 16514043
-0.045359999 0.068879999 0.588 16514043
-0.044239998 0.068879999 0.588 16514043
-0.043120001 0.068879999 0.588 16514043
-0.041999999 0.068879999 0.588 16514043
-0.040879998 0.068879999 0.588 16514043
-0.039692383 0.068762861 0.58700001 16514043
-0.038574286 0.068762861 0.58700001 16514043
-0.037456192 0.068762861 0.58700001 16514043
-0.036338098 0.068762861 0.58700001 16514043
-0.035219997 0.068762861 0.58700001 16514043
-0.034101903 0.068762861 0.58700001 16514043
-0.032927621 0.068645716 0.58600003 16514043
-0.031811427 0.068645716 0.58600003 16514043
-0.030747619 0.068762861 0.58700001 16514043
-0.029629523 0.068762861 0.58700001 16711422
-0.028279999 0.070988573 0.60600001 12172988
-0.027125714 0.070988573 0.60600001 9556223
-0.025885716 0.07075429 0.60400003 9819391
-0.02473524 0.07075429 0.60400003 9884415
-0.023584763 0.07075429 0.60400003 9226491
-0.022434287 0.07075429 0.60400003 8701695
-0.021283811 0.07075429 0.60400003 8635903
-0.020133335 0.07075429 0.60400003 8373503
-0.018982857 0.07075429 0.60400003 7649789
-0.017802857 0.070637152 0.60300004 7715839
-0.016654287 0.070637152 0.60300004 8307967
-0.015531429 0.07075429 0.60400003 8635135
-0.014380952 0.07075429 0.60400003 8635135
-0.013230477 0.07075429 0.60400003 8898047
-0.012080001 0.07075429 0.60400003 9095423
-0.010929525 0.07075429 0.60400003 9423871
-0.0098114284 0.070988573 0.60600001 9489663
-0.0086285714 0.07075429 0.60400003 9817599
-0.0074780956 0.07075429 0.60400003 10014975
-0.0063276193 0.07075429 0.60400003 10736895
-0.005177143 0.07075429 0.60400003 11000063
-0.0040266667 0.07075429 0.60400003 11459071
-0.0028761907 0.07075429 0.60400003 11590655
-0.0017257143 0.07075429 0.60400003 12509183
-0.00057523814 0.07075429 0.60400003 13167103
0.00057523814 0.07075429 0.60400003 12969215
0.0017257143 0.07075429 0.60400003 13363967
0.0028761907 0.07075429 0.60400003 13363199
0.0040266667 0.07075429 0.60400003 7310247
0.005177143 0.07075429 0.60400003 7240945
0.0063276193 0.07075429 0.60400003 10398975
-0.093608581 0.071785718 0.60300004 8822188
-0.092460006 0.071785718 0.60300004 7769500
-0.091311432 0.071785718 0.60300004 5282047
-0.090162858 0.071785718 0.60300004 5611007
-0.088866673 0.071666673 0.60200006 5547263
-0.087720007 0.071666673 0.60200006 5284095
-0.08657334 0.071666673 0.60200006 4825599
-0.085426673 0.071666673 0.60200006 4891391
-0.084280007 0.071666673 0.60200006 5220351
-0.08313334 0.071666673 0.60200006 5417727
-0.081850477 0.07154762 0.60100001 5417215
-0.080705717 0.07154762 0.60100001 5548799
-0.07956095 0.07154762 0.60100001 5811455
-0.078416191 0.07154762 0.60100001 5679871
-0.077400006 0.071666673 0.60200006 5680127
-0.07625334 0.071666673 0.60200006 5745919
-0.075106673 0.071666673 0.60200006 6008319
-0.073960006 0.071666673 0.60200006 6074111
-0.07281334 0.071666673 0.60200006 6599423
-0.071785718 0.071785718 0.60300004 6665215
-0.070637152 0.071785718 0.60300004 6665727
-0.069488578 0.071785718 0.60300004 6534143
-0.068226673 0.071666673 0.60200006 6337535
-0.067080006 0.071666673 0.60200006 6469119
-0.066042863 0.071785718 0.60300004 6403327
-0.064894289 0.071785718 0.60300004 6271743
-0.063640006 0.071666673 0.60200006 6796543
-0.062493335 0.071666673 0.60200006 4230628
-0.061346676 0.071666673 0.60200006 5411327
-0.058400001 0.069523819 0.58400005 12253695
-0.057287622 0.069523819 0.58400005 16646142
-0.05627143 0.069642864 0.58500004 16646142
-0.055251431 0.069761902 0.58600003 16514043
-0.054135241 0.069761902 0.58600003 16514043
-0.053019051 0.069761902 0.58600003 16514043
-0.051991429 0.069880955 0.58700001 16514043
-0.050873332 0.069880955 0.58700001 16514043
-0.049755238 0.069880955 0.58700001 16514043
-0.048637144 0.069880955 0.58700001 16514043
-0.047438096 0.069761902 0.58600003 16514043
-0.046321906 0.069761902 0.58600003 16514043
-0.045128573 0.069642864 0.58500004 16514043
-0.04401429 0.069642864 0.58500004 16514043
-0.0429 0.069642864 0.58500004 16514043
-0.041785717 0.069642864 0.58500004 16514043
-0.040671431 0.069642864 0.58500004 16514043
-0.039557148 0.069642864 0.58500004 16514043
-0.038442858 0.069642864 0.58500004 16514043
-0.037328575 0.069642864 0.58500004 16514043
-0.036276191 0.069761902 0.58600003 16514043
-0.035160001 0.069761902 0.58600003 16514043
-0.034043811 0.069761902 0.58600003 16514043
-0.032927621 0.069761902 0.58600003 16514043
-0.031811427 0.069761902 0.58600003 16514043
-0.030695237 0.069761902 0.58600003 16579834
-0.029579047 0.069761902 0.58600003 16711420
-0.029288573 0.071785718 0.60300004 16580606
-0.028186668 0.071904771 0.60400003 12961991
-0.027036192 0.071904771 0.60400003 11131135
-0.025885716 0.071904771 0.60400003 11328511
-0.024694288 0.071785718 0.60300004 10606591
-0.023545716 0.071785718 0.60300004 10080253
-0.022360003 0.071666673 0.60200006 9818111
-0.021213336 0.071666673 0.60200006 9752319
-0.020066667 0.071666673 0.60200006 9489919
-0.018920001 0.071666673 0.60200006 9029375
-0.017773336 0.071666673 0.60200006 8831231
-0.016626669 0.071666673 0.60200006 9489151
-0.015480001 0.071666673 0.60200006 9751807
-0.014333334 0.071666673 0.60200006 9620223
-0.013186668 0.071666673 0.60200006 9619967
-0.012040001 0.071666673 0.60200006 10080511
-0.010893334 0.071666673 0.60200006 10671871
-0.0097790482 0.071904771 0.60400003 10671871
-0.0086142868 0.071785718 0.60300004 11064575
-0.0074657151 0.071785718 0.60300004 11459327
-0.0062961904 0.07154762 0.60100001 11721471
-0.0051514283 0.07154762 0.60100001 11984639
-0.0040200003 0.071785718 0.60300004 12640255
-0.0028714288 0.071785718 0.60300004 13166591
-0.0017200002 0.071666673 0.60200006 13690879
-0.00057333341 0.071666673 0.60200006 14611967
0.00057333341 0.071666673 0.60200006 14415103
0.0017200002 0.071666673 0.60200006 14480895
0.0028714288 0.071785718 0.60300004 13298687
0.0040133335 0.071666673 0.60200006 6785183
0.0051600006 0.071666673 0.60200006 5598426
0.0063276193 0.071904771 0.60400003 9611775
-0.092460006 0.072934292 0.60300004 6653331
-0.091160007 0.07281334 0.60200006 4430591
-0.09001334 0.07281334 0.60200006 4956927
-0.088866673 0.07281334 0.60200006 5679103
-0.087574288 0.072692387 0.60100001 5613311
-0.086429521 0.072692387 0.60100001 4694783
-0.085142858 0.072571434 0.60000002 4628991
-0.084000006 0.072571434 0.60000002 4826623
-0.082857139 0.072571434 0.60000002 5023999
-0.081714287 0.072571434 0.60000002 5483263
-0.080571435 0.072571434 0.60000002 5483263
-0.079428568 0.072571434 0.60000002 5483519
-0.078285716 0.072571434 0.60000002 5351935
-0.077142857 0.072571434 0.60000002 5352447
-0.076000005 0.072571434 0.60000002 5549823
-0.074981906 0.072692387 0.60100001 5680639
-0.073837139 0.072692387 0.60100001 5549055
-0.072692387 0.072692387 0.60100001 6534143
-0.07154762 0.072692387 0.60100001 7455231
-0.070520006 0.07281334 0.60200006 7257087
-0.069373339 0.07281334 0.60200006 7059711
-0.068226673 0.07281334 0.60200006 6863359
-0.067080006 0.07281334 0.60200006 6929151
-0.065933339 0.07281334 0.60200006 6994687
-0.064786673 0.07281334 0.60200006 6599935
-0.063640006 0.07281334 0.60200006 6731263
-0.062493335 0.07281334 0.60200006 3902176
-0.059410475 0.070515238 0.583 4164863
-0.0583 0.070515238 0.583 9954559
-0.057287622 0.070636198 0.58400005 16646142
-0.056175243 0.070636198 0.58400005 16646142
-0.05506286 0.070636198 0.58400005 16579836
-0.053950481 0.070636198 0.58400005 16514043
-0.053019051 0.070878096 0.58600003 16514043
-0.051902857 0.070878096 0.58600003 16514043
-0.05078667 0.070878096 0.58600003 16514043
-0.04967048 0.070878096 0.58600003 16514043
-0.048554286 0.070878096 0.58600003 16514043
-0.047357146 0.070757151 0.58500004 16514043
-0.046242859 0.070757151 0.58500004 16514043
-0.045051433 0.070636198 0.58400005 16514043
-0.043939054 0.070636198 0.58400005 16514043
-0.042826667 0.070636198 0.58400005 16514043
-0.041714288 0.070636198 0.58400005 16514043
-0.040601909 0.070636198 0.58400005 16514043
-0.039489526 0.070636198 0.58400005 16514043
-0.038377147 0.070636198 0.58400005 16514043
-0.037264764 0.070636198 0.58400005 16514043
-0.036152385 0.070636198 0.58400005 16514043
-0.035040002 0.070636198 0.58400005 16514043
-0.033927623 0.070636198 0.58400005 16514043
-0.03281524 0.070636198 0.58400005 16514043
-0.031702857 0.070636198 0.58400005 16579836
-0.030590478 0.070636198 0.58400005 16645629
-0.029478097 0.070636198 0.58400005 16711422
-0.029288573 0.072934292 0.60300004 15727355
-0.028140003 0.072934292 0.60300004 12174533
-0.026991429 0.072934292 0.60300004 10474495
-0.025842858 0.072934292 0.60300004 10869247
-0.024653334 0.07281334 0.60200006 9950207
-0.023467619 0.072692387 0.60100001 9292284
-0.022322858 0.072692387 0.60100001 9161983
-0.021178095 0.072692387 0.60100001 9227775
-0.020033333 0.072692387 0.60100001 9292799
-0.018888572 0.072692387 0.60100001 9161215
-0.017743809 0.072692387 0.60100001 9292287
-0.01657143 0.072571434 0.60000002 10081791
-0.015428572 0.072571434 0.60000002 10605567
-0.014309525 0.072692387 0.60100001 10737151
-0.013164761 0.072692387 0.60100001 10868735
-0.01202 0.072692387 0.60100001 11000319
-0.010875239 0.072692387 0.60100001 11393279
-0.009730476 0.072692387 0.60100001 11393279
-0.0085857147 0.072692387 0.60100001 11655167
-0.0074409526 0.072692387 0.60100001 11984127
-0.0062961904 0.072692387 0.60100001 12048895
-0.0051514283 0.072692387 0.60100001 11851519
-0.0040200003 0.072934292 0.60300004 12179967
-0.0028666668 0.07281334 0.60200006 13166847
-0.0017200002 0.07281334 0.60200006 13625086
-0.00057238096 0.072692387 0.60100001 14283007
0.00057238096 0.072692387 0.60100001 14283261
0.0017171428 0.072692387 0.60100001 14743807
0.0028666668 0.07281334 0.60200006 13889535
0.0040066671 0.072692387 0.60100001 7836581
0.0051514283 0.072692387 0.60100001 5403391
-0.092153333 0.073837139 0.60100001 6720673
-0.090857141 0.073714286 0.60000002 5284863
-0.089714289 0.073714286 0.60000002 5350655
-0.088571429 0.073714286 0.60000002 5089023
-0.087282859 0.073591433 0.59900004 5089023
-0.086141907 0.073591433 0.59900004 4826623
-0.085000955 0.073591433 0.59900004 4760831
-0.08386001 0.073591433 0.59900004 4957695
-0.08271905 0.073591433 0.59900004 5089279
-0.081578098 0.073591433 0.59900004 5089535
-0.080437146 0.073591433 0.59900004 5155327
-0.079296194 0.073591433 0.59900004 4893695
-0.078155242 0.073591433 0.59900004 4893695
-0.07701429 0.073591433 0.59900004 4894207
-0.075873338 0.073591433 0.59900004 5025791
-0.074857146 0.073714286 0.60000002 4959999
-0.073714286 0.073714286 0.60000002 5091583
-0.072571434 0.073714286 0.60000002 6468863
-0.071428567 0.073714286 0.60000002 7060991
-0.070285715 0.073714286 0.60000002 6864383
-0.069258094 0.073837139 0.60100001 6667007
-0.068000004 0.073714286 0.60000002 6404607
-0.066857144 0.073714286 0.60000002 6404607
-0.065714285 0.073714286 0.60000002 6600959
-0.064571433 0.073714286 0.60000002 6337791
-0.063428573 0.073714286 0.60000002 7255807
-0.062285714 0.073714286 0.60000002 5150442
-0.059410475 0.071625717 0.583 3639295
-0.0583 0.071625717 0.583 8507903
-0.057189524 0.071625717 0.583 16317182
-0.056079045 0.071625717 0.583 16580351
-0.054968569 0.071625717 0.583 16645629
-0.053858094 0.071625717 0.583 16514043
-0.052838098 0.071748577 0.58400005 16514043
-0.051725719 0.071748577 0.58400005 16514043
-0.050613336 0.071748577 0.58400005 16514043
-0.049500957 0.071748577 0.58400005 16514043
-0.048388578 0.071748577 0.58400005 16514043
-0.047276191 0.071748577 0.58400005 16514043
-0.046163812 0.071748577 0.58400005 16514043
-0.044974286 0.071625717 0.583 16514043
-0.043863807 0.071625717 0.583 16514043
-0.042753331 0.071625717 0.583 16514043
-0.041714288 0.071748577 0.58400005 16514043
-0.040532384 0.071625717 0.583 16514043
-0.039421905 0.071625717 0.583 16514043
-0.038311429 0.071625717 0.583 16514043
-0.037200954 0.071625717 0.583 16514043
-0.036090475 0.071625717 0.583 16514043
-0.034979999 0.071625717 0.583 16514043
-0.033869524 0.071625717 0.583 16514043
-0.032759048 0.071625717 0.583 16514043
-0.031648569 0.071625717 0.583 16711422
-0.030538093 0.071625717 0.583 16514556
-0.02942762 0.071625717 0.583 16382970
-0.028317142 0.071625717 0.583 14415097
-0.028093336 0.073960006 0.60200006 11717584
-0.026901904 0.073837139 0.60100001 10343679
-0.025757143 0.073837139 0.60100001 10475263
-0.02461238 0.073837139 0.60100001 9359359
-0.023428572 0.073714286 0.60000002 8372472
-0.022285715 0.073714286 0.60000002 8570879
-0.021142857 0.073714286 0.60000002 8899839
-0.02 0.073714286 0.60000002 9161471
-0.018857144 0.073714286 0.60000002 9029887
-0.017714286 0.073714286 0.60000002 9226751
-0.016543809 0.073591433 0.59900004 9884671
-0.015402857 0.073591433 0.59900004 10540287
-0.014285715 0.073714286 0.60000002 10671871
-0.013142857 0.073714286 0.60000002 11197439
-0.012 0.073714286 0.60000002 11131647
-0.010857143 0.073714286 0.60000002 10605055
-0.0097142868 0.073714286 0.60000002 10999807
-0.0085714282 0.073714286 0.60000002 11721215
-0.0074285716 0.073714286 0.60000002 11852799
-0.0062857145 0.073714286 0.60000002 11851775
-0.0051428573 0.073714286 0.60000002 11720191
-0.0040000002 0.073714286 0.60000002 11917311
-0.0028571428 0.073714286 0.60000002 12904191
-0.0017114287 0.073591433 0.59900004 13101311
-0.00057047623 0.073591433 0.59900004 13167103
0.00057047623 0.073591433 0.59900004 13888511
0.0017114287 0.073591433 0.59900004 14414847
0.0028571428 0.073714286 0.60000002 14283007
0.0039933338 0.073591433 0.59900004 8559016
0.0051342859 0.073591433 0.59900004 4879352
-0.091846667 0.074732378 0.59900004 6523570
-0.09055429 0.074607626 0.59800005 6007295
-0.089415245 0.074607626 0.59800005 5744127
-0.088423818 0.074732378 0.59900004 5482751
-0.087282859 0.074732378 0.59900004 5416959
-0.086141907 0.074732378 0.59900004 5351423
-0.084859051 0.074607626 0.59800005 5219839
-0.083720006 0.074607626 0.59800005 5023487
-0.082580961 0.074607626 0.59800005 5089279
-0.081441909 0.074607626 0.59800005 5023999
-0.080302864 0.074607626 0.59800005 5023999
-0.07916382 0.074607626 0.59800005 4828159
-0.078024767 0.074607626 0.59800005 4762367
-0.076885715 0.074607626 0.59800005 4762879
-0.07574667 0.074607626 0.59800005 4960255
-0.074732378 0.074732378 0.59900004 5615871
-0.073591433 0.074732378 0.59900004 5747455
-0.072450481 0.074732378 0.59900004 5288191
-0.071309529 0.074732378 0.59900004 6011903
-0.07016857 0.074732378 0.59900004 6798591
-0.069027625 0.074732378 0.59900004 6667007
-0.067886673 0.074732378 0.59900004 6142207
-0.066745721 0.074732378 0.59900004 6010623
-0.065604761 0.074732378 0.59900004 6141695
-0.064463809 0.074732378 0.59900004 5878527
-0.063322864 0.074732378 0.59900004 6665471
-0.062181905 0.074732378 0.59900004 4691692
-0.059410475 0.072736189 0.583 3115007
-0.058100004 0.072486676 0.58100003 6273023
-0.056993335 0.072486676 0.58100003 15264505
-0.055982858 0.072611429 0.58200002 16514559
-0.054874286 0.072611429 0.58200002 16711422
-0.053765714 0.072611429 0.58200002 16514043
-0.052657142 0.072611429 0.58200002 16514043
-0.051548574 0.072611429 0.58200002 16514043
-0.050526667 0.072736189 0.583 16514043
-0.049416192 0.072736189 0.583 16514043
-0.048305713 0.072736189 0.583 16514043
-0.047195237 0.072736189 0.583 16514043
-0.046084762 0.072736189 0.583 16514043
-0.044974286 0.072736189 0.583 16514043
-0.043863807 0.072736189 0.583 16514043
-0.042753331 0.072736189 0.583 16514043
-0.041642856 0.072736189 0.583 16514043
-0.040462855 0.072611429 0.58200002 16514043
-0.039354287 0.072611429 0.58200002 16514043
-0.038245715 0.072611429 0.58200002 16514043
-0.037137143 0.072611429 0.58200002 16514043
-0.036028571 0.072611429 0.58200002 16514043
-0.03492 0.072611429 0.58200002 16514043
-0.033869524 0.072736189 0.583 16514043
-0.032759048 0.072736189 0.583 16514043
-0.031648569 0.072736189 0.583 16711422
-0.030538093 0.072736189 0.583 16514813
-0.02942762 0.072736189 0.583 15922676
-0.029094286 0.074732378 0.59900004 14021627
-0.027953334 0.074732378 0.59900004 11784665
-0.026857143 0.074857146 0.60000002 9819391
-0.025714288 0.074857146 0.60000002 9358847
-0.02457143 0.074857146 0.60000002 8834815
-0.023428572 0.074857146 0.60000002 7913720
-0.022248574 0.074732378 0.59900004 7783423
-0.021107621 0.074732378 0.59900004 8178175
-0.019966668 0.074732378 0.59900004 8899327
-0.018825715 0.074732378 0.59900004 8899327
-0.017684761 0.074732378 0.59900004 8833535
-0.016543809 0.074732378 0.59900004 8833535
-0.015402857 0.074732378 0.59900004 9095679
-0.014261906 0.074732378 0.59900004 9161471
-0.013120953 0.074732378 0.59900004 9817599
-0.01198 0.074732378 0.59900004 10014975
-0.010839048 0.074732378 0.59900004 10276863
-0.0096980957 0.074732378 0.59900004 10408447
-0.0085571436 0.074732378 0.59900004 10473471
-0.007416191 0.074732378 0.59900004 10473471
-0.0062752385 0.074732378 0.59900004 10539263
-0.0051342859 0.074732378 0.59900004 10407679
-0.0039866669 0.074607626 0.59800005 10670591
-0.0028476194 0.074607626 0.59800005 11131135
-0.0017085716 0.074607626 0.59800005 11261439
-0.00056952384 0.074607626 0.59800005 10998271
0.00056952384 0.074607626 0.59800005 11129855
0.0017114287 0.074732378 0.59900004 11656191
0.0028571428 0.074857146 0.60000002 12049919
0.0039933338 0.074732378 0.59900004 8628689
0.0051342859 0.074732378 0.59900004 7705599
-0.091693342 0.07574667 0.59800005 5802425
-0.090402856 0.075620003 0.597 6269951
-0.089265719 0.075620003 0.597 5875199
-0.0882762 0.07574667 0.59800005 5482751
-0.087137155 0.07574667 0.59800005 5482751
-0.085998096 0.07574667 0.59800005 5548543
-0.084859051 0.07574667 0.59800005 5351167
-0.083720006 0.07574667 0.59800005 5220607
-0.082580961 0.07574667 0.59800005 5154815
-0.081441909 0.07574667 0.59800005 5155327
-0.080168575 0.075620003 0.597 5155327
-0.07903143 0.075620003 0.597 4959487
-0.078024767 0.07574667 0.59800005 4827903
-0.07675714 0.075620003 0.597 4828159
-0.075620003 0.075620003 0.597 5157119
-0.074607626 0.07574667 0.59800005 5813247
-0.073468573 0.07574667 0.59800005 5681663
-0.072208568 0.075620003 0.597 4107007
-0.071071431 0.075620003 0.597 5357055
-0.069934286 0.075620003 0.597 6601983
-0.068797141 0.075620003 0.597 6536191
-0.067773335 0.07574667 0.59800005 6405119
-0.06663429 0.07574667 0.59800005 6405119
-0.065385714 0.075620003 0.597 6339839
-0.064248569 0.075620003 0.597 6076671
-0.063111424 0.075620003 0.597 6665471
-0.061974283 0.075620003 0.597 5086450
-0.060837142 0.075620003 0.597 3442687
-0.058100004 0.073593333 0.58100003 5942783
-0.056993335 0.073593333 0.58100003 12830969
-0.055886671 0.073593333 0.58100003 16120575
-0.054874286 0.073720008 0.58200002 16711422
-0.053765714 0.073720008 0.58200002 16711422
-0.05256667 0.073593333 0.58100003 16514043
-0.051460002 0.073593333 0.58100003 16514043
-0.050353333 0.073593333 0.58100003 16514043
-0.049246669 0.073593333 0.58100003 16514043
-0.048222858 0.073720008 0.58200002 16514043
-0.047114287 0.073720008 0.58200002 16514043
-0.046005715 0.073720008 0.58200002 16514043
-0.044897143 0.073720008 0.58200002 16514043
-0.043713335 0.073593333 0.58100003 16514043
-0.04260667 0.073593333 0.58100003 16514043
-0.041571431 0.073720008 0.58200002 16514043
-0.040393334 0.073593333 0.58100003 16514043
-0.039286669 0.073593333 0.58100003 16514043
-0.038180001 0.073593333 0.58100003 16514043
-0.037009526 0.073466673 0.58000004 16514043
-0.035904765 0.073466673 0.58000004 16514043
-0.0348 0.073466673 0.58000004 16514043
-0.033753335 0.073593333 0.58100003 16514043
-0.032646671 0.073593333 0.58100003 16579836
-0.031539999 0.073593333 0.58100003 16711422
-0.030538093 0.073846668 0.583 16514813
-0.02942762 0.073846668 0.583 15330539
-0.029094286 0.075873338 0.59900004 12117758
-0.027953334 0.075873338 0.59900004 11196656
-0.026812382 0.075873338 0.59900004 9295871
-0.025585713 0.075620003 0.597 8374775
-0.02444857 0.075620003 0.597 8310783
-0.023311427 0.075620003 0.597 7718653
-0.022174286 0.075620003 0.597 7258367
-0.021037143 0.075620003 0.597 7521535
-0.0199 0.075620003 0.597 8177151
-0.018762857 0.075620003 0.597 8440319
-0.017625714 0.075620003 0.597 8571391
-0.016488571 0.075620003 0.597 8439807
-0.015351428 0.075620003 0.597 8702719
-0.014238096 0.07574667 0.59800005 8636927
-0.013099049 0.07574667 0.59800005 8767487
-0.011960001 0.07574667 0.59800005 9030655
-0.010820953 0.07574667 0.59800005 9490175
-0.0096819047 0.07574667 0.59800005 9555967
-0.0085428581 0.07574667 0.59800005 9620991
-0.00740381 0.07574667 0.59800005 9752575
-0.0062542856 0.075620003 0.597 9949951
-0.005117143 0.075620003 0.597 9752575
-0.00398 0.075620003 0.597 9488895
-0.0028428573 0.075620003 0.597 10212607
-0.0017057143 0.075620003 0.597 10671871
-0.00056857144 0.075620003 0.597 10211326
0.00056857144 0.075620003 0.597 10144767
0.0017085716 0.07574667 0.59800005 10671103
0.0028476194 0.07574667 0.59800005 11261951
0.0039933338 0.075873338 0.59900004 8301271
0.0051342859 0.075873338 0.59900004 7837951
-0.091386668 0.076628573 0.59600002 6261704
-0.090251431 0.076628573 0.59600002 6204927
-0.089116193 0.076628573 0.59600002 6073343
-0.087980956 0.076628573 0.59600002 5811455
-0.086845718 0.076628573 0.59600002 5745663
-0.085854284 0.07675714 0.597 5417727
-0.084717147 0.07675714 0.597 5286143
-0.083580002 0.07675714 0.597 5220863
-0.082442857 0.07675714 0.597 5089279
-0.081305712 0.07675714 0.597 4762367
-0.080034286 0.076628573 0.59600002 4893951
-0.078899048 0.076628573 0.59600002 4762367
-0.077894285 0.07675714 0.597 4696575
-0.076628573 0.076628573 0.59600002 4893695
-0.075493336 0.076628573 0.59600002 5288447
-0.074358098 0.076628573 0.59600002 5549823
-0.073345713 0.07675714 0.597 5615615
-0.072087623 0.076628573 0.59600002 5091583
-0.070952378 0.076628573 0.59600002 5881087
-0.069817141 0.076628573 0.59600002 7061759
-0.068681911 0.076628573 0.59600002 6995967
-0.067546666 0.076628573 0.59600002 6602495
-0.066300005 0.076500006 0.59500003 6536703
-0.065166667 0.076500006 0.59500003 6471423
-0.063925713 0.076371431 0.59400004 6208255
-0.06279429 0.076371431 0.59400004 6863871
-0.06166286 0.076371431 0.59400004 4824297
-0.060531434 0.076371431 0.59400004 5084671
-0.058100004 0.074700005 0.58100003 6926847
-0.056993335 0.074700005 0.58100003 11254783
-0.055886671 0.074700005 0.58100003 14412799
-0.054874286 0.074828573 0.58200002 16711422
-0.053765714 0.074828573 0.58200002 16711422
-0.05256667 0.074700005 0.58100003 16579836
-0.051460002 0.074700005 0.58100003 16514043
-0.050266668 0.074571431 0.58000004 16514043
-0.049161907 0.074571431 0.58000004 16514043
-0.048057146 0.074571431 0.58000004 16514043
-0.047033336 0.074700005 0.58100003 16514043
-0.045847621 0.074571431 0.58000004 16514043
-0.04474286 0.074571431 0.58000004 16514043
-0.043638099 0.074571431 0.58000004 16514043
-0.042533338 0.074571431 0.58000004 16514043
-0.041428573 0.074571431 0.58000004 16514043
-0.040323813 0.074571431 0.58000004 16514043
-0.039219052 0.074571431 0.58000004 16514043
-0.038114291 0.074571431 0.58000004 16514043
-0.037009526 0.074571431 0.58000004 16514043
-0.035904765 0.074571431 0.58000004 16514043
-0.0348 0.074571431 0.58000004 16514043
-0.03369524 0.074571431 0.58000004 16579836
-0.032646671 0.074700005 0.58100003 16579836
-0.031539999 0.074700005 0.58100003 16711422
-0.030538093 0.074957147 0.583 16186877
-0.02942762 0.074957147 0.583 15002603
-0.029045716 0.076885715 0.59800005 12380159
-0.027906667 0.076885715 0.59800005 11590646
-0.026812382 0.07701429 0.59900004 9164543
-0.025585713 0.07675714 0.597 8243448
-0.02444857 0.07675714 0.597 8114175
-0.023311427 0.07675714 0.597 7522046
-0.022137145 0.076628573 0.59600002 7390719
-0.021001905 0.076628573 0.59600002 7390719
-0.0199 0.07675714 0.597 6865151
-0.018762857 0.07675714 0.597 6667775
-0.017596191 0.076628573 0.59600002 6602239
-0.016460953 0.076628573 0.59600002 6602239
-0.015351428 0.07675714 0.597 6864383
-0.014214286 0.07675714 0.597 6995967
-0.013099049 0.076885715 0.59800005 7126271
-0.01194 0.07675714 0.597 7126271
-0.010802858 0.07675714 0.597 7322879
-0.0096657146 0.07675714 0.597 7849215
-0.0085285716 0.07675714 0.597 8110847
-0.0073914286 0.07675714 0.597 8505599
-0.0062542856 0.07675714 0.597 8833535
-0.0051085716 0.076628573 0.59600002 9228287
-0.0039733332 0.076628573 0.59600002 9424383
-0.0028380952 0.076628573 0.59600002 9621759
-0.0017028572 0.076628573 0.59600002 9424383
-0.00056761905 0.076628573 0.59600002 9292799
0.00056761905 0.076628573 0.59600002 9423871
0.0017028572 0.076628573 0.59600002 10015999
0.0028380952 0.076628573 0.59600002 10802687
0.00398 0.07675714 0.597 8039387
0.005117143 0.07675714 0.597 7838463
-0.09092667 0.077372387 0.59300005 6918859
-0.089797154 0.077372387 0.59300005 6270207
-0.088817142 0.077502862 0.59400004 5809663
-0.087685719 0.077502862 0.59400004 5090559
-0.0867 0.077633336 0.59500003 5090559
-0.08556667 0.077633336 0.59500003 4696575
-0.084575236 0.077763811 0.59600002 4893951
-0.083439998 0.077763811 0.59600002 5484543
-0.082304768 0.077763811 0.59600002 5089791
-0.081169531 0.077763811 0.59600002 4893695
-0.080034286 0.077763811 0.59600002 4959487
-0.078899048 0.077763811 0.59600002 4565759
-0.077763811 0.077763811 0.59600002 4697343
-0.076500006 0.077633336 0.59500003 5484543
-0.075366668 0.077633336 0.59500003 5418751
-0.074233338 0.077633336 0.59500003 5287423
-0.073222861 0.077763811 0.59600002 5813759
-0.07196667 0.077633336 0.59500003 5748479
-0.070833333 0.077633336 0.59500003 6209023
-0.069700003 0.077633336 0.59500003 7193599
-0.068566665 0.077633336 0.59500003 7127807
-0.067433335 0.077633336 0.59500003 6471423
-0.066300005 0.077633336 0.59500003 6537215
-0.065166667 0.077633336 0.59500003 6537727
-0.063925713 0.077502862 0.59400004 6274559
-0.06279429 0.077502862 0.59400004 6405119
-0.06166286 0.077502862 0.59400004 4694513
-0.060531434 0.077502862 0.59400004 5936895
-0.058100004 0.07580667 0.58100003 7713279
-0.056993335 0.07580667 0.58100003 10205439
-0.055886671 0.07580667 0.58100003 13100287
-0.054780003 0.07580667 0.58100003 15397883
-0.053673334 0.07580667 0.58100003 16252927
-0.052476194 0.075676195 0.58000004 16711422
-0.051371429 0.075676195 0.58000004 16711422
-0.050266668 0.075676195 0.58000004 16514043
-0.049161907 0.075676195 0.58000004 16514043
-0.048057146 0.075676195 0.58000004 16514043
-0.046952382 0.075676195 0.58000004 16514043
-0.045847621 0.075676195 0.58000004 16514043
-0.04474286 0.075676195 0.58000004 16514043
-0.043562863 0.075545721 0.57900006 16514043
-0.042460002 0.075545721 0.57900006 16514043
-0.041428573 0.075676195 0.58000004 16514043
-0.040254291 0.075545721 0.57900006 16514043
-0.039151434 0.075545721 0.57900006 16514043
-0.038048577 0.075545721 0.57900006 16514043
-0.036945716 0.075545721 0.57900006 16514043
-0.035842858 0.075545721 0.57900006 16514043
-0.034740005 0.075545721 0.57900006 16514043
-0.03369524 0.075676195 0.58000004 16711422
-0.032590479 0.075676195 0.58000004 16514556
-0.031594284 0.075937144 0.58200002 16382970
-0.030538093 0.076067619 0.583 15924475
-0.02942762 0.076067619 0.583 14674408
-0.029045716 0.078024767 0.59800005 12576767
-0.027906667 0.078024767 0.59800005 11458286
-0.026678097 0.077763811 0.59600002 9230335
-0.025542859 0.077763811 0.59600002 8243446
-0.02440762 0.077763811 0.59600002 7458303
-0.023272382 0.077763811 0.59600002 7129343
-0.022137145 0.077763811 0.59600002 7260159
-0.021001905 0.077763811 0.59600002 6996991
-0.019866668 0.077763811 0.59600002 6405887
-0.01873143 0.077763811 0.59600002 6274303
-0.017566668 0.077633336 0.59500003 6339583
-0.016433334 0.077633336 0.59500003 6273791
-0.015274287 0.077502862 0.59400004 6339583
-0.014142858 0.077502862 0.59400004 6339583
-0.013011429 0.077502862 0.59400004 6470399
-0.011880001 0.077502862 0.59400004 6470399
-0.010748573 0.077502862 0.59400004 6339327
-0.0096171433 0.077502862 0.59400004 6536703
-0.0085000005 0.077633336 0.59500003 6536191
-0.007366667 0.077633336 0.59500003 6799359
-0.0062333331 0.077633336 0.59500003 8111871
-0.0050914288 0.077502862 0.59400004 8901375
-0.0039600004 0.077502862 0.59400004 9360127
-0.0028285717 0.077502862 0.59400004 9031167
-0.0017 0.077633336 0.59500003 8637183
-0.00056571432 0.077502862 0.59400004 8505599
0.00056571432 0.077502862 0.59400004 8702207
0.001697143 0.077502862 0.59400004 9228543
0.0028285717 0.077502862 0.59400004 10146815
0.0039666668 0.077633336 0.59500003 7909859
0.005117143 0.077894285 0.597 8232959
-0.093342863 0.078634292 0.59400004 10065834
-0.092211433 0.078634292 0.59400004 5936348
-0.09092667 0.07850191 0.59300005 6528485
-0.089797154 0.07850191 0.59300005 6008319
-0.088667624 0.07850191 0.59300005 5284607
-0.087538101 0.07850191 0.59300005 4761599
-0.086408578 0.07850191 0.59300005 4893183
-0.085422866 0.078634292 0.59400004 4631039
-0.084291428 0.078634292 0.59400004 4762623
-0.083160006 0.078634292 0.59400004 4762879
-0.082028575 0.078634292 0.59400004 4368127
-0.080897152 0.078634292 0.59400004 4434687
-0.079765722 0.078634292 0.59400004 4697855
-0.078634292 0.078634292 0.59400004 4697599
-0.077502862 0.078634292 0.59400004 4697599
-0.076371431 0.078634292 0.59400004 5025791
-0.075240009 0.078634292 0.59400004 4959999
-0.074108571 0.078634292 0.59400004 5222911
-0.073100001 0.078766666 0.59500003 6078207
-0.071845718 0.078634292 0.59400004 6405631
-0.070714295 0.078634292 0.59400004 6339839
-0.069465719 0.07850191 0.59300005 6734847
-0.068336196 0.07850191 0.59300005 7721727
-0.067206673 0.07850191 0.59300005 7851519
-0.066188574 0.078634292 0.59400004 7127804
-0.065057144 0.078634292 0.59400004 6406911
-0.063925713 0.078634292 0.59400004 6275327
-0.06279429 0.078634292 0.59400004 6537215
-0.061455239 0.078369528 0.59200001 5287158
-0.060327619 0.078369528 0.59200001 6793983
-0.058100004 0.076913334 0.58100003 7188735
-0.056993335 0.076913334 0.58100003 9023231
-0.055886671 0.076913334 0.58100003 11523327
-0.054780003 0.076913334 0.58100003 14740217
-0.053673334 0.076913334 0.58100003 15595519
-0.052476194 0.076780953 0.58000004 16580349
-0.051371429 0.076780953 0.58000004 16580349
-0.050266668 0.076780953 0.58000004 16579836
-0.049161907 0.076780953 0.58000004 16514043
-0.047974288 0.076648578 0.57900006 16514043
-0.046871431 0.076648578 0.57900006 16514043
-0.045768574 0.076648578 0.57900006 16514043
-0.04466572 0.076648578 0.57900006 16514043
-0.043562863 0.076648578 0.57900006 16514043
-0.042460002 0.076648578 0.57900006 16514043
-0.041357145 0.076648578 0.57900006 16514043
-0.040254291 0.076648578 0.57900006 16514043
-0.039151434 0.076648578 0.57900006 16514043
-0.038048577 0.076648578 0.57900006 16514043
-0.036945716 0.076648578 0.57900006 16514043
-0.035842858 0.076648578 0.57900006 16514043
-0.034740005 0.076648578 0.57900006 16579836
-0.03369524 0.076780953 0.58000004 16645629
-0.032590479 0.076780953 0.58000004 16252154
-0.031594284 0.077045716 0.58200002 16120568
-0.030538093 0.077178098 0.583 15531261
-0.02942762 0.077178098 0.583 14281194
-0.028705714 0.078237146 0.59100002 11068671
-0.02758 0.078237146 0.59100002 9950196
-0.026499048 0.078369528 0.59200001 7787775
-0.025457144 0.078634292 0.59400004 7195646
-0.024366667 0.078766666 0.59500003 6999551
-0.023233334 0.078766666 0.59500003 6604799
-0.022100002 0.078766666 0.59500003 6800639
-0.020966668 0.078766666 0.59500003 6471679
-0.019833334 0.078766666 0.59500003 6209279
-0.0187 0.078766666 0.59500003 6275071
-0.017537145 0.078634292 0.59400004 6274815
-0.016405717 0.078634292 0.59400004 6274815
-0.015248572 0.07850191 0.59300005 6340095
-0.01411905 0.07850191 0.59300005 6340095
-0.013011429 0.078634292 0.59400004 6536703
-0.011880001 0.078634292 0.59400004 6536703
-0.010748573 0.078634292 0.59400004 6470911
-0.0096009532 0.07850191 0.59300005 6602495
-0.0084714293 0.07850191 0.59300005 6602239
-0.007341905 0.07850191 0.59300005 6733823
-0.0062228576 0.078634292 0.59400004 7653631
-0.0050828573 0.07850191 0.59300005 8574719
-0.0039533339 0.07850191 0.59300005 8835327
-0.0028238096 0.07850191 0.59300005 8440575
-0.0016942859 0.07850191 0.59300005 7587839
-0.00056476193 0.07850191 0.59300005 7522047
0.00056476193 0.07850191 0.59300005 7849727
0.0016914286 0.078369528 0.59200001 8376063
0.0028190475 0.078369528 0.59200001 9293567
0.0039533339 0.07850191 0.59300005 7648749
0.0050914288 0.078634292 0.59400004 8037119
-0.093342863 0.079765722 0.59400004 9737895
-0.092211433 0.079765722 0.59400004 5542887
-0.09092667 0.079631433 0.59300005 6398196
-0.089797154 0.079631433 0.59300005 6075391
-0.088667624 0.079631433 0.59300005 5351679
-0.087538101 0.079631433 0.59300005 4301823
-0.086408578 0.079631433 0.59300005 4696575
-0.085279055 0.079631433 0.59300005 4696575
-0.084291428 0.079765722 0.59400004 4828159
-0.083020002 0.079631433 0.59300005 4894463
-0.081890486 0.079631433 0.59300005 4565503
-0.080624759 0.079497144 0.59200001 4172287
-0.079497144 0.079497144 0.59200001 4501247
-0.078369528 0.079497144 0.59200001 4501503
-0.077241905 0.079497144 0.59200001 4501503
-0.076114282 0.079497144 0.59200001 5026815
-0.074986666 0.079497144 0.59200001 5026815
-0.074108571 0.079765722 0.59400004 4829695
-0.072977148 0.079765722 0.59400004 5487615
-0.071724765 0.079631433 0.59300005 6208767
-0.070595242 0.079631433 0.59300005 6208767
-0.069465719 0.079631433 0.59300005 6406911
-0.068336196 0.079631433 0.59300005 7459583
-0.067206673 0.079631433 0.59300005 7787519
-0.065965712 0.079497144 0.59200001 7129596
-0.064838096 0.079497144 0.59200001 6605311
-0.063710481 0.079497144 0.59200001 6473727
-0.062582858 0.079497144 0.59200001 6801151
-0.061455239 0.079497144 0.59200001 5945851
-0.060123812 0.079228573 0.59000003 6466815
-0.058100004 0.078020006 0.58100003 6861567
-0.056993335 0.078020006 0.58100003 8629503
-0.055886671 0.078020006 0.58100003 11326975
-0.054780003 0.078020006 0.58100003 12902141
-0.053580958 0.077885717 0.58000004 14152191
-0.052476194 0.077885717 0.58000004 16055804
-0.051371429 0.077885717 0.58000004 16187390
-0.050266668 0.077885717 0.58000004 16645629
-0.049077149 0.077751435 0.57900006 16711422
-0.047974288 0.077751435 0.57900006 16579834
-0.046790477 0.077617146 0.57800001 16579834
-0.045689523 0.077617146 0.57800001 16514043
-0.04466572 0.077751435 0.57900006 16514043
-0.043562863 0.077751435 0.57900006 16514043
-0.042460002 0.077751435 0.57900006 16514043
-0.041357145 0.077751435 0.57900006 16514043
-0.040184762 0.077617146 0.57800001 16514043
-0.039083812 0.077617146 0.57800001 16514043
-0.038048577 0.077751435 0.57900006 16514043
-0.036945716 0.077751435 0.57900006 16579834
-0.035842858 0.077751435 0.57900006 16711420
-0.0348 0.077885717 0.58000004 16579836
-0.03369524 0.077885717 0.58000004 16514043
-0.032646671 0.078020006 0.58100003 15727096
-0.031648569 0.07828857 0.583 15529717
-0.030590478 0.078422867 0.58400005 15006973
-0.029730478 0.079094291 0.58900005 13822699
-0.028608572 0.079094291 0.58900005 10217215
-0.02758 0.079362854 0.59100002 8901360
-0.026499048 0.079497144 0.59200001 7001599
-0.025414288 0.079631433 0.59300005 6606847
-0.024325715 0.079765722 0.59400004 6540287
-0.023194287 0.079765722 0.59400004 6277119
-0.022062859 0.079765722 0.59400004 6407679
-0.020931428 0.079765722 0.59400004 6210303
-0.0198 0.079765722 0.59400004 6144255
-0.018668571 0.079765722 0.59400004 6144255
-0.01750762 0.079631433 0.59300005 6144255
-0.016378097 0.079631433 0.59300005 5946879
-0.015222857 0.079497144 0.59200001 6143487
-0.014095238 0.079497144 0.59200001 6209279
-0.012967619 0.079497144 0.59200001 6471935
-0.01184 0.079497144 0.59200001 6340351
-0.010712381 0.079497144 0.59200001 6142975
-0.0095847622 0.079497144 0.59200001 6340351
-0.0084571429 0.079497144 0.59200001 6340095
-0.007329524 0.079497144 0.59200001 6734847
-0.0062019047 0.079497144 0.59200001 7457023
-0.0050742859 0.079497144 0.59200001 8180735
-0.0039466666 0.079497144 0.59200001 7720447
-0.0028190475 0.079497144 0.59200001 7391487
-0.0016914286 0.079497144 0.59200001 7128831
-0.00056380953 0.079497144 0.59200001 6997247
0.00056285714 0.079362854 0.59100002 6340607
0.0016857143 0.079228573 0.59000003 6801151
0.0028095241 0.079228573 0.59000003 8506623
0.0039333333 0.079228573 0.59000003 7190771
0.0050828573 0.079631433 0.59300005 8365823
-0.094474293 0.080897152 0.59400004 10659511
-0.093342863 0.080897152 0.59400004 9409444
-0.0920562 0.080760963 0.59300005 5084159
-0.090773337 0.080624759 0.59200001 6136831
-0.089645714 0.080624759 0.59200001 6862847
-0.088518098 0.080624759 0.59200001 6139135
-0.087390475 0.080624759 0.59200001 4893695
-0.086262859 0.080624759 0.59200001 5025279
-0.084991433 0.08048857 0.59100002 5024767
-0.083723813 0.080352381 0.59000003 5353727
-0.082600005 0.080352381 0.59000003 4894719
-0.081476189 0.080352381 0.59000003 4894719
-0.080352381 0.080352381 0.59000003 5025791
-0.079228573 0.080352381 0.59000003 5091583
-0.078104764 0.080352381 0.59000003 4501503
-0.076980956 0.080352381 0.59000003 4435711
-0.07585714 0.080352381 0.59000003 5486335
-0.074733332 0.080352381 0.59000003 5617919
-0.073859051 0.080624759 0.59200001 5421311
-0.072608575 0.08048857 0.59100002 5487103
-0.071482852 0.08048857 0.59100002 5749759
-0.070357144 0.08048857 0.59100002 5815551
-0.069231428 0.08048857 0.59100002 6144255
-0.068220958 0.080624759 0.59200001 7657471
-0.067093328 0.080624759 0.59200001 8050943
-0.065854289 0.08048857 0.59100002 7195641
-0.064728573 0.08048857 0.59100002 6671103
-0.063602857 0.08048857 0.59100002 6605311
-0.062371433 0.080352381 0.59000003 6736127
-0.061247624 0.080352381 0.59000003 6604543
-0.060021911 0.080216192 0.58900005 7257087
-0.058800001 0.080079995 0.588 6467582
-0.056993335 0.079126671 0.58100003 7383807
-0.055886671 0.079126671 0.58100003 9620735
-0.054780003 0.079126671 0.58100003 12375295
-0.053580958 0.078990474 0.58000004 13625343
-0.052476194 0.078990474 0.58000004 15661564
-0.051371429 0.078990474 0.58000004 16121855
-0.050180007 0.078854293 0.57900006 16449020
-0.049077149 0.078854293 0.57900006 16514813
-0.047891427 0.078718096 0.57800001 16579836
-0.046790477 0.078718096 0.57800001 16579836
-0.045689523 0.078718096 0.57800001 16579836
-0.04466572 0.078854293 0.57900006 16579836
-0.04348762 0.078718096 0.57800001 16514043
-0.042386666 0.078718096 0.57800001 16514043
-0.041285716 0.078718096 0.57800001 16514043
-0.040184762 0.078718096 0.57800001 16514043
-0.039083812 0.078718096 0.57800001 16514043
-0.038048577 0.078854293 0.57900006 16579836
-0.036945716 0.078854293 0.57900006 16579836
-0.035842858 0.078854293 0.57900006 16645629
-0.0348 0.078990474 0.58000004 16383227
-0.03369524 0.078990474 0.58000004 16251641
-0.032646671 0.079126671 0.58100003 15662075
-0.031702857 0.079535246 0.58400005 15333110
-0.03064286 0.079671435 0.58500004 14220028
-0.029629523 0.079943813 0.58700001 12838375
-0.028560001 0.080079995 0.588 9693439
-0.027533336 0.080352381 0.59000003 8706550
-0.026454287 0.08048857 0.59100002 6936831
-0.025328573 0.08048857 0.59100002 6607871
-0.024243811 0.080624759 0.59200001 6803711
-0.02311619 0.080624759 0.59200001 6540543
-0.021988573 0.080624759 0.59200001 6211583
-0.020860951 0.080624759 0.59200001 6343167
-0.019733334 0.080624759 0.59200001 6408191
-0.018605713 0.080624759 0.59200001 6408191
-0.017478095 0.080624759 0.59200001 6079231
-0.016322857 0.08048857 0.59100002 6079231
-0.015197143 0.08048857 0.59100002 6275327
-0.014071429 0.08048857 0.59100002 6275327
-0.012945714 0.08048857 0.59100002 6144255
-0.01182 0.08048857 0.59100002 6341631
-0.010694286 0.08048857 0.59100002 6406399
-0.0095685711 0.08048857 0.59100002 6406399
-0.0084428573 0.08048857 0.59100002 6538239
-0.007317143 0.08048857 0.59100002 7261951
-0.0061914288 0.08048857 0.59100002 8180735
-0.0050742859 0.080624759 0.59200001 8246527
-0.0039466666 0.080624759 0.59200001 7589375
-0.0028142859 0.08048857 0.59100002 7260415
-0.0016885714 0.08048857 0.59100002 6932223
-0.00056285714 0.08048857 0.59100002 6932223
0.0005619048 0.080352381 0.59000003 6603519
0.0016828573 0.080216192 0.58900005 6471935
0.002804762 0.080216192 0.58900005 8242687
0.00392 0.080079995 0.588 8176895
0.0050142859 0.079671435 0.58500004 9483519
0.0061285719 0.079671435 0.58500004 8430840
-0.094474293 0.082028575 0.59400004 10659765
-0.092871435 0.081614286 0.59100002 9343905
-0.091745712 0.081614286 0.59100002 4493055
-0.090466671 0.081476189 0.59000003 5874687
-0.089342862 0.081476189 0.59000003 6404095
-0.088219054 0.081476189 0.59000003 5746175
-0.087095238 0.081476189 0.59000003 4762879
-0.085825719 0.0813381 0.58900005 4894463
-0.084703818 0.0813381 0.58900005 4959999
-0.08358191 0.0813381 0.58900005 5091583
-0.082460009 0.0813381 0.58900005 4566527
-0.0813381 0.0813381 0.58900005 4632319
-0.080216192 0.0813381 0.58900005 5222911
-0.079094291 0.0813381 0.58900005 5222911
-0.07797239 0.0813381 0.58900005 4698367
-0.076850481 0.0813381 0.58900005 4961535
-0.07572858 0.0813381 0.58900005 5617919
-0.074733332 0.081476189 0.59000003 5617919
-0.073734291 0.081614286 0.59100002 5618431
-0.072608575 0.081614286 0.59100002 5552639
-0.071482852 0.081614286 0.59100002 5749759
-0.070357144 0.081614286 0.59100002 5815551
-0.069231428 0.081614286 0.59100002 5094655
-0.068105713 0.081614286 0.59100002 6739455
-0.066980004 0.081614286 0.59100002 7985407
-0.065854289 0.081614286 0.59100002 7590655
-0.064619049 0.081476189 0.59000003 7000319
-0.063495241 0.081476189 0.59000003 6802943
-0.06226572 0.0813381 0.58900005 6671103
-0.061143812 0.0813381 0.58900005 6407935
-0.059919998 0.081200004 0.588 7258879
-0.058800001 0.081200004 0.588 6403579
-0.057385717 0.080785714 0.58500004 7778559
-0.056079045 0.080509529 0.583 9554943
-0.054780003 0.080233335 0.58100003 11127807
-0.053580958 0.080095246 0.58000004 12641023
-0.052476194 0.080095246 0.58000004 14085369
-0.051371429 0.080095246 0.58000004 15006463
-0.050180007 0.07995715 0.57900006 16186877
-0.049077149 0.07995715 0.57900006 16121084
-0.047891427 0.079819046 0.57800001 16383227
-0.046790477 0.079819046 0.57800001 16514813
-0.045689523 0.079819046 0.57800001 16645629
-0.044588573 0.079819046 0.57800001 16645629
-0.04348762 0.079819046 0.57800001 16645629
-0.042386666 0.079819046 0.57800001 16645629
-0.041285716 0.079819046 0.57800001 16645629
-0.040184762 0.079819046 0.57800001 16645629
-0.039083812 0.079819046 0.57800001 16645629
-0.038048577 0.07995715 0.57900006 16645629
-0.036945716 0.07995715 0.57900006 16514556
-0.035842858 0.07995715 0.57900006 16382970
-0.03486 0.080233335 0.58100003 15989498
-0.033753335 0.080233335 0.58100003 15989498
-0.032759048 0.080509529 0.583 15596539
-0.031702857 0.080647625 0.58400005 15201781
-0.030695237 0.080923811 0.58600003 13039613
-0.029629523 0.081061907 0.58700001 11723753
-0.028560001 0.081200004 0.588 9234943
-0.027486669 0.0813381 0.58900005 8248054
-0.026409525 0.081476189 0.59000003 7330815
-0.025285715 0.081476189 0.59000003 6870271
-0.024202857 0.081614286 0.59100002 6804223
-0.023038095 0.081476189 0.59000003 6409471
-0.021914288 0.081476189 0.59000003 5817855
-0.020825714 0.081614286 0.59100002 6146815
-0.019666668 0.081476189 0.59000003 6540287
-0.018542858 0.081476189 0.59000003 6408703
-0.017448572 0.081614286 0.59100002 5817343
-0.016322857 0.081614286 0.59100002 6212095
-0.015197143 0.081614286 0.59100002 6670335
-0.01404762 0.081476189 0.59000003 6407167
-0.01292381 0.081476189 0.59000003 5751551
-0.01182 0.081614286 0.59100002 5751551
-0.010694286 0.081614286 0.59100002 6210047
-0.0095685711 0.081614286 0.59100002 6341631
-0.0084428573 0.081614286 0.59100002 5948671
-0.0073047625 0.081476189 0.59000003 6869759
-0.0061809528 0.081476189 0.59000003 7788287
-0.0050657145 0.081614286 0.59100002 7590911
-0.0039400002 0.081614286 0.59100002 6933759
-0.0028142859 0.081614286 0.59100002 6867967
-0.0016857143 0.081476189 0.59000003 6669823
-0.0005619048 0.081476189 0.59000003 6735615
0.00056095241 0.0813381 0.58900005 6538239
0.0016828573 0.0813381 0.58900005 6340863
0.0028000001 0.081200004 0.588 8570367
0.0039133336 0.081061907 0.58700001 9096703
0.0050142859 0.080785714 0.58500004 10862591
0.0061285719 0.080785714 0.58500004 8691429
-0.093679056 0.082460009 0.58900005 10200241
-0.092557147 0.082460009 0.58900005 8818588
-0.091435239 0.082460009 0.58900005 4493823
-0.090313345 0.082460009 0.58900005 6204415
-0.089191437 0.082460009 0.58900005 6535679
-0.088219054 0.082600005 0.59000003 5943551
-0.087095238 0.082600005 0.59000003 5354239
-0.085825719 0.082460009 0.58900005 5420031
-0.084703818 0.082460009 0.58900005 5420031
-0.08358191 0.082460009 0.58900005 5354239
-0.082319997 0.082319997 0.588 4304639
-0.081200004 0.082319997 0.588 4436223
-0.080079995 0.082319997 0.588 5223423
-0.078959994 0.082319997 0.588 5420799
-0.07784 0.082319997 0.588 5552127
-0.076719999 0.082319997 0.588 5486335
-0.07572858 0.082460009 0.58900005 5289983
-0.074606672 0.082460009 0.58900005 5355775
-0.073734291 0.082740009 0.59100002 5618431
-0.072608575 0.082740009 0.59100002 5486847
-0.071482852 0.082740009 0.59100002 5290495
-0.070238099 0.082600005 0.59000003 6014207
-0.068997145 0.082460009 0.58900005 5882879
-0.067875244 0.082460009 0.58900005 6738175
-0.066753335 0.082460009 0.58900005 7853823
-0.065631427 0.082460009 0.58900005 7853823
-0.064509533 0.082460009 0.58900005 7394559
-0.063387625 0.082460009 0.58900005 7131391
-0.062159996 0.082319997 0.588 6671871
-0.061040003 0.082319997 0.588 6606079
-0.059919998 0.082319997 0.588 6998271
-0.058700003 0.082180001 0.58700001 6932479
-0.057483811 0.082040004 0.58600003 9095167
-0.056175243 0.081760004 0.58400005 9292543
-0.054968569 0.08162 0.583 10274047
-0.053765714 0.081479996 0.58200002 11326719
-0.05256667 0.081340007 0.58100003 13427450
-0.051371429 0.081200011 0.58000004 14216959
-0.050266668 0.081200011 0.58000004 15727355
-0.049077149 0.081060007 0.57900006 15990527
-0.047974288 0.081060007 0.57900006 16317947
-0.046871431 0.081060007 0.57900006 16383740
-0.045689523 0.080920003 0.57800001 16383227
-0.044588573 0.080920003 0.57800001 16383227
-0.043562863 0.081060007 0.57900006 16448763
-0.042460002 0.081060007 0.57900006 16514556
-0.041285716 0.080920003 0.57800001 16579836
-0.040184762 0.080920003 0.57800001 16579836
-0.039151434 0.081060007 0.57900006 16448763
-0.038048577 0.081060007 0.57900006 16448763
-0.037009526 0.081200011 0.58000004 16252154
-0.035904765 0.081200011 0.58000004 16120568
-0.03486 0.081340007 0.58100003 15792889
-0.033811431 0.081479996 0.58200002 15858682
-0.032759048 0.08162 0.583 14743801
-0.031702857 0.081760004 0.58400005 14085871
-0.030695237 0.082040004 0.58600003 12122367
-0.029629523 0.082180001 0.58700001 10872301
-0.028560001 0.082319997 0.588 8645375
-0.027486669 0.082460009 0.58900005 7724279
-0.026409525 0.082600005 0.59000003 7134463
-0.025285715 0.082600005 0.59000003 6739711
-0.024161905 0.082600005 0.59000003 6738687
-0.02299905 0.082460009 0.58900005 6541311
-0.021877145 0.082460009 0.58900005 6540799
-0.020755239 0.082460009 0.58900005 6540799
-0.019633334 0.082460009 0.58900005 6409471
-0.018511431 0.082460009 0.58900005 6343679
-0.017389525 0.082460009 0.58900005 5883647
-0.016295239 0.082600005 0.59000003 6015231
-0.015145715 0.082460009 0.58900005 6342399
-0.014 0.082319997 0.588 6342399
-0.01288 0.082319997 0.588 5489407
-0.011759999 0.082319997 0.588 5884159
-0.01064 0.082319997 0.588 6539519
