# .PCD v0.7 - Point Cloud Data file format
VERSION 0.7
FIELDS x y z rgba
SIZE 4 4 4 4
TYPE F F F U
COUNT 1 1 1 1
WIDTH 1114
HEIGHT 1
VIEWPOINT 0 0 0 1 0 0 0
POINTS 1114
DATA ascii
-0.082489528 0.17732 0.68200004 7432741
-0.080952384 0.1768 0.68000001 8353843
-0.079657145 0.1768 0.68000001 10259012
-0.078361906 0.1768 0.68000001 12035423
-0.076953337 0.17654 0.67900002 12035939
-0.075659998 0.17654 0.67900002 11641181
-0.074257143 0.17628001 0.67800003 10657153
-0.072965719 0.17628001 0.67800003 8880742
-0.071674287 0.17628001 0.67800003 7437647
-0.070382856 0.17628001 0.67800003 7766612
-0.069091432 0.17628001 0.67800003 7963469
-0.0678 0.17628001 0.67800003 8029262
-0.066508569 0.17628001 0.67800003 7109450
-0.065313332 0.17654 0.67900002 7701587
-0.06402 0.17654 0.67900002 7898450
-0.062726662 0.17654 0.67900002 7766864
-0.061433338 0.17654 0.67900002 7831867
-0.060140003 0.17654 0.67900002 8687176
-0.058933333 0.1768 0.68000001 9604446
-0.057638094 0.1768 0.68000001 11249271
-0.056508575 0.17732 0.68200004 11641960
-0.055209529 0.17732 0.68200004 11510374
-0.053989526 0.17758001 0.68300003 11576165
-0.052765712 0.17784001 0.68400002 11905130
-0.051462859 0.17784001 0.68400002 11315079
-0.050306667 0.17836002 0.68600005 9801840
-0.049000002 0.17836002 0.68600005 7044437
-0.047693335 0.17836002 0.68600005 5202233
-0.046454288 0.17862001 0.68700004 6056960
-0.045145717 0.17862001 0.68700004 9412403
-0.044028573 0.17940001 0.69000006 11117685
-0.042776193 0.17966001 0.69100004 11117685
-0.041579999 0.18018001 0.69300002 10526566
-0.040434286 0.18096001 0.69600004 9210706
-0.039108574 0.18096001 0.69600004 8754009
-0.037891429 0.18148001 0.69800001 8688216
-0.036561903 0.18148001 0.69800001 9474904
-0.035333335 0.18200001 0.70000005 11185522
-0.034048576 0.18226001 0.70100003 10397049
-0.032713335 0.18226001 0.70100003 9015396
-0.10554572 0.18254761 0.69700003 16051899
-0.10406857 0.18228573 0.69600004 11512182
-0.10274286 0.18228573 0.69600004 10984041
-0.10141715 0.18228573 0.69600004 12168315
-0.10009144 0.18228573 0.69600004 12102772
-0.098481901 0.18176191 0.69400001 10655326
-0.09674 0.1809762 0.69100004 9738578
-0.095285721 0.18071429 0.69000006 8817476
-0.093699045 0.18019049 0.68800002 9603950
-0.092120007 0.17966667 0.68600005 11182982
-0.090813339 0.17966667 0.68600005 11379569
-0.089245714 0.17914286 0.68400002 10195295
-0.087814286 0.17888096 0.68300003 8353367
-0.086513333 0.17888096 0.68300003 7234886
-0.08508762 0.17861906 0.68200004 7498523
-0.083788574 0.17861906 0.68200004 8814383
-0.082489528 0.17861906 0.68200004 9668688
-0.081190482 0.17861906 0.68200004 11181927
-0.079657145 0.17809524 0.68000001 11444833
-0.078361906 0.17809524 0.68000001 11642212
-0.076953337 0.17783333 0.67900002 11445326
-0.075659998 0.17783333 0.67900002 11050568
-0.074366666 0.17783333 0.67900002 10525565
-0.073073335 0.17783333 0.67900002 10328186
-0.071780004 0.17783333 0.67900002 9343841
-0.070486665 0.17783333 0.67900002 8488532
-0.069193333 0.17783333 0.67900002 7962969
-0.067900002 0.17783333 0.67900002 8028762
-0.066606671 0.17783333 0.67900002 7831640
-0.065313332 0.17783333 0.67900002 7831640
-0.064114287 0.17809524 0.68000001 7897433
-0.062726662 0.17783333 0.67900002 8423777
-0.061433338 0.17783333 0.67900002 9080644
-0.060228571 0.17809524 0.68000001 10330711
-0.058933333 0.17809524 0.68000001 11051379
-0.057807621 0.17861906 0.68200004 11577723
-0.056508575 0.17861906 0.68200004 10524256
-0.055290479 0.17888096 0.68300003 9208396
-0.053989526 0.17888096 0.68300003 10260566
-0.052765712 0.17914286 0.68400002 11708012
-0.051613338 0.17966667 0.68600005 11773564
-0.050306667 0.17966667 0.68600005 12036736
-0.049071431 0.17992857 0.68700004 10593397
-0.047762856 0.17992857 0.68700004 8882779
-0.046454288 0.17992857 0.68700004 9408857
-0.045211427 0.18019049 0.68800002 11843198
-0.044028573 0.18071429 0.69000006 11447152
-0.042776193 0.1809762 0.69100004 10197085
-0.041639999 0.18176191 0.69400001 9081684
-0.040434286 0.18228573 0.69600004 8752719
-0.039164763 0.18254761 0.69700003 8622162
-0.037891429 0.18280952 0.69800001 8687955
-0.036666669 0.18333335 0.70000005 9278039
-0.035383813 0.18359524 0.70100003 11120243
-0.034048576 0.18359524 0.70100003 10462343
-0.032806665 0.18411905 0.70300001 9080690
-0.03146762 0.18411905 0.70300001 12368772
-0.10554572 0.18387523 0.69700003 16249796
-0.1042181 0.18387523 0.69700003 12039044
-0.10289048 0.18387523 0.69700003 10655587
-0.10156287 0.18387523 0.69700003 12103033
-0.10009144 0.18361144 0.69600004 11841665
-0.098481901 0.18308382 0.69400001 9736289
-0.09702 0.18281999 0.69300002 9279833
-0.095423818 0.18229239 0.69100004 8556110
-0.093971431 0.18202859 0.69000006 9275729
-0.09238857 0.18150096 0.68800002 10460003
-0.090813339 0.18097335 0.68600005 11839868
-0.089506678 0.18097335 0.68600005 11445110
-0.087942861 0.18044572 0.68400002 9473630
-0.086513333 0.18018191 0.68300003 7302461
-0.08508762 0.17991811 0.68200004 8024832
-0.083788574 0.17991811 0.68200004 9406476
-0.082489528 0.17991811 0.68200004 10654556
-0.081190482 0.17991811 0.68200004 11838830
-0.079657145 0.17939048 0.68000001 11708014
-0.078361906 0.17939048 0.68000001 11444842
-0.077066667 0.17939048 0.68000001 10657125
-0.075771429 0.17939048 0.68000001 9999195
-0.074476197 0.17939048 0.68000001 9998698
-0.073180959 0.17939048 0.68000001 10788214
-0.071780004 0.17912666 0.67900002 10460014
-0.070486665 0.17912666 0.67900002 9736291
-0.069193333 0.17912666 0.67900002 7568979
-0.067900002 0.17912666 0.67900002 7700565
-0.066704765 0.17939048 0.68000001 7897176
-0.065409526 0.17939048 0.68000001 7831383
-0.064114287 0.17939048 0.68000001 7305807
-0.062819049 0.17939048 0.68000001 8687460
-0.061523806 0.17939048 0.68000001 9343332
-0.060228571 0.17939048 0.68000001 10659192
-0.05910667 0.17991811 0.68200004 11707008
-0.057807621 0.17991811 0.68200004 11049078
-0.056591429 0.18018191 0.68300003 9669719
-0.055290479 0.18018191 0.68300003 8353859
-0.053989526 0.18018191 0.68300003 9272631
-0.052765712 0.18044572 0.68400002 11049042
-0.051613338 0.18097335 0.68600005 12100980
-0.050306667 0.18097335 0.68600005 12429945
-0.049071431 0.18123715 0.68700004 11840645
-0.047762856 0.18123715 0.68700004 11248508
-0.046454288 0.18123715 0.68700004 10525294
-0.045211427 0.18150096 0.68800002 11775361
-0.044028573 0.18202859 0.69000006 11381105
-0.042776193 0.18229239 0.69100004 9078350
-0.041639999 0.18308382 0.69400001 8489813
-0.040492382 0.18387523 0.69700003 8555606
-0.039164763 0.18387523 0.69700003 8687705
-0.038000003 0.18466668 0.70000005 8753498
-0.036719047 0.18493049 0.70100003 9211994
-0.035383813 0.18493049 0.70100003 11119991
-0.034145713 0.18545809 0.70300001 10857343
-0.032806665 0.18545809 0.70300001 10396792
-0.03146762 0.18545809 0.70300001 13024908
-0.10615143 0.18626572 0.70100003 16380610
-0.10436761 0.18546857 0.69800001 12827788
-0.10303809 0.18546857 0.69800001 11445376
-0.10170857 0.18546857 0.69800001 11774341
-0.10023524 0.18520287 0.69700003 11316595
-0.098765716 0.18493715 0.69600004 9277012
-0.09702 0.18414 0.69300002 8557144
-0.095423818 0.18360859 0.69100004 8688730
-0.093971431 0.18334286 0.69000006 9080412
-0.09238857 0.18281144 0.68800002 9080412
-0.090813339 0.18228 0.68600005 10788950
-0.089506678 0.18228 0.68600005 11446880
-0.087942861 0.18174857 0.68400002 10393951
-0.086513333 0.18148287 0.68300003 9538642
-0.085212387 0.18148287 0.68300003 9933139
-0.083911426 0.18148287 0.68300003 11183206
-0.082489528 0.18121715 0.68200004 11642462
-0.081190482 0.18121715 0.68200004 12234599
-0.079891428 0.18121715 0.68200004 11314274
-0.078592382 0.18121715 0.68200004 8682554
-0.077066667 0.18068571 0.68000001 6711881
-0.075771429 0.18068571 0.68000001 6251330
-0.074476197 0.18068571 0.68000001 7761496
-0.073180959 0.18068571 0.68000001 10722181
-0.07188572 0.18068571 0.68000001 10787948
-0.070590481 0.18068571 0.68000001 11380085
-0.069295242 0.18068571 0.68000001 10132319
-0.068000004 0.18068571 0.68000001 8948045
-0.066704765 0.18068571 0.68000001 8028259
-0.065409526 0.18068571 0.68000001 7896673
-0.064114287 0.18068571 0.68000001 8290150
-0.062819049 0.18068571 0.68000001 10395526
-0.061704762 0.18121715 0.68200004 11314810
-0.060405716 0.18121715 0.68200004 11446396
-0.05910667 0.18121715 0.68200004 10655862
-0.057807621 0.18121715 0.68200004 8550486
-0.056591429 0.18148287 0.68300003 8155458
-0.055290479 0.18148287 0.68300003 8023872
-0.054068573 0.18174857 0.68400002 8221496
-0.052765712 0.18174857 0.68400002 8550461
-0.051613338 0.18228 0.68600005 10258760
-0.050306667 0.18228 0.68600005 11640413
-0.049071431 0.18254572 0.68700004 11707251
-0.047762856 0.18254572 0.68700004 12628353
-0.046454288 0.18254572 0.68700004 11906681
-0.045211427 0.18281144 0.68800002 11577716
-0.044092383 0.18360859 0.69100004 10987351
-0.042776193 0.18360859 0.69100004 9013561
-0.041639999 0.18440571 0.69400001 8555879
-0.040492382 0.18520287 0.69700003 8621672
-0.039164763 0.18520287 0.69700003 8555876
-0.038000003 0.18600002 0.70000005 8753255
-0.036719047 0.18626572 0.70100003 9671007
-0.035383813 0.18626572 0.70100003 11644797
-0.034048576 0.18626572 0.70100003 12236918
-0.032713335 0.18626572 0.70100003 12434297
-0.031378098 0.18626572 0.70100003 13617045
-0.030042859 0.18626572 0.70100003 16776651
-0.10615143 0.18760096 0.70100003 16446153
-0.10466667 0.18733335 0.70000005 12959124
-0.10333334 0.18733335 0.70000005 11445374
-0.10200001 0.18733335 0.70000005 11642753
-0.10037905 0.1867981 0.69800001 10397042
-0.098765716 0.18626286 0.69600004 8883803
-0.097159997 0.18572763 0.69400001 7834184
-0.095423818 0.18492477 0.69100004 8623700
-0.09410762 0.18492477 0.69100004 8950618
-0.09238857 0.18412191 0.68800002 8621653
-0.090945721 0.1838543 0.68700004 9802323
-0.089506678 0.18358667 0.68600005 10657632
-0.087942861 0.18305144 0.68400002 11380067
-0.08664 0.18305144 0.68400002 10853723
-0.085212387 0.18278381 0.68300003 10458215
-0.083911426 0.18278381 0.68300003 11576696
-0.08261048 0.18278381 0.68300003 11970923
-0.081190482 0.1825162 0.68200004 11970923
-0.079891428 0.1825162 0.68200004 10066028
-0.078592382 0.1825162 0.68200004 6973757
-0.077293336 0.1825162 0.68200004 5793847
-0.07599429 0.1825162 0.68200004 5070124
-0.074695244 0.1825162 0.68200004 6710052
-0.073180959 0.18198095 0.68000001 9012807
-0.07188572 0.18198095 0.68000001 10785629
-0.070798099 0.1825162 0.68200004 11575145
-0.069295242 0.18198095 0.68000001 11051892
-0.068000004 0.18198095 0.68000001 9933411
-0.066704765 0.18198095 0.68000001 8751445
-0.065409526 0.18198095 0.68000001 8817238
-0.064114287 0.18198095 0.68000001 9669726
-0.062819049 0.18198095 0.68000001 11117172
-0.061704762 0.1825162 0.68200004 12036477
-0.060405716 0.1825162 0.68200004 11312754
-0.05910667 0.1825162 0.68200004 9668714
-0.057807621 0.1825162 0.68200004 7300166
-0.056591429 0.18278381 0.68300003 7562796
-0.055371426 0.18305144 0.68400002 8220726
-0.054068573 0.18305144 0.68400002 8024376
-0.052765712 0.18305144 0.68400002 7695411
-0.051613338 0.18358667 0.68600005 8417581
-0.050380003 0.1838543 0.68700004 9601855
-0.049071431 0.1838543 0.68700004 11311446
-0.047832385 0.18412191 0.68800002 12693099
-0.046521906 0.18412191 0.68800002 12103558
-0.045342863 0.18465716 0.69000006 11445628
-0.044092383 0.18492477 0.69100004 10002016
-0.042776193 0.18492477 0.69100004 8686156
-0.041639999 0.18572763 0.69400001 8292175
-0.040434286 0.18626286 0.69600004 8357968
-0.039164763 0.18653049 0.69700003 8226634
-0.038000003 0.18733335 0.70000005 8950357
-0.036719047 0.18760096 0.70100003 9999202
-0.035383813 0.18760096 0.70100003 11841406
-0.034048576 0.18760096 0.70100003 12892540
-0.032713335 0.18760096 0.70100003 13616263
-0.031378098 0.18760096 0.70100003 14405534
-0.030042859 0.18760096 0.70100003 16774339
-0.10615143 0.1889362 0.70100003 16183494
-0.1048162 0.1889362 0.70100003 13617567
-0.10348096 0.1889362 0.70100003 11840153
-0.10200001 0.18866667 0.70000005 11971739
-0.10037905 0.18812761 0.69800001 11579765
-0.09890762 0.1878581 0.69700003 9671768
-0.097440004 0.18758859 0.69600004 8491351
-0.095700003 0.18678001 0.69300002 8688730
-0.09410762 0.18624096 0.69100004 8687192
-0.092657149 0.18597144 0.69000006 8555606
-0.091078095 0.18543239 0.68800002 9277271
-0.089506678 0.18489334 0.68600005 9606236
-0.08820001 0.18489334 0.68600005 10853968
-0.086893335 0.18489334 0.68600005 12104035
-0.085337147 0.18435429 0.68400002 11904889
-0.084034286 0.18435429 0.68400002 11773303
-0.08261048 0.18408476 0.68300003 10591321
-0.08130952 0.18408476 0.68300003 7762222
-0.079891428 0.18381524 0.68200004 6581046
-0.078592382 0.18381524 0.68200004 5659944
-0.077293336 0.18381524 0.68200004 5203014
-0.07599429 0.18381524 0.68200004 4808256
-0.074695244 0.18381524 0.68200004 5857853
-0.073396191 0.18381524 0.68200004 6318404
-0.072097145 0.18381524 0.68200004 9012266
-0.070798099 0.18381524 0.68200004 10393919
-0.069499053 0.18381524 0.68200004 11116638
-0.0682 0.18381524 0.68200004 11445603
-0.066900954 0.18381524 0.68200004 10853993
-0.065601908 0.18381524 0.68200004 10919786
-0.064302862 0.18381524 0.68200004 11182188
-0.063003816 0.18381524 0.68200004 11313774
-0.061704762 0.18381524 0.68200004 10983769
-0.060405716 0.18381524 0.68200004 8746807
-0.05910667 0.18381524 0.68200004 7628106
-0.057807621 0.18381524 0.68200004 7628106
-0.056591429 0.18408476 0.68300003 7563591
-0.055371426 0.18435429 0.68400002 7958349
-0.054068573 0.18435429 0.68400002 7892554
-0.052920006 0.18489334 0.68600005 7760968
-0.051613338 0.18489334 0.68600005 8088657
-0.050380003 0.18516286 0.68700004 8351829
-0.049071431 0.18516286 0.68700004 8681286
-0.047832385 0.18543239 0.68800002 12168315
-0.046521906 0.18543239 0.68800002 11775606
-0.045342863 0.18597144 0.69000006 10657125
-0.044092383 0.18624096 0.69100004 9343841
-0.042776193 0.18624096 0.69100004 9014876
-0.041760001 0.18758859 0.69600004 8884562
-0.040434286 0.18758859 0.69600004 8950355
-0.039164763 0.1878581 0.69700003 9213268
-0.038000003 0.18866667 0.70000005 9673819
-0.036719047 0.1889362 0.70100003 10459253
-0.035383813 0.1889362 0.70100003 11577734
-0.034048576 0.1889362 0.70100003 11905132
-0.032713335 0.1889362 0.70100003 14207887
-0.031378098 0.1889362 0.70100003 14799781
-0.030042859 0.1889362 0.70100003 16774856
-0.10645428 0.19081429 0.70300001 15986115
-0.1048162 0.19027144 0.70100003 14275497
-0.10348096 0.19027144 0.70100003 13155215
-0.10200001 0.19000001 0.70000005 12563078
-0.10037905 0.18945715 0.69800001 11776385
-0.09890762 0.18918572 0.69700003 10065767
-0.097440004 0.1889143 0.69600004 8753235
-0.095700003 0.1881 0.69300002 8819028
-0.094379999 0.1881 0.69300002 8160841
-0.092791438 0.18755715 0.69100004 8424013
-0.091078095 0.18674286 0.68800002 8948810
-0.089506678 0.18620001 0.68600005 8751431
-0.08820001 0.18620001 0.68600005 9933643
-0.086893335 0.18620001 0.68600005 11907433
-0.085337147 0.18565714 0.68400002 12036736
-0.084034286 0.18565714 0.68400002 11444599
-0.08261048 0.18538572 0.68300003 9475154
-0.08130952 0.18538572 0.68300003 6382883
-0.079891428 0.18511429 0.68200004 5202995
-0.078592382 0.18511429 0.68200004 5005616
-0.077293336 0.18511429 0.68200004 5137219
-0.07599429 0.18511429 0.68200004 5137219
-0.074695244 0.18511429 0.68200004 5137219
-0.073396191 0.18511429 0.68200004 5005633
-0.072097145 0.18511429 0.68200004 5989663
-0.070798099 0.18511429 0.68200004 7568695
-0.069499053 0.18511429 0.68200004 10193987
-0.0682 0.18511429 0.68200004 10654538
-0.066900954 0.18511429 0.68200004 11640425
-0.065601908 0.18511429 0.68200004 11706218
-0.064302862 0.18511429 0.68200004 11575665
-0.063003816 0.18511429 0.68200004 11049321
-0.061704762 0.18511429 0.68200004 10063448
-0.060405716 0.18511429 0.68200004 7563314
-0.05910667 0.18511429 0.68200004 7365426
-0.057892382 0.18538572 0.68300003 7694391
-0.056674287 0.18565714 0.68400002 7694900
-0.055371426 0.18565714 0.68400002 7892279
-0.05422667 0.18620001 0.68600005 7695427
-0.052920006 0.18620001 0.68600005 7827013
-0.051688574 0.18647143 0.68700004 7826761
-0.050380003 0.18647143 0.68700004 7760968
-0.04914286 0.18674286 0.68800002 8287537
-0.047971431 0.18728572 0.69000006 12103531
-0.046657149 0.18728572 0.69000006 11776635
-0.045408577 0.18755715 0.69100004 10592361
-0.044220001 0.1881 0.69300002 8292168
-0.0429 0.1881 0.69300002 8818512
-0.041760001 0.1889143 0.69600004 8884573
-0.040434286 0.1889143 0.69600004 8818780
-0.039164763 0.18918572 0.69700003 9213018
-0.038000003 0.19000001 0.70000005 10199913
-0.036719047 0.19027144 0.70100003 10854280
-0.035484761 0.19081429 0.70300001 10327936
-0.034145713 0.19081429 0.70300001 10983720
-0.032713335 0.19027144 0.70100003 13747026
-0.031378098 0.19027144 0.70100003 15194021
-0.030042859 0.19027144 0.70100003 16774081
-0.10645428 0.19215333 0.70300001 16314819
-0.1048162 0.19160667 0.70100003 15459510
-0.10348096 0.19160667 0.70100003 14209170
-0.10200001 0.19133334 0.70000005 12498552
-0.10037905 0.19078667 0.69800001 11776117
-0.09890762 0.19051333 0.69700003 10460257
-0.097440004 0.19024001 0.69600004 8949853
-0.095700003 0.18942 0.69300002 8884060
-0.094379999 0.18942 0.69300002 8423770
-0.092791438 0.18887335 0.69100004 8292184
-0.091342866 0.18860002 0.69000006 8620872
-0.08976762 0.18805334 0.68800002 8620872
-0.08820001 0.18750668 0.68600005 9736023
-0.086893335 0.18750668 0.68600005 11709813
-0.085337147 0.18696 0.68400002 11577441
-0.084034286 0.18696 0.68400002 9603651
-0.082731433 0.18696 0.68400002 7634227
-0.08130952 0.18668668 0.68300003 5857816
-0.080008574 0.18668668 0.68300003 5400645
-0.078707621 0.18668668 0.68300003 5137473
-0.077293336 0.18641333 0.68200004 4940094
-0.07599429 0.18641333 0.68200004 4940094
-0.074695244 0.18641333 0.68200004 5070654
-0.073396191 0.18641333 0.68200004 4807482
-0.072097145 0.18641333 0.68200004 5332022
-0.070901908 0.18668668 0.68300003 4937264
-0.069600955 0.18668668 0.68300003 7629339
-0.068300001 0.18668668 0.68300003 9734715
-0.066900954 0.18641333 0.68200004 11443557
-0.065601908 0.18641333 0.68200004 12101487
-0.064397149 0.18668668 0.68300003 11444574
-0.063096188 0.18668668 0.68300003 9404991
-0.061795238 0.18668668 0.68300003 8221503
-0.060494285 0.18668668 0.68300003 7826745
-0.059193335 0.18668668 0.68300003 7629380
-0.057892382 0.18668668 0.68300003 7629380
-0.056840003 0.18750668 0.68600005 7695911
-0.055533338 0.18750668 0.68600005 7959083
-0.05422667 0.18750668 0.68600005 7959871
-0.052920006 0.18750668 0.68600005 7959871
-0.051688574 0.18778001 0.68700004 8024397
-0.050453335 0.18805334 0.68800002 7827018
-0.04914286 0.18805334 0.68800002 8287312
-0.047971431 0.18860002 0.69000006 11971720
-0.046724766 0.18887335 0.69100004 11710061
-0.045408577 0.18887335 0.69100004 11183717
-0.044220001 0.18942 0.69300002 9014643
-0.042961907 0.18969335 0.69400001 8751471
-0.041760001 0.19024001 0.69600004 8818530
-0.040434286 0.19024001 0.69600004 8686944
-0.039164763 0.19051333 0.69700003 9539675
-0.038054287 0.19160667 0.70100003 11447672
-0.036823809 0.19215333 0.70300001 11051647
-0.035484761 0.19215333 0.70300001 9012064
-0.034194287 0.19242668 0.70400006 9340234
-0.032853335 0.19242668 0.70400006 12958849
-0.031512383 0.19242668 0.70400006 14866078
-0.03017143 0.19242668 0.70400006 16774589
-0.10645428 0.19349238 0.70300001 16380360
-0.10511524 0.19349238 0.70300001 16314567
-0.10348096 0.1929419 0.70100003 14407594
-0.10170857 0.19211619 0.69800001 11841667
-0.10037905 0.19211619 0.69800001 11906931
-0.09890762 0.19184096 0.69700003 11051622
-0.097440004 0.19156572 0.69600004 9935726
-0.095838092 0.19101523 0.69400001 9146210
-0.094379999 0.19074 0.69300002 8753759
-0.092791438 0.19018954 0.69100004 8293208
-0.091342866 0.1899143 0.69000006 8489806
-0.08976762 0.18936381 0.68800002 8489806
-0.08832857 0.18908858 0.68700004 9210960
-0.086893335 0.18881334 0.68600005 11184750
-0.085586667 0.18881334 0.68600005 11052403
-0.084279999 0.18881334 0.68600005 8749648
-0.082731433 0.18826286 0.68400002 6320670
-0.081428573 0.18826286 0.68400002 5465361
-0.080008574 0.18798763 0.68300003 5137735
-0.078707621 0.18798763 0.68300003 5006149
-0.077406667 0.18798763 0.68300003 5070906
-0.076105714 0.18798763 0.68300003 5070906
-0.074804768 0.18798763 0.68300003 5136699
-0.073503807 0.18798763 0.68300003 5070906
-0.072202861 0.18798763 0.68300003 4873776
-0.070901908 0.18798763 0.68300003 4479018
-0.069600955 0.18798763 0.68300003 6579712
-0.068300001 0.18798763 0.68300003 8487700
-0.066999055 0.18798763 0.68300003 10785631
-0.065698095 0.18798763 0.68300003 11838319
-0.064397149 0.18798763 0.68300003 11051118
-0.063096188 0.18798763 0.68300003 7498296
-0.061795238 0.18798763 0.68300003 7629346
-0.060494285 0.18798763 0.68300003 7892518
-0.059280004 0.18826286 0.68400002 7760968
-0.05797714 0.18826286 0.68400002 7629382
-0.056840003 0.18881334 0.68600005 7630643
-0.055533338 0.18881334 0.68600005 8222780
-0.05422667 0.18881334 0.68600005 8026704
-0.052997146 0.18908858 0.68700004 7697739
-0.051688574 0.18908858 0.68700004 8090444
-0.050453335 0.18936381 0.68800002 7893065
-0.04914286 0.18936381 0.68800002 8220733
-0.047971431 0.1899143 0.69000006 11970934
-0.046724766 0.19018954 0.69100004 11380839
-0.045540001 0.19074 0.69300002 11446632
-0.044283811 0.19101523 0.69400001 10264693
-0.043085717 0.19156572 0.69600004 9212005
-0.041760001 0.19156572 0.69600004 8687446
-0.040492382 0.19184096 0.69700003 8621653
-0.039220951 0.19211619 0.69800001 9407826
-0.038054287 0.1929419 0.70100003 11381616
-0.036823809 0.19349238 0.70300001 11314812
-0.035535242 0.19376762 0.70400006 8617299
-0.034194287 0.19376762 0.70400006 8156946
-0.032853335 0.19376762 0.70400006 13223007
-0.031512383 0.19376762 0.70400006 14734749
-0.03017143 0.19376762 0.70400006 16774846
-0.10706 0.19594 0.70700002 16249033
-0.10556381 0.19566287 0.70600003 16512205
-0.10348096 0.19427715 0.70100003 14736298
-0.10170857 0.19344573 0.69800001 10459753
-0.10037905 0.19344573 0.69800001 10723922
-0.09890762 0.19316858 0.69700003 11316059
-0.097440004 0.19289143 0.69600004 10330227
-0.095838092 0.19233714 0.69400001 9211746
-0.094379999 0.19206001 0.69300002 8292702
-0.092791438 0.19150572 0.69100004 8292702
-0.091342866 0.1912286 0.69000006 8424020
-0.090028577 0.1912286 0.69000006 8358227
-0.08832857 0.19039714 0.68700004 9342285
-0.087020002 0.19039714 0.68700004 11250282
-0.085586667 0.19012001 0.68600005 11052401
-0.084279999 0.19012001 0.68600005 8683853
-0.082731433 0.18956572 0.68400002 6124097
-0.081428573 0.18956572 0.68400002 5466167
-0.080125719 0.18956572 0.68400002 4745030
-0.078822859 0.18956572 0.68400002 4745030
-0.077406667 0.18928857 0.68300003 4940094
-0.076105714 0.18928857 0.68300003 4874301
-0.074804768 0.18928857 0.68300003 5269297
-0.073503807 0.18928857 0.68300003 5335090
-0.072202861 0.18928857 0.68300003 4809009
-0.071005717 0.18956572 0.68400002 4677423
-0.069702856 0.18956572 0.68400002 5397785
-0.068399996 0.18956572 0.68400002 7239989
-0.067097142 0.18956572 0.68400002 10326861
-0.065794282 0.18956572 0.68400002 11445342
-0.064491428 0.18956572 0.68400002 10721880
-0.063188568 0.18956572 0.68400002 7563816
-0.061885718 0.18956572 0.68400002 7498548
-0.060582858 0.18956572 0.68400002 7498548
-0.059280004 0.18956572 0.68400002 7695177
-0.05814667 0.19012001 0.68600005 7826763
-0.056840003 0.19012001 0.68600005 7761477
-0.055533338 0.19012001 0.68600005 8287821
-0.05422667 0.19012001 0.68600005 7959871
-0.052997146 0.19039714 0.68700004 7630906
-0.051688574 0.19039714 0.68700004 8089415
-0.050453335 0.19067429 0.68800002 8944724
-0.049285717 0.1912286 0.69000006 9273188
-0.048040956 0.19150572 0.69100004 12365459
-0.046724766 0.19150572 0.69100004 12300140
-0.045540001 0.19206001 0.69300002 12563312
-0.044283811 0.19233714 0.69400001 11709811
-0.043085717 0.19289143 0.69600004 11183467
-0.041820001 0.19316858 0.69700003 9475938
-0.040492382 0.19316858 0.69700003 9081180
-0.039220951 0.19344573 0.69800001 9999470
-0.038054287 0.19427715 0.70100003 11315330
-0.036823809 0.19483143 0.70300001 11248987
-0.035535242 0.19510858 0.70400006 8617267
-0.034194287 0.19510858 0.70400006 8551256
-0.032946669 0.19566287 0.70600003 13222559
-0.031601906 0.19566287 0.70600003 14931878
-0.10706 0.19728667 0.70700002 16249287
-0.10556381 0.19700761 0.70600003 16446666
-0.10392382 0.19644953 0.70400006 14934199
-0.10200001 0.19533335 0.70000005 9736552
-0.10037905 0.19477524 0.69800001 9210154
-0.099049523 0.19477524 0.69800001 10262842
-0.097580008 0.1944962 0.69700003 10592372
-0.096114293 0.19421715 0.69600004 9671270
-0.094516195 0.19365904 0.69400001 8226643
-0.093060002 0.19338001 0.69300002 8358229
-0.091475241 0.19282192 0.69100004 8423754
-0.090159051 0.19282192 0.69100004 8621133
-0.088457145 0.19198476 0.68800002 9539675
-0.087020002 0.19170573 0.68700004 11316086
-0.085711427 0.19170573 0.68700004 11249789
-0.084279999 0.19142668 0.68600005 9802343
-0.082973339 0.19142668 0.68600005 6519114
-0.081666671 0.19142668 0.68600005 5203254
-0.080125719 0.19086857 0.68400002 4547651
-0.078822859 0.19086857 0.68400002 4547651
-0.077520005 0.19086857 0.68400002 4743488
-0.076217145 0.19086857 0.68400002 4809281
-0.074914292 0.19086857 0.68400002 5007156
-0.073611431 0.19086857 0.68400002 4743984
-0.072308578 0.19086857 0.68400002 4480558
-0.071005717 0.19086857 0.68400002 4612144
-0.069702856 0.19086857 0.68400002 4546067
-0.068600006 0.19142668 0.68600005 6454064
-0.067097142 0.19086857 0.68400002 8947275
-0.065794282 0.19086857 0.68400002 10855272
-0.064680003 0.19142668 0.68600005 10064986
-0.063373342 0.19142668 0.68600005 7564852
-0.062066671 0.19142668 0.68600005 7958831
-0.060760003 0.19142668 0.68600005 7827245
-0.059453338 0.19142668 0.68600005 7760968
-0.05814667 0.19142668 0.68600005 7760968
-0.056840003 0.19142668 0.68600005 7761990
-0.055533338 0.19142668 0.68600005 7959369
-0.054305717 0.19170573 0.68700004 7695684
-0.052997146 0.19170573 0.68700004 7498305
-0.05176381 0.19198476 0.68800002 7629350
-0.050600003 0.19254287 0.69000006 10063691
-0.049285717 0.19254287 0.69000006 11049078
-0.048040956 0.19282192 0.69100004 11707008
-0.046860002 0.19338001 0.69300002 11903835
-0.045605715 0.19365904 0.69400001 12298593
-0.044411432 0.19421715 0.69600004 12365179
-0.043085717 0.19421715 0.69600004 12102007
-0.041820001 0.1944962 0.69700003 10789490
-0.040550474 0.19477524 0.69800001 10526318
-0.039333336 0.19533335 0.70000005 10986610
-0.038054287 0.19561239 0.70100003 10591852
-0.036823809 0.19617048 0.70300001 10458967
-0.035535242 0.19644953 0.70400006 8682556
-0.034194287 0.19644953 0.70400006 8419666
-0.032946669 0.19700761 0.70600003 13748899
-0.031601906 0.19700761 0.70600003 15129518
-0.10721143 0.19891429 0.708 16380873
-0.10571333 0.19863333 0.70700002 16512459
-0.10436667 0.19863333 0.70700002 14999997
-0.10200001 0.19666667 0.70000005 9210213
-0.10037905 0.19610476 0.69800001 8554820
-0.099049523 0.19610476 0.69800001 9146957
-0.097580008 0.19582382 0.69700003 9737836
-0.096252382 0.19582382 0.69700003 10329973
-0.094788581 0.19554286 0.69600004 9212003
-0.093060002 0.19470002 0.69300002 8948831
-0.091740005 0.19470002 0.69300002 9146705
-0.090159051 0.19413811 0.69100004 10265186
-0.088457145 0.19329524 0.68800002 11314803
-0.08714667 0.19329524 0.68800002 11577975
-0.085711427 0.19301429 0.68700004 11446139
-0.084402859 0.19301429 0.68700004 11314553
-0.082973339 0.19273335 0.68600005 8490352
-0.081666671 0.19273335 0.68600005 5661253
-0.080360003 0.19273335 0.68600005 4284990
-0.079053335 0.19273335 0.68600005 4284990
-0.077520005 0.19217142 0.68400002 4809281
-0.076217145 0.19217142 0.68400002 5006660
-0.074914292 0.19217142 0.68400002 4678196
-0.073611431 0.19217142 0.68400002 4546610
-0.072308578 0.19217142 0.68400002 4810034
-0.071213335 0.19273335 0.68600005 4546862
-0.069906674 0.19273335 0.68600005 5201703
-0.068600006 0.19273335 0.68600005 7701837
-0.067293338 0.19273335 0.68600005 10065247
-0.065986671 0.19273335 0.68600005 11381107
-0.064680003 0.19273335 0.68600005 10920284
-0.063373342 0.19273335 0.68600005 8749115
-0.062066671 0.19273335 0.68600005 7763003
-0.060760003 0.19273335 0.68600005 7368245
-0.059453338 0.19273335 0.68600005 7432262
-0.05814667 0.19273335 0.68600005 7037504
-0.056840003 0.19273335 0.68600005 7761225
-0.055614289 0.19301429 0.68700004 7892811
-0.054305717 0.19301429 0.68700004 7761997
-0.052997146 0.19301429 0.68700004 7827790
-0.05176381 0.19329524 0.68800002 8353353
-0.050600003 0.19385716 0.69000006 11708796
-0.049357146 0.19413811 0.69100004 11642991
-0.048179999 0.19470002 0.69300002 9800787
-0.046860002 0.19470002 0.69300002 10787655
-0.045605715 0.19498095 0.69400001 11379792
-0.044411432 0.19554286 0.69600004 12167793
-0.04314762 0.19582382 0.69700003 13154688
-0.04188 0.19610476 0.69800001 12300421
-0.040550474 0.19610476 0.69800001 12234628
-0.039333336 0.19666667 0.70000005 11512432
-0.038162857 0.19750953 0.70300001 9209677
-0.03687619 0.1977905 0.70400006 9142603
-0.035535242 0.1977905 0.70400006 8813638
-0.034194287 0.1977905 0.70400006 9077076
-0.032993335 0.19863333 0.70700002 14340516
-0.031646665 0.19863333 0.70700002 15195313
-0.10706 0.19998001 0.70700002 16446153
-0.10571333 0.19998001 0.70700002 16643532
-0.10436667 0.19998001 0.70700002 15000251
-0.10214572 0.19828287 0.70100003 9934190
-0.10066667 0.19800001 0.70000005 7636296
-0.099333346 0.19800001 0.70000005 7965261
-0.097720005 0.19743428 0.69800001 9737286
-0.096252382 0.19715142 0.69700003 10921560
-0.094788581 0.19686857 0.69600004 10066260
-0.093194291 0.19630285 0.69400001 9474123
-0.091740005 0.19601999 0.69300002 9409107
-0.090159051 0.1954543 0.69100004 11185518
-0.088457145 0.19460572 0.68800002 11840382
-0.08714667 0.19460572 0.68800002 11182452
-0.085836194 0.19460572 0.68800002 11312475
-0.084402859 0.19432287 0.68700004 11575647
-0.083094291 0.19432287 0.68700004 10198660
-0.081785724 0.19432287 0.68700004 7566940
-0.080360003 0.19404002 0.68600005 4678448
-0.079053335 0.19404002 0.68600005 4612655
-0.077746667 0.19404002 0.68600005 5006651
-0.076440006 0.19404002 0.68600005 4677686
-0.075133339 0.19404002 0.68600005 4415535
-0.073826671 0.19404002 0.68600005 4349742
-0.072520003 0.19404002 0.68600005 4679218
-0.071213335 0.19404002 0.68600005 4218667
-0.069906674 0.19404002 0.68600005 5660448
-0.068600006 0.19404002 0.68600005 9476442
-0.067293338 0.19404002 0.68600005 10722675
-0.065986671 0.19404002 0.68600005 11051640
-0.064680003 0.19404002 0.68600005 10920293
-0.063373342 0.19404002 0.68600005 9670226
-0.062066671 0.19404002 0.68600005 8618060
-0.060760003 0.19404002 0.68600005 7565372
-0.059453338 0.19404002 0.68600005 7235385
-0.05814667 0.19404002 0.68600005 7498557
-0.05692286 0.19432287 0.68700004 7827531
-0.055614289 0.19432287 0.68700004 7695945
-0.054305717 0.19432287 0.68700004 7368520
-0.053074285 0.19460572 0.68800002 8289622
-0.05191429 0.19517145 0.69000006 9734492
-0.050673336 0.1954543 0.69100004 12037247
-0.049357146 0.1954543 0.69100004 11381123
-0.048179999 0.19601999 0.69300002 6775613
-0.046860002 0.19601999 0.69300002 7366151
-0.045605715 0.19630285 0.69400001 9010976
-0.044411432 0.19686857 0.69600004 11245655
-0.04314762 0.19715142 0.69700003 11969378
-0.041820001 0.19715142 0.69700003 12561277
-0.040550474 0.19743428 0.69800001 12824449
-0.039333336 0.19800001 0.70000005 12234619
-0.038162857 0.19884858 0.70300001 8944969
-0.03687619 0.19913144 0.70400006 8484673
-0.035535242 0.19913144 0.70400006 8945224
-0.034291428 0.19969715 0.70600003 9733468
-0.032946669 0.19969715 0.70600003 14865322
-0.10556381 0.20104191 0.70600003 16643784
-0.10421906 0.20104191 0.70600003 15197628
-0.10200001 0.19933335 0.70000005 10657911
-0.10066667 0.19933335 0.70000005 7571051
-0.099333346 0.19933335 0.70000005 6189398
-0.097720005 0.19876382 0.69800001 7895632
-0.096252382 0.19847906 0.69700003 10790524
-0.094788581 0.1981943 0.69600004 11248733
-0.093194291 0.19762476 0.69400001 11182940
-0.091740005 0.19734 0.69300002 11380333
-0.09042 0.19734 0.69300002 12038263
-0.088714294 0.19648573 0.69000006 11905393
-0.087400004 0.19648573 0.69000006 9734224
-0.085836194 0.19591619 0.68800002 9996867
-0.084525719 0.19591619 0.68800002 11181141
-0.083094291 0.19563143 0.68700004 10722425
-0.081785724 0.19563143 0.68700004 10459253
-0.080477148 0.19563143 0.68700004 8029273
-0.079053335 0.19534668 0.68600005 6055483
-0.077746667 0.19534668 0.68600005 4547380
-0.076440006 0.19534668 0.68600005 3823657
-0.075133339 0.19534668 0.68600005 4021811
-0.073826671 0.19534668 0.68600005 4087604
-0.072520003 0.19534668 0.68600005 5464873
-0.071213335 0.19534668 0.68600005 6780733
-0.069906674 0.19534668 0.68600005 8946773
-0.068600006 0.19534668 0.68600005 11183735
-0.067293338 0.19534668 0.68600005 11116659
-0.065986671 0.19534668 0.68600005 10853487
-0.064680003 0.19534668 0.68600005 10854241
-0.063373342 0.19534668 0.68600005 11314792
-0.062066671 0.19534668 0.68600005 10393708
-0.060760003 0.19534668 0.68600005 9538399
-0.059453338 0.19534668 0.68600005 8617810
-0.058231428 0.19563143 0.68700004 7630915
-0.05692286 0.19563143 0.68700004 7630162
-0.055614289 0.19563143 0.68700004 7432783
-0.054305717 0.19563143 0.68700004 8287560
-0.053074285 0.19591619 0.68800002 10985073
-0.05191429 0.19648573 0.69000006 10985073
-0.050673336 0.19677049 0.69100004 11050866
-0.049500003 0.19734 0.69300002 10000474
-0.048179999 0.19734 0.69300002 5789722
-0.04692762 0.19762476 0.69400001 5924934
-0.045737144 0.1981943 0.69600004 6188106
-0.044411432 0.1981943 0.69600004 8157750
-0.04314762 0.19847906 0.69700003 9934161
-0.041820001 0.19847906 0.69700003 11839078
-0.040550474 0.19876382 0.69800001 12365422
-0.039333336 0.19933335 0.70000005 11905636
-0.038162857 0.20018762 0.70300001 8615986
-0.03687619 0.2004724 0.70400006 8551254
-0.035535242 0.2004724 0.70400006 8748633
-0.034291428 0.20104191 0.70600003 9865315
-0.032946669 0.20104191 0.70600003 14931376
-0.10556381 0.20238668 0.70600003 16578250
-0.10421906 0.20238668 0.70600003 15460810
-0.10287429 0.20238668 0.70600003 11118472
-0.10152952 0.20238668 0.70600003 8950625
-0.099475242 0.20095333 0.70100003 6582077
-0.097720005 0.20009334 0.69800001 7501866
-0.096390471 0.20009334 0.69800001 9804621
-0.094788581 0.19952002 0.69600004 11511657
-0.093462862 0.19952002 0.69600004 11774829
-0.091872387 0.19894665 0.69400001 12036484
-0.09042 0.19866 0.69300002 11970691
-0.088842861 0.19808668 0.69100004 11050866
-0.087400004 0.19780001 0.69000006 8090181
-0.086085722 0.19780001 0.69000006 8811555
-0.084525719 0.19722667 0.68800002 10127415
-0.083215237 0.19722667 0.68800002 11246448
-0.081904761 0.19722667 0.68800002 11641206
-0.080477148 0.19694002 0.68700004 10396281
-0.07916858 0.19694002 0.68700004 8093526
-0.077860005 0.19694002 0.68700004 5336397
-0.07655143 0.19694002 0.68700004 4217916
-0.075242862 0.19694002 0.68700004 4612101
-0.073826671 0.19665334 0.68600005 4809480
-0.072520003 0.19665334 0.68600005 6120747
-0.071213335 0.19665334 0.68600005 8357709
-0.069906674 0.19665334 0.68600005 10917226
-0.068600006 0.19665334 0.68600005 11377777
-0.067293338 0.19665334 0.68600005 10721639
-0.065986671 0.19665334 0.68600005 10392674
-0.064680003 0.19665334 0.68600005 10525285
-0.063373342 0.19665334 0.68600005 10854250
-0.06215715 0.19694002 0.68700004 11181940
-0.060848575 0.19694002 0.68700004 10589803
-0.05954 0.19694002 0.68700004 9669232
-0.058231428 0.19694002 0.68700004 7827028
-0.05692286 0.19694002 0.68700004 7629350
-0.055614289 0.19694002 0.68700004 7826729
-0.054305717 0.19694002 0.68700004 9076044
-0.053074285 0.19722667 0.68800002 11641971
-0.05191429 0.19780001 0.69000006 11577473
-0.050673336 0.19808668 0.69100004 9866855
-0.049500003 0.19866 0.69300002 7766092
-0.048179999 0.19866 0.69300002 6187060
-0.04692762 0.19894665 0.69400001 5468233
-0.045737144 0.19952002 0.69600004 5139268
-0.044411432 0.19952002 0.69600004 5465615
-0.04314762 0.19980668 0.69700003 7176233
-0.041820001 0.19980668 0.69700003 10721880
-0.040550474 0.20009334 0.69800001 11774568
-0.039333336 0.20066668 0.70000005 10985075
-0.038162857 0.20152666 0.70300001 8419148
-0.03687619 0.20181336 0.70400006 8616525
-0.035535242 0.20181336 0.70400006 8945490
-0.034388572 0.20296 0.708 10062937
-0.033040002 0.20296 0.708 14865826
-0.10556381 0.20373145 0.70600003 16577998
-0.10421906 0.20373145 0.70600003 15789527
-0.10287429 0.20373145 0.70600003 12960428
-0.10152952 0.20373145 0.70600003 8754294
-0.09975905 0.20286572 0.70300001 6714711
-0.098140001 0.20228858 0.70100003 6977614
-0.096390471 0.20142286 0.69800001 7832923
-0.094924763 0.20113429 0.69700003 11116888
-0.093462862 0.20084573 0.69600004 12761713
-0.091872387 0.20026857 0.69400001 12101759
-0.090550475 0.20026857 0.69400001 10456934
-0.088842861 0.19940287 0.69100004 8945744
-0.087400004 0.19911431 0.69000006 8024642
-0.086085722 0.19911431 0.69000006 8155738
-0.084771439 0.19911431 0.69000006 8550496
-0.083215237 0.19853714 0.68800002 9997637
-0.081904761 0.19853714 0.68800002 11510876
-0.080477148 0.19824858 0.68700004 10920036
-0.07916858 0.19824858 0.68700004 10459485
-0.077860005 0.19824858 0.68700004 7503482
-0.07655143 0.19824858 0.68700004 5727071
-0.075242862 0.19824858 0.68700004 5729841
-0.073934287 0.19824858 0.68700004 7769424
-0.072520003 0.19796002 0.68600005 10394469
-0.071213335 0.19796002 0.68600005 10986606
-0.069906674 0.19796002 0.68600005 10984807
-0.068600006 0.19796002 0.68600005 10326877
-0.067293338 0.19796002 0.68600005 9078613
-0.065986671 0.19796002 0.68600005 8881234
-0.064680003 0.19796002 0.68600005 9670757
-0.063465714 0.19824858 0.68700004 10394480
-0.06215715 0.19824858 0.68700004 10852971
-0.060848575 0.19824858 0.68700004 11576694
-0.05954 0.19824858 0.68700004 11314042
-0.058231428 0.19824858 0.68700004 10524526
-0.05692286 0.19824858 0.68700004 9932889
-0.055614289 0.19824858 0.68700004 9603924
-0.054305717 0.19824858 0.68700004 10064486
-0.053074285 0.19853714 0.68800002 11511932
-0.05191429 0.19911431 0.69000006 10394471
-0.050673336 0.19940287 0.69100004 6973235
-0.049500003 0.19998001 0.69300002 6188857
-0.04824952 0.20026857 0.69400001 6320443
-0.04692762 0.20026857 0.69400001 5730625
-0.045737144 0.20084573 0.69600004 5533246
-0.044475239 0.20113429 0.69700003 5663045
-0.04314762 0.20113429 0.69700003 6123596
-0.04188 0.20142286 0.69800001 10131008
-0.040550474 0.20142286 0.69800001 11644247
-0.039333336 0.20200002 0.70000005 10853489
-0.038217146 0.2031543 0.70400006 8024390
-0.03687619 0.2031543 0.70400006 8158041
-0.035636194 0.20373145 0.70600003 8947557
-0.034388572 0.20430857 0.708 10196320
-0.033040002 0.20430857 0.708 14275486
-0.10556381 0.20507619 0.70600003 16512200
-0.10421906 0.20507619 0.70600003 16052438
-0.10287429 0.20507619 0.70600003 13223339
-0.10152952 0.20507619 0.70600003 10331765
-0.099900961 0.20449525 0.70400006 7173701
-0.098420002 0.20420477 0.70300001 6584396
-0.096804768 0.20362382 0.70100003 6715982
-0.095060952 0.20275238 0.69800001 9866067
-0.093597144 0.20246191 0.69700003 12300408
-0.092137143 0.20217144 0.69600004 11774339
-0.090550475 0.20159048 0.69400001 8550482
-0.088842861 0.20071906 0.69100004 8156480
-0.087526672 0.20071906 0.69100004 7761722
-0.086085722 0.20042858 0.69000006 7761997
-0.084771439 0.20042858 0.69000006 7696204
-0.083215237 0.19984762 0.68800002 8419096
-0.081904761 0.19984762 0.68800002 10129714
-0.080477148 0.19955714 0.68700004 11378284
-0.07916858 0.19955714 0.68700004 11115112
-0.077860005 0.19955714 0.68700004 9540476
-0.07655143 0.19955714 0.68700004 6513998
-0.075242862 0.19955714 0.68700004 6777639
-0.073934287 0.19955714 0.68700004 9606738
-0.072520003 0.19926667 0.68600005 10788214
-0.071213335 0.19926667 0.68600005 10919800
-0.069906674 0.19926667 0.68600005 10722416
-0.068600006 0.19926667 0.68600005 9603935
-0.067293338 0.19926667 0.68600005 8357968
-0.065986671 0.19926667 0.68600005 8226382
-0.064680003 0.19926667 0.68600005 8686172
-0.063465714 0.19955714 0.68700004 9015137
-0.06215715 0.19955714 0.68700004 10391632
-0.060848575 0.19955714 0.68700004 11378527
-0.05954 0.19955714 0.68700004 11772540
-0.058231428 0.19955714 0.68700004 11377782
-0.05692286 0.19955714 0.68700004 10590051
-0.055614289 0.19955714 0.68700004 11247981
-0.054384761 0.19984762 0.68800002 11249019
-0.053074285 0.19984762 0.68800002 10130538
-0.051989529 0.20071906 0.69100004 8488273
-0.05082 0.20130001 0.69300002 6317104
-0.049571428 0.20159048 0.69400001 5599039
-0.04824952 0.20159048 0.69400001 5796418
-0.047062859 0.20217144 0.69600004 5335090
-0.045802858 0.20246191 0.69700003 5861434
-0.044475239 0.20246191 0.69700003 5598022
-0.04314762 0.20246191 0.69700003 5795401
-0.04188 0.20275238 0.69800001 8947527
-0.040550474 0.20275238 0.69800001 11381868
-0.039389525 0.20362382 0.70100003 10459772
-0.038217146 0.20449525 0.70400006 8420189
-0.037033334 0.20536667 0.70700002 8290878
-0.035686668 0.20536667 0.70700002 9014601
-0.034388572 0.20565714 0.708 10722673
-0.033040002 0.20565714 0.708 13946530
-0.10421906 0.20642096 0.70600003 16117708
-0.10287429 0.20642096 0.70600003 13551781
-0.10152952 0.20642096 0.70600003 10594692
-0.099900961 0.20583621 0.70400006 7305042
-0.098420002 0.2055438 0.70300001 6256727
-0.096804768 0.20495906 0.70100003 6256727
-0.095060952 0.20408191 0.69800001 9537865
-0.093597144 0.20378953 0.69700003 11774827
-0.092137143 0.20349716 0.69600004 11510615
-0.090550475 0.20291238 0.69400001 8220965
-0.088842861 0.20203525 0.69100004 7827790
-0.087526672 0.20203525 0.69100004 7827790
-0.086210482 0.20203525 0.69100004 7893324
-0.084771439 0.20174287 0.69000006 7695945
-0.08345715 0.20174287 0.69000006 8024606
-0.081904761 0.20115809 0.68800002 8419364
-0.080594286 0.20115809 0.68800002 10193753
-0.079283811 0.20115809 0.68800002 11509613
-0.077860005 0.20086573 0.68700004 10853239
-0.07655143 0.20086573 0.68700004 10392688
-0.075242862 0.20086573 0.68700004 10525042
-0.073934287 0.20086573 0.68700004 11117179
-0.072520003 0.20057335 0.68600005 10459249
-0.071213335 0.20057335 0.68600005 9932905
-0.069906674 0.20057335 0.68600005 8947534
-0.068600006 0.20057335 0.68600005 8355397
-0.067293338 0.20057335 0.68600005 7766342
-0.065986671 0.20057335 0.68600005 7634756
-0.064774282 0.20086573 0.68700004 7962958
-0.063465714 0.20086573 0.68700004 7831372
-0.06215715 0.20086573 0.68700004 9012287
-0.060848575 0.20086573 0.68700004 10064975
-0.05954 0.20086573 0.68700004 10656110
-0.058231428 0.20086573 0.68700004 11445626
-0.05692286 0.20086573 0.68700004 11576678
-0.055695239 0.20115809 0.68800002 12234608
-0.054384761 0.20115809 0.68800002 10985854
-0.053228576 0.20174287 0.69000006 8090962
-0.051989529 0.20203525 0.69100004 5924934
-0.05082 0.20262 0.69300002 5859141
-0.049571428 0.20291238 0.69400001 5533769
-0.048388574 0.20349716 0.69600004 5533769
-0.047062859 0.20349716 0.69600004 5664316
-0.045802858 0.20378953 0.69700003 5664316
-0.044475239 0.20378953 0.69700003 5401411
-0.04314762 0.20378953 0.69700003 6256720
-0.04188 0.20408191 0.69800001 9407576
-0.04066667 0.20466667 0.70000005 12631433
-0.039389525 0.20495906 0.70100003 11578223
-0.038325716 0.20642096 0.70600003 9012296
-0.037033334 0.20671335 0.70700002 8685134
-0.035737146 0.20700571 0.708 10329959
-0.034485716 0.20759049 0.71000004 10525805
-0.033133335 0.20759049 0.71000004 13683869
-0.031780954 0.20759049 0.71000004 16051361
-0.10421906 0.20776571 0.70600003 16183242
-0.10287429 0.20776571 0.70600003 14143659
-0.10152952 0.20776571 0.70600003 11712652
-0.099900961 0.20717715 0.70400006 7830865
-0.098420002 0.20688286 0.70300001 5732175
-0.096804768 0.2062943 0.70100003 5863761
-0.095333338 0.20600002 0.70000005 8356169
-0.093731426 0.20541143 0.69800001 11119475
-0.092269525 0.20511714 0.69700003 9999195
-0.090550475 0.20423429 0.69400001 7828026
-0.089099996 0.20394 0.69300002 7893833
-0.087526672 0.20335144 0.69100004 7893833
-0.086210482 0.20335144 0.69100004 7959619
-0.084771439 0.20305716 0.69000006 7893826
-0.08345715 0.20305716 0.69000006 6973206
-0.082142867 0.20305716 0.69000006 7565343
-0.080828577 0.20305716 0.69000006 9272383
-0.079283811 0.20246857 0.68800002 10719829
-0.077973336 0.20246857 0.68800002 11706481
-0.076662861 0.20246857 0.68800002 11706481
-0.075352386 0.20246857 0.68800002 11509372
-0.073934287 0.20217429 0.68700004 11377786
-0.072625719 0.20217429 0.68700004 10328165
-0.071317144 0.20217429 0.68700004 8946512
-0.070008576 0.20217429 0.68700004 7963212
-0.068700001 0.20217429 0.68700004 7831626
-0.067391433 0.20217429 0.68700004 7635544
-0.066082858 0.20217429 0.68700004 7701337
-0.064774282 0.20217429 0.68700004 7831892
-0.063558094 0.20246857 0.68800002 7700306
-0.062247619 0.20246857 0.68800002 8094267
-0.060937144 0.20246857 0.68800002 8357439
-0.059626669 0.20246857 0.68800002 9800785
-0.058316194 0.20246857 0.68800002 11314024
-0.057005715 0.20246857 0.68800002 11445358
-0.055857148 0.20305716 0.69000006 11642737
-0.054621909 0.20335144 0.69100004 10394993
-0.053305719 0.20335144 0.69100004 6776378
-0.052140001 0.20394 0.69300002 5007402
-0.05082 0.20394 0.69300002 5204781
-0.049571428 0.20423429 0.69400001 5270595
-0.048388574 0.20482287 0.69600004 5336388
-0.047062859 0.20482287 0.69600004 5532995
-0.045802858 0.20511714 0.69700003 5467202
-0.044539049 0.20541143 0.69800001 5400907
-0.043209527 0.20541143 0.69800001 7045732
-0.042000003 0.20600002 0.70000005 9736539
-0.040724762 0.2062943 0.70100003 12236673
-0.039501905 0.20688286 0.70300001 11644029
-0.038380001 0.20806001 0.70700002 9538653
-0.037085712 0.20835428 0.708 9077062
-0.035737146 0.20835428 0.708 10787680
-0.034388572 0.20835428 0.708 10394212
-0.033133335 0.20894288 0.71000004 14012827
-0.031780954 0.20894288 0.71000004 16051638
-0.10421906 0.20911048 0.70600003 16249035
-0.10287429 0.20911048 0.70600003 14538417
-0.10124191 0.2085181 0.70400006 12238485
-0.099900961 0.2085181 0.70400006 8817249
-0.098420002 0.2082219 0.70300001 6060138
-0.096804768 0.20762953 0.70100003 5928552
-0.095333338 0.20733334 0.70000005 8355943
-0.093731426 0.20674095 0.69800001 11645593
-0.092269525 0.20644477 0.69700003 10920018
-0.090811431 0.20614858 0.69600004 7761954
-0.089099996 0.20526001 0.69300002 7762247
-0.087779999 0.20526001 0.69300002 7893833
-0.086210482 0.20466763 0.69100004 7959871
-0.084894292 0.20466763 0.69100004 7894078
-0.083578095 0.20466763 0.69100004 7367239
-0.082142867 0.20437144 0.69000006 7498825
-0.080828577 0.20437144 0.69000006 8418866
-0.079514287 0.20437144 0.69000006 9076796
-0.078200005 0.20437144 0.69000006 10850886
-0.076662861 0.20377904 0.68800002 11969367
-0.075352386 0.20377904 0.68800002 11312500
-0.07404191 0.20377904 0.68800002 10588777
-0.072731428 0.20377904 0.68800002 9013579
-0.071317144 0.20348287 0.68700004 7697719
-0.070008576 0.20348287 0.68700004 7240542
-0.068700001 0.20348287 0.68700004 7240542
-0.067391433 0.20348287 0.68700004 7437664
-0.066082858 0.20348287 0.68700004 7832422
-0.064868569 0.20377904 0.68800002 7897685
-0.063558094 0.20377904 0.68800002 7897685
-0.062247619 0.20377904 0.68800002 7832135
-0.060937144 0.20377904 0.68800002 7634756
-0.059626669 0.20377904 0.68800002 8486985
-0.058316194 0.20377904 0.68800002 10263396
-0.057005715 0.20377904 0.68800002 11051102
-0.055857148 0.20437144 0.69000006 11182688
-0.054542862 0.20437144 0.69000006 10132562
-0.053305719 0.20466763 0.69100004 6053396
-0.052140001 0.20526001 0.69300002 5007152
-0.05082 0.20526001 0.69300002 5270324
-0.04971429 0.20614858 0.69600004 5335368
-0.048458096 0.20644477 0.69700003 5401161
-0.04713048 0.20644477 0.69700003 5598540
-0.045868572 0.20674095 0.69800001 5335368
-0.044539049 0.20674095 0.69800001 6122063
-0.043209527 0.20674095 0.69800001 9345920
-0.042000003 0.20733334 0.70000005 11183465
-0.040724762 0.20762953 0.70100003 12367739
-0.039501905 0.2082219 0.70300001 11972724
-0.038380001 0.20940666 0.70700002 12038517
-0.037085712 0.20970286 0.708 11182972
-0.035737146 0.20970286 0.708 10393456
-0.034388572 0.20970286 0.708 10460012
-0.033040002 0.20970286 0.708 14144420
-0.031691428 0.20970286 0.708 15985843
