# .PCD v0.7 - Point Cloud Data file format
VERSION 0.7
FIELDS x y z rgba
SIZE 4 4 4 4
TYPE F F F U
COUNT 1 1 1 1
WIDTH 1126
HEIGHT 1
VIEWPOINT 0 0 0 1 0 0 0
POINTS 1126
DATA ascii
-0.065400004 0.17220001 0.63000005 9669719
-0.064200006 0.17220001 0.63000005 8946020
-0.063100003 0.17247334 0.63100004 7893332
-0.061996192 0.17274667 0.63200003 7233859
-0.060984757 0.17329334 0.634 7036480
-0.059777141 0.17329334 0.634 7628346
-0.058569524 0.17329334 0.634 10128480
-0.057452384 0.17356667 0.63500005 11049821
-0.056242861 0.17356667 0.63500005 11181407
-0.055033337 0.17356667 0.63500005 10130016
-0.053908575 0.17384002 0.63600004 7498296
-0.052780002 0.17411333 0.63700002 6449721
-0.051647618 0.17438667 0.63800001 5857584
-0.050590478 0.17493334 0.64000005 5465416
-0.049371433 0.17493334 0.64000005 5531209
-0.048227623 0.17520668 0.64100003 6054982
-0.047006667 0.17520668 0.64100003 5660224
-0.045928571 0.17575333 0.64300001 7432262
-0.044773336 0.17602669 0.64400005 10919291
-0.043749522 0.17684667 0.64700001 11314042
-0.042648572 0.17739335 0.64900005 9998182
-0.041412383 0.17739335 0.64900005 8616534
-0.040238097 0.17766666 0.65000004 8353362
-0.03912 0.17821334 0.65200001 8288601
-0.037994288 0.17876001 0.65400004 8354394
-0.036917143 0.17958 0.65700001 8814428
-0.035665717 0.17958 0.65700001 11775113
-0.034466669 0.17985334 0.65800005 13747334
-0.033213336 0.17985334 0.65800005 16708019
-0.031960003 0.17985334 0.65800005 16445642
-0.03070667 0.17985334 0.65800005 16708814
-0.108 0.17835429 0.648 8161102
-0.10660095 0.17807905 0.64700001 6516277
-0.10536857 0.17807905 0.64700001 7238183
-0.10365334 0.17725335 0.64400005 8948801
-0.10210858 0.17670286 0.64200002 10655846
-0.10057143 0.17615238 0.64000005 11905913
-0.098886669 0.17532666 0.63700002 11838853
-0.097366676 0.1747762 0.63500005 11575681
-0.096157156 0.1747762 0.63500005 10065254
-0.094947629 0.1747762 0.63500005 7499327
-0.093738101 0.1747762 0.63500005 7498548
-0.092528574 0.1747762 0.63500005 7432755
-0.091175236 0.17450094 0.634 8613170
-0.089967623 0.17450094 0.634 10323788
-0.088480003 0.17395048 0.63200003 11114085
-0.087138094 0.17367524 0.63100004 11245671
-0.085936196 0.17367524 0.63100004 9736056
-0.084734291 0.17367524 0.63100004 8222817
-0.083400004 0.17340001 0.63000005 5400645
-0.082200006 0.17340001 0.63000005 4347957
-0.081000008 0.17340001 0.63000005 4349440
-0.079673328 0.17312476 0.62900001 4941577
-0.078475237 0.17312476 0.62900001 6580789
-0.077277139 0.17312476 0.62900001 8422993
-0.076079048 0.17312476 0.62900001 10128739
-0.07488095 0.17312476 0.62900001 10852462
-0.07368286 0.17312476 0.62900001 11050852
-0.072369523 0.17284952 0.62800002 9340234
-0.071173333 0.17284952 0.62800002 9471304
-0.069977149 0.17284952 0.62800002 9734476
-0.068890475 0.17312476 0.62900001 10325080
-0.067692384 0.17312476 0.62900001 10851424
-0.06660001 0.17340001 0.63000005 11115121
-0.065400004 0.17340001 0.63000005 10917742
-0.064200006 0.17340001 0.63000005 10064244
-0.063100003 0.17367524 0.63100004 8945763
-0.061996192 0.17395048 0.63200003 7959619
-0.060984757 0.17450094 0.634 7038517
-0.059777141 0.17450094 0.634 7826468
-0.058569524 0.17450094 0.634 11247704
-0.057452384 0.1747762 0.63500005 11050870
-0.056242861 0.1747762 0.63500005 10853491
-0.055033337 0.1747762 0.63500005 9211744
-0.053908575 0.17505144 0.63600004 6119473
-0.052780002 0.17532666 0.63700002 5202743
-0.051809527 0.17615238 0.64000005 5531708
-0.050590478 0.17615238 0.64000005 5465684
-0.049448572 0.17642762 0.64100003 5465684
-0.048227623 0.17642762 0.64100003 4939840
-0.047006667 0.17642762 0.64100003 4742461
-0.046000004 0.17725335 0.64400005 6318374
-0.044912383 0.17780383 0.64600003 9871196
-0.043749522 0.17807905 0.64700001 11051659
-0.042648572 0.17862955 0.64900005 9801592
-0.041412383 0.17862955 0.64900005 8485702
-0.040238097 0.17890477 0.65000004 8288323
-0.03912 0.17945525 0.65200001 8223302
-0.038052384 0.18028097 0.65500003 8289095
-0.036917143 0.18083143 0.65700001 9077090
-0.035665717 0.18083143 0.65700001 12300947
-0.034466669 0.18110669 0.65800005 13352837
-0.033213336 0.18110669 0.65800005 16642487
-0.031960003 0.18110669 0.65800005 16379849
-0.03070667 0.18110669 0.65800005 16577228
-0.108 0.17958856 0.648 8357487
-0.10660095 0.17931144 0.64700001 6581076
-0.10536857 0.17931144 0.64700001 6517059
-0.10365334 0.17848001 0.64400005 7503954
-0.10226762 0.17820287 0.64300001 10327122
-0.10072858 0.17764857 0.64100003 12103533
-0.099041909 0.17681715 0.63800001 11640947
-0.097366676 0.17598572 0.63500005 9075020
-0.096157156 0.17598572 0.63500005 7695432
-0.094947629 0.17598572 0.63500005 7629639
-0.093738101 0.17598572 0.63500005 7564870
-0.092528574 0.17598572 0.63500005 7499077
-0.091319054 0.17598572 0.63500005 7892531
-0.089967623 0.17570858 0.634 8616254
-0.088759996 0.17570858 0.634 10193983
-0.087276198 0.17515428 0.63200003 11444050
-0.085936196 0.17487715 0.63100004 10655357
-0.084734291 0.17487715 0.63100004 10589564
-0.083532386 0.17487715 0.63100004 7699314
-0.082200006 0.17460002 0.63000005 4870215
-0.081000008 0.17460002 0.63000005 5069877
-0.07980001 0.17460002 0.63000005 7833183
-0.078600004 0.17460002 0.63000005 9934181
-0.077400006 0.17460002 0.63000005 10789490
-0.076200008 0.17460002 0.63000005 10590303
-0.075000003 0.17460002 0.63000005 10195545
-0.07368286 0.17432286 0.62900001 9538619
-0.072484761 0.17432286 0.62900001 8420138
-0.071286663 0.17432286 0.62900001 8224304
-0.070088573 0.17432286 0.62900001 8421683
-0.069000006 0.17460002 0.63000005 8880451
-0.0678 0.17460002 0.63000005 9472588
-0.06660001 0.17460002 0.63000005 10589540
-0.065400004 0.17460002 0.63000005 10984298
-0.064200006 0.17460002 0.63000005 10721905
-0.063100003 0.17487715 0.63100004 10919284
-0.061996192 0.17515428 0.63200003 9998432
-0.060984757 0.17570858 0.634 9011537
-0.059777141 0.17570858 0.634 9470807
-0.058661908 0.17598572 0.63500005 11839355
-0.057452384 0.17598572 0.63500005 10852971
-0.056242861 0.17598572 0.63500005 8813388
-0.055120002 0.17626286 0.63600004 6910272
-0.053908575 0.17626286 0.63600004 5725998
-0.052780002 0.17654 0.63700002 5268807
-0.051809527 0.17737144 0.64000005 5531979
-0.050590478 0.17737144 0.64000005 5531477
-0.049448572 0.17764857 0.64100003 5399891
-0.048227623 0.17764857 0.64100003 5399623
-0.047080003 0.17792572 0.64200002 5070658
-0.046142858 0.17903429 0.64600003 6055234
-0.044981908 0.17931144 0.64700001 9213298
-0.043884765 0.17986572 0.64900005 10855283
-0.042648572 0.17986572 0.64900005 9802595
-0.041476194 0.18014286 0.65000004 8354388
-0.040423814 0.18097429 0.65300006 8091216
-0.039240003 0.18125144 0.65400004 8091709
-0.038052384 0.18152858 0.65500003 8552260
-0.036917143 0.18208285 0.65700001 9669227
-0.035665717 0.18208285 0.65700001 12564119
-0.034466669 0.18236001 0.65800005 13747345
-0.033213336 0.18236001 0.65800005 16774080
-0.031960003 0.18236001 0.65800005 16445642
-0.10816668 0.18110192 0.64900005 10263155
-0.10660095 0.18054381 0.64700001 7434056
-0.10536857 0.18054381 0.64700001 6058302
-0.10365334 0.17970668 0.64400005 6058302
-0.10226762 0.17942762 0.64300001 9077589
-0.10088571 0.17914857 0.64200002 11511930
-0.09935239 0.17859049 0.64000005 11116147
-0.097673342 0.17775334 0.63700002 8089669
-0.096308582 0.17747429 0.63600004 7433268
-0.095097147 0.17747429 0.63600004 7499061
-0.09388572 0.17747429 0.63600004 7169853
-0.092674293 0.17747429 0.63600004 7169853
-0.091319054 0.17719525 0.63500005 6908214
-0.090109527 0.17719525 0.63500005 7302972
-0.088759996 0.17691618 0.634 8681266
-0.087552384 0.17691618 0.634 9733954
-0.086072385 0.1763581 0.63200003 10849905
-0.08486858 0.1763581 0.63200003 11178870
-0.083532386 0.17607905 0.63100004 9277549
-0.08233048 0.17607905 0.63100004 6316864
-0.081128575 0.17607905 0.63100004 7038999
-0.07980001 0.17580001 0.63000005 9604926
-0.078600004 0.17580001 0.63000005 10326903
-0.077400006 0.17580001 0.63000005 10524282
-0.076200008 0.17580001 0.63000005 10524783
-0.075000003 0.17580001 0.63000005 9603681
-0.073800005 0.17580001 0.63000005 8618310
-0.0726 0.17580001 0.63000005 7894587
-0.071400009 0.17580001 0.63000005 7371836
-0.070200004 0.17580001 0.63000005 7240250
-0.069000006 0.17580001 0.63000005 7830075
-0.0678 0.17580001 0.63000005 8356419
-0.06660001 0.17580001 0.63000005 9997655
-0.065400004 0.17580001 0.63000005 10787171
-0.064301908 0.17607905 0.63100004 10918514
-0.063100003 0.17607905 0.63100004 10918514
-0.061996192 0.1763581 0.63200003 10524256
-0.060984757 0.17691618 0.634 10326877
-0.059871431 0.17719525 0.63500005 9931864
-0.058661908 0.17719525 0.63500005 10918759
-0.057452384 0.17719525 0.63500005 10196849
-0.05633143 0.17747429 0.63600004 6578234
-0.055120002 0.17747429 0.63600004 5792300
-0.053993333 0.17775334 0.63700002 5726507
-0.052862857 0.17803238 0.63800001 5268796
-0.051809527 0.17859049 0.64000005 5466175
-0.050590478 0.17859049 0.64000005 5269321
-0.049448572 0.17886953 0.64100003 5269321
-0.048227623 0.17886953 0.64100003 5597002
-0.047080003 0.17914857 0.64200002 5070658
-0.046142858 0.18026477 0.64600003 5529130
-0.045051429 0.18082285 0.648 9674089
-0.043952383 0.18138096 0.65000004 10593399
-0.042714287 0.18138096 0.65000004 10001262
-0.041603811 0.18193904 0.65200001 8553296
-0.040485717 0.18249714 0.65400004 7632194
-0.039300002 0.1827762 0.65500003 7893505
-0.038168572 0.18333429 0.65700001 9275158
-0.036917143 0.18333429 0.65700001 10523495
-0.035720002 0.18361335 0.65800005 12628871
-0.03451905 0.18389238 0.65900004 14076823
-0.03326381 0.18389238 0.65900004 16774336
-0.032008573 0.18389238 0.65900004 16510919
-0.10957143 0.18261907 0.65000004 13222550
-0.10816668 0.1823381 0.64900005 9869961
-0.10676572 0.18205714 0.648 7238241
-0.10553142 0.18205714 0.648 5665103
-0.10397524 0.18149525 0.64600003 5533517
-0.10242668 0.18093334 0.64400005 8748635
-0.10104286 0.18065238 0.64300001 11511941
-0.09935239 0.17980954 0.64000005 10787153
-0.097826667 0.17924762 0.63800001 7826468
-0.096460007 0.17896667 0.63700002 7433284
-0.095246665 0.17896667 0.63700002 7564870
-0.09388572 0.17868572 0.63600004 7630661
-0.092674293 0.17868572 0.63600004 7564868
-0.091462858 0.17868572 0.63600004 7237440
-0.090109527 0.17840478 0.63500005 6908475
-0.088759996 0.1781238 0.634 7825973
-0.087552384 0.1781238 0.634 8286524
-0.086072385 0.17756191 0.63200003 9270873
-0.08486858 0.17756191 0.63200003 11442042
-0.083532386 0.17728096 0.63100004 10393678
-0.08233048 0.17728096 0.63100004 9867334
-0.081128575 0.17728096 0.63100004 9933652
-0.07992667 0.17728096 0.63100004 10920547
-0.078724764 0.17728096 0.63100004 10130294
-0.077522859 0.17728096 0.63100004 9669743
-0.076320961 0.17728096 0.63100004 8946531
-0.075119056 0.17728096 0.63100004 8157015
-0.073800005 0.17700002 0.63000005 7633734
-0.0726 0.17700002 0.63000005 7567941
-0.071400009 0.17700002 0.63000005 7173710
-0.070200004 0.17700002 0.63000005 7042124
-0.069000006 0.17700002 0.63000005 7436366
-0.0678 0.17700002 0.63000005 7567952
-0.066705719 0.17728096 0.63100004 8815664
-0.065503813 0.17728096 0.63100004 9473594
-0.064301908 0.17728096 0.63100004 10195045
-0.063199997 0.17756191 0.63200003 10787182
-0.06219238 0.1781238 0.634 10852946
-0.060984757 0.1781238 0.634 11116118
-0.059871431 0.17840478 0.63500005 10787419
-0.058661908 0.17840478 0.63500005 9471559
-0.057542857 0.17868572 0.63600004 8158036
-0.05633143 0.17868572 0.63600004 5328937
-0.055206668 0.17896667 0.63700002 4742202
-0.053993333 0.17896667 0.63700002 5202753
-0.052862857 0.17924762 0.63800001 5269045
-0.051809527 0.17980954 0.64000005 5137459
-0.050590478 0.17980954 0.64000005 5203264
-0.049448572 0.18009049 0.64100003 5334850
-0.048227623 0.18009049 0.64100003 5334600
-0.047080003 0.18037143 0.64200002 5203014
-0.046214286 0.1817762 0.64700001 6647102
-0.045120955 0.1823381 0.64900005 10265717
-0.043952383 0.18261907 0.65000004 11513195
-0.042845711 0.18318094 0.65200001 11644781
-0.041603811 0.18318094 0.65200001 10459762
-0.040485717 0.18374287 0.65400004 8946523
-0.039300002 0.18402381 0.65500003 9012291
-0.038168572 0.18458572 0.65700001 10262358
-0.036917143 0.18458572 0.65700001 10195820
-0.035720002 0.18486668 0.65800005 12169610
-0.03451905 0.18514763 0.65900004 13945237
-0.03326381 0.18514763 0.65900004 16774850
-0.10957143 0.18385714 0.65000004 13485981
-0.10816668 0.1835743 0.64900005 10988677
-0.10676572 0.18329142 0.648 7501648
-0.10553142 0.18329142 0.648 5535785
-0.10397524 0.18272573 0.64600003 5601578
-0.10242668 0.18216002 0.64400005 7896138
-0.10104286 0.18187715 0.64300001 10856823
-0.099507622 0.18131144 0.64100003 10064984
-0.097826667 0.18046287 0.63800001 7893815
-0.096611425 0.18046287 0.63800001 7367732
-0.095246665 0.18018001 0.63700002 7565111
-0.094033331 0.18018001 0.63700002 7762251
-0.092674293 0.17989716 0.63600004 7630665
-0.091462858 0.17989716 0.63600004 7367239
-0.090109527 0.17961431 0.63500005 7235653
-0.088759996 0.17933144 0.634 7431737
-0.087552384 0.17933144 0.634 7365944
-0.086072385 0.17876573 0.63200003 8482872
-0.08486858 0.17876573 0.63200003 10193490
-0.083532386 0.17848286 0.63100004 11049053
-0.08233048 0.17848286 0.63100004 10983260
-0.081128575 0.17848286 0.63100004 10590040
-0.07992667 0.17848286 0.63100004 10655833
-0.078724764 0.17848286 0.63100004 9999202
-0.077522859 0.17848286 0.63100004 8683342
-0.076320961 0.17848286 0.63100004 7831372
-0.075119056 0.17848286 0.63100004 7305028
-0.07391715 0.17848286 0.63100004 7240259
-0.072715245 0.17848286 0.63100004 7371845
-0.07151334 0.17848286 0.63100004 7043657
-0.070311435 0.17848286 0.63100004 7043657
-0.069109522 0.17848286 0.63100004 7240009
-0.067907616 0.17848286 0.63100004 7042630
-0.066705719 0.17848286 0.63100004 7501866
-0.065503813 0.17848286 0.63100004 7896624
-0.064301908 0.17848286 0.63100004 9340236
-0.0634 0.17933144 0.634 10129752
-0.062290482 0.17961431 0.63500005 11049553
-0.061080955 0.17961431 0.63500005 11444311
-0.059871431 0.17961431 0.63500005 10787703
-0.058754291 0.17989716 0.63600004 8090190
-0.057542857 0.17989716 0.63600004 7303749
-0.05633143 0.17989716 0.63600004 5461545
-0.055206668 0.18018001 0.63700002 4873781
-0.054078095 0.18046287 0.63800001 5400125
-0.052862857 0.18046287 0.63800001 5072949
-0.051809527 0.18102859 0.64000005 4875570
-0.050669525 0.18131144 0.64100003 5137965
-0.049448572 0.18131144 0.64100003 5335344
-0.048302859 0.1815943 0.64200002 5203264
-0.047153335 0.18187715 0.64300001 5269057
-0.046214286 0.18300858 0.64700001 7764050
-0.045120955 0.1835743 0.64900005 10790528
-0.044087619 0.18442285 0.65200001 11905911
-0.042845711 0.18442285 0.65200001 11971704
-0.041667622 0.18470572 0.65300006 11643766
-0.040485717 0.18498857 0.65400004 10196320
-0.039300002 0.18527143 0.65500003 9209168
-0.038168572 0.18583713 0.65700001 10261856
-0.036917143 0.18583713 0.65700001 10985815
-0.035720002 0.18612 0.65800005 12301675
-0.033213336 0.18612 0.65800005 16774337
-0.10957143 0.18509524 0.65000004 14143902
-0.10816668 0.18481049 0.64900005 11448725
-0.10676572 0.18452571 0.648 8224868
-0.10553142 0.18452571 0.648 6650934
-0.10397524 0.18395619 0.64600003 7177278
-0.10242668 0.18338668 0.64400005 9143401
-0.10120001 0.18338668 0.64400005 11709328
-0.099662863 0.18281715 0.64200002 10853725
-0.09813334 0.18224764 0.64000005 8353591
-0.096611425 0.1816781 0.63800001 7040059
-0.095246665 0.18139334 0.63700002 7105852
-0.094033331 0.18139334 0.63700002 7433032
-0.092674293 0.18110858 0.63600004 7169860
-0.091462858 0.18110858 0.63600004 7169860
-0.090251438 0.18110858 0.63600004 7235653
-0.088900007 0.18082383 0.63500005 7235133
-0.087552384 0.18053904 0.634 6971961
-0.086072385 0.17996952 0.63200003 7693117
-0.08486858 0.17996952 0.63200003 8943184
-0.083532386 0.17968477 0.63100004 10259285
-0.08233048 0.17968477 0.63100004 11640938
-0.081128575 0.17968477 0.63100004 10721878
-0.07992667 0.17968477 0.63100004 10458706
-0.078724764 0.17968477 0.63100004 9210697
-0.077522859 0.17968477 0.63100004 7565872
-0.076320961 0.17968477 0.63100004 7108151
-0.075119056 0.17968477 0.63100004 6976565
-0.07391715 0.17968477 0.63100004 7174466
-0.072715245 0.17968477 0.63100004 7306052
-0.07151334 0.17968477 0.63100004 7239757
-0.070311435 0.17968477 0.63100004 7305550
-0.069109522 0.17968477 0.63100004 7240009
-0.067907616 0.17968477 0.63100004 7240009
-0.066811427 0.17996952 0.63200003 7371071
-0.065607622 0.17996952 0.63200003 7371071
-0.064607613 0.18053904 0.634 8026182
-0.0634 0.18053904 0.634 9013077
-0.062290482 0.18082383 0.63500005 10589504
-0.061080955 0.18082383 0.63500005 11707985
-0.059871431 0.18082383 0.63500005 10525042
-0.058754291 0.18110858 0.63600004 7564357
-0.057542857 0.18110858 0.63600004 5398588
-0.05633143 0.18110858 0.63600004 4938037
-0.055206668 0.18139334 0.63700002 5005113
-0.054078095 0.1816781 0.63800001 5465664
-0.053028576 0.18224764 0.64000005 5269297
-0.051890481 0.18253238 0.64100003 5400883
-0.050669525 0.18253238 0.64100003 5205035
-0.049525715 0.18281715 0.64200002 5205035
-0.048302859 0.18281715 0.64200002 5531457
-0.047153335 0.18310191 0.64300001 7242075
-0.046214286 0.18424095 0.64700001 8552572
-0.045120955 0.18481049 0.64900005 10986913
-0.044087619 0.18566476 0.65200001 11905650
-0.042845711 0.18566476 0.65200001 12103029
-0.041667622 0.18594955 0.65300006 12103515
-0.040547621 0.18651906 0.65500003 12366687
-0.039300002 0.18651906 0.65500003 11708805
-0.038168572 0.18708858 0.65700001 10853496
-0.036973335 0.18737336 0.65800005 10658129
-0.035720002 0.18737336 0.65800005 12763505
-0.034466669 0.18737336 0.65800005 13814424
-0.10957143 0.18633334 0.65000004 14275747
-0.10816668 0.18604667 0.64900005 12697235
-0.10676572 0.18576001 0.648 9210206
-0.10553142 0.18576001 0.648 7372068
-0.10413619 0.18547334 0.64700001 8095791
-0.10274477 0.18518668 0.64600003 10852721
-0.10120001 0.18461335 0.64400005 12036995
-0.099662863 0.18404 0.64200002 10722412
-0.09813334 0.18346667 0.64000005 8485450
-0.096611425 0.18289334 0.63800001 7894339
-0.095396191 0.18289334 0.63800001 7433788
-0.094180949 0.18289334 0.63800001 7564367
-0.092674293 0.18232 0.63600004 7235402
-0.091462858 0.18232 0.63600004 7300676
-0.090251438 0.18232 0.63600004 7300676
-0.088900007 0.18203335 0.63500005 7432239
-0.08769048 0.18203335 0.63500005 7366446
-0.086344764 0.18174666 0.634 7036200
-0.085137136 0.18174666 0.634 7496751
-0.083664767 0.18117334 0.63200003 9403978
-0.082460955 0.18117334 0.63200003 11246182
-0.08125715 0.18117334 0.63200003 10525294
-0.080053337 0.18117334 0.63200003 9669985
-0.078849532 0.18117334 0.63200003 8160328
-0.077522859 0.18088669 0.63100004 7370812
-0.076320961 0.18088669 0.63100004 7042878
-0.075238094 0.18117334 0.63200003 7108671
-0.074034289 0.18117334 0.63200003 7305802
-0.072830476 0.18117334 0.63200003 7305802
-0.071626663 0.18117334 0.63200003 7436366
-0.070422858 0.18117334 0.63200003 7436366
-0.069219045 0.18117334 0.63200003 7436618
-0.06801524 0.18117334 0.63200003 7502411
-0.06702286 0.18174666 0.634 7502657
-0.06581524 0.18174666 0.634 7371071
-0.064607613 0.18174666 0.634 7371577
-0.0634 0.18174666 0.634 8358472
-0.062290482 0.18203335 0.63500005 9604176
-0.061080955 0.18203335 0.63500005 11249001
-0.059965719 0.18232 0.63600004 10001269
-0.058754291 0.18232 0.63600004 6974791
-0.057542857 0.18232 0.63600004 4940071
-0.056420002 0.18260668 0.63700002 4676899
-0.055293337 0.18289334 0.63800001 5201710
-0.054247621 0.18346667 0.64000005 5399089
-0.053028576 0.18346667 0.64000005 4939821
-0.051890481 0.18375334 0.64100003 5597751
-0.050669525 0.18375334 0.64100003 5401914
-0.049525715 0.18404 0.64200002 5007156
-0.048378095 0.18432666 0.64300001 5596722
-0.047153335 0.18432666 0.64300001 8820579
-0.046285711 0.18576001 0.648 10196607
-0.045120955 0.18604667 0.64900005 10854537
-0.044087619 0.18690667 0.65200001 10985579
-0.042845711 0.18690667 0.65200001 10985579
-0.041667622 0.18719335 0.65300006 11707737
-0.040547621 0.18776667 0.65500003 12826218
-0.039419997 0.18834001 0.65700001 12431503
-0.038168572 0.18834001 0.65700001 10523506
-0.036973335 0.18862668 0.65800005 10197293
-0.035720002 0.18862668 0.65800005 12960599
-0.10957143 0.18757144 0.65000004 14669733
-0.10816668 0.18728288 0.64900005 13091986
-0.10676572 0.18699428 0.648 9802336
-0.10553142 0.18699428 0.648 10132321
-0.10413619 0.18670571 0.64700001 10921837
-0.10274477 0.18641715 0.64600003 11707519
-0.10120001 0.18584001 0.64400005 12497035
-0.099973343 0.18584001 0.64400005 11379047
-0.098286666 0.1849743 0.64100003 10128980
-0.096914291 0.18468572 0.64000005 8354394
-0.095695242 0.18468572 0.64000005 7433292
-0.094180949 0.18410859 0.63800001 7236437
-0.092820004 0.18381999 0.63700002 7104851
-0.091462858 0.18353143 0.63600004 7366469
-0.090251438 0.18353143 0.63600004 7695434
-0.089040004 0.18353143 0.63600004 7300903
-0.087828577 0.18353143 0.63600004 7432489
-0.08648096 0.18324287 0.63500005 7430984
-0.085271433 0.18324287 0.63500005 7167812
-0.083929524 0.18295428 0.634 9009997
-0.082460955 0.18237714 0.63200003 10983787
-0.08125715 0.18237714 0.63200003 10328160
-0.080053337 0.18237714 0.63200003 8814921
-0.078849532 0.18237714 0.63200003 7962451
-0.077522859 0.18208858 0.63100004 7765072
-0.076320961 0.18208858 0.63100004 7239757
-0.075238094 0.18237714 0.63200003 7371343
-0.074034289 0.18237714 0.63200003 7568204
-0.072830476 0.18237714 0.63200003 7436618
-0.071626663 0.18237714 0.63200003 7567703
-0.070422858 0.18237714 0.63200003 7567703
-0.069219045 0.18237714 0.63200003 7633232
-0.06801524 0.18237714 0.63200003 7699025
-0.06702286 0.18295428 0.634 7633734
-0.06581524 0.18295428 0.634 7699527
-0.064607613 0.18295428 0.634 7765320
-0.0634 0.18295428 0.634 8554836
-0.062388573 0.18353143 0.63600004 9603935
-0.061177142 0.18353143 0.63600004 11117174
-0.059965719 0.18353143 0.63600004 10197864
-0.058846667 0.18381999 0.63700002 8487246
-0.057633337 0.18381999 0.63700002 4743506
-0.056420002 0.18381999 0.63700002 4282955
-0.055293337 0.18410859 0.63800001 4742696
-0.054247621 0.18468572 0.64000005 5071661
-0.053028576 0.18468572 0.64000005 5070906
-0.051890481 0.1849743 0.64100003 5663043
-0.050748575 0.18526286 0.64200002 5532478
-0.049525715 0.18526286 0.64200002 5532478
-0.048378095 0.18555142 0.64300001 7239480
-0.047226671 0.18584001 0.64400005 10660716
-0.046285711 0.18699428 0.648 10986097
-0.045190476 0.18757144 0.65000004 9867616
-0.04415524 0.18843716 0.65300006 9736793
-0.042911433 0.18843716 0.65300006 9539414
-0.041731432 0.18872572 0.65400004 10129752
-0.040671431 0.18959142 0.65700001 11840370
-0.039419997 0.18959142 0.65700001 11906163
-0.038226672 0.18988 0.65800005 10392924
-0.036973335 0.18988 0.65800005 10131272
-0.035774291 0.19016859 0.65900004 12828785
-0.03451905 0.19016859 0.65900004 14537120
-0.10957143 0.18880953 0.65000004 15327663
-0.10816668 0.18851905 0.64900005 13355415
-0.10676572 0.18822856 0.648 10197351
-0.10553142 0.18822856 0.648 10853725
-0.10413619 0.18793809 0.64700001 11643241
-0.10274477 0.18764763 0.64600003 11838326
-0.10120001 0.18706667 0.64400005 11772533
-0.099973343 0.18706667 0.64400005 11379047
-0.098439999 0.18648572 0.64200002 10852703
-0.096914291 0.18590477 0.64000005 9143914
-0.095695242 0.18590477 0.64000005 7630675
-0.094476193 0.18590477 0.64000005 7235402
-0.092820004 0.18503334 0.63700002 7301195
-0.091606669 0.18503334 0.63700002 7234881
-0.090251438 0.18474287 0.63600004 7629639
-0.089040004 0.18474287 0.63600004 7170103
-0.087828577 0.18474287 0.63600004 7038517
-0.08648096 0.1844524 0.63500005 7103295
-0.085271433 0.1844524 0.63500005 7103295
-0.083929524 0.1841619 0.634 8944456
-0.082460955 0.18358096 0.63200003 10984039
-0.08125715 0.18358096 0.63200003 10393710
-0.080053337 0.18358096 0.63200003 9077850
-0.078849532 0.18358096 0.63200003 8093011
-0.077645719 0.18358096 0.63200003 7698253
-0.076441906 0.18358096 0.63200003 7436105
-0.075238094 0.18358096 0.63200003 7633484
-0.074034289 0.18358096 0.63200003 7699277
-0.072830476 0.18358096 0.63200003 7765070
-0.071626663 0.18358096 0.63200003 7830613
-0.070422858 0.18358096 0.63200003 7501648
-0.069219045 0.18358096 0.63200003 7435083
-0.068230473 0.1841619 0.634 7566669
-0.06702286 0.1841619 0.634 7830341
-0.065919049 0.1844524 0.63500005 7698755
-0.064709529 0.1844524 0.63500005 7896908
-0.063500002 0.1844524 0.63500005 8686424
-0.062388573 0.18474287 0.63600004 9406813
-0.061177142 0.18474287 0.63600004 10854259
-0.059965719 0.18474287 0.63600004 10394480
-0.058846667 0.18503334 0.63700002 9407585
-0.057633337 0.18503334 0.63700002 6715994
-0.056508571 0.1853238 0.63800001 4742204
-0.055466671 0.18590477 0.64000005 4348699
-0.054247621 0.18590477 0.64000005 4875043
-0.053028576 0.18590477 0.64000005 5005362
-0.051890481 0.18619524 0.64100003 5136948
-0.050748575 0.18648572 0.64200002 5662254
-0.049602855 0.18677619 0.64300001 6649149
-0.048453335 0.18706667 0.64400005 8617810
-0.047373332 0.18764763 0.64600003 11183737
-0.046357144 0.18851905 0.64900005 11380622
-0.045329522 0.18939048 0.65200001 8880488
-0.04415524 0.18968098 0.65300006 8291918
-0.042977147 0.18997145 0.65400004 8357711
-0.041795239 0.19026192 0.65500003 9342283
-0.040671431 0.19084285 0.65700001 11316073
-0.039480001 0.19113335 0.65800005 11644806
-0.038226672 0.19113335 0.65800005 10131567
-0.036973335 0.19113335 0.65800005 9801262
-0.035774291 0.19142382 0.65900004 13090912
-0.10957143 0.19004764 0.65000004 15459249
-0.10816668 0.18975525 0.64900005 14407063
-0.10693048 0.18975525 0.64900005 10656862
-0.10553142 0.18946286 0.648 11181927
-0.10429715 0.18946286 0.648 11971443
-0.10290381 0.18917046 0.64700001 11445864
-0.10151429 0.1888781 0.64600003 9932625
-0.099973343 0.18829335 0.64400005 9998432
-0.098439999 0.18770857 0.64200002 10919534
-0.097065717 0.1874162 0.64100003 10130536
-0.095844768 0.1874162 0.64100003 8748883
-0.094476193 0.18712382 0.64000005 7960139
-0.092965715 0.18653904 0.63800001 7170623
-0.091606669 0.18624666 0.63700002 7169611
-0.090393335 0.18624666 0.63700002 7630162
-0.089040004 0.1859543 0.63600004 7169853
-0.087828577 0.1859543 0.63600004 6906681
-0.08648096 0.18566193 0.63500005 7168315
-0.085271433 0.18566193 0.63500005 9010519
-0.083929524 0.18536952 0.634 9601884
-0.082721904 0.18536952 0.634 11180916
-0.08125715 0.18478476 0.63200003 10722155
-0.080053337 0.18478476 0.63200003 9932639
-0.078849532 0.18478476 0.63200003 8159329
-0.077645719 0.18478476 0.63200003 7435606
-0.076441906 0.18478476 0.63200003 7305280
-0.075238094 0.18478476 0.63200003 7436866
-0.074034289 0.18478476 0.63200003 7502411
-0.073060952 0.18536952 0.634 7568204
-0.071853332 0.18536952 0.634 7436112
-0.070645712 0.18536952 0.634 7304526
-0.0694381 0.18536952 0.634 7238738
-0.068230473 0.18536952 0.634 7041359
-0.067128576 0.18566193 0.63500005 7371071
-0.065919049 0.18566193 0.63500005 7305278
-0.064709529 0.18566193 0.63500005 7961413
-0.063500002 0.18566193 0.63500005 9606238
-0.062388573 0.1859543 0.63600004 10721637
-0.061177142 0.1859543 0.63600004 11445360
-0.059965719 0.1859543 0.63600004 10590835
-0.058846667 0.18624666 0.63700002 10656628
-0.057633337 0.18624666 0.63700002 8618883
-0.056508571 0.18653904 0.63800001 7566195
-0.055466671 0.18712382 0.64000005 5662795
-0.054247621 0.18712382 0.64000005 5531209
-0.05311143 0.1874162 0.64100003 4939840
-0.051971432 0.18770857 0.64200002 4479289
-0.050748575 0.18770857 0.64200002 6384682
-0.049602855 0.18800095 0.64300001 9805918
-0.048453335 0.18829335 0.64400005 10590837
-0.047373332 0.1888781 0.64600003 10788216
-0.046357144 0.18975525 0.64900005 10066805
-0.045329522 0.19063237 0.65200001 8553566
-0.04415524 0.19092478 0.65300006 8096093
-0.042977147 0.19121715 0.65400004 8030300
-0.041795239 0.19150953 0.65500003 8883801
-0.040671431 0.19209428 0.65700001 9804903
-0.039480001 0.19238667 0.65800005 10461559
-0.038226672 0.19238667 0.65800005 9935215
-0.037029523 0.19267906 0.65900004 9868102
-0.035774291 0.19267906 0.65900004 12697201
-0.10957143 0.19128571 0.65000004 15985861
-0.10833334 0.19128571 0.65000004 14472617
-0.10693048 0.19099145 0.64900005 10854002
-0.10569429 0.19099145 0.64900005 11510385
-0.10429715 0.19069713 0.648 11839350
-0.10290381 0.19040287 0.64700001 11249780
-0.10167143 0.19040287 0.64700001 9078611
-0.10028381 0.19010858 0.64600003 8947023
-0.098746672 0.18952002 0.64400005 9933918
-0.097217143 0.18893144 0.64200002 11051890
-0.095994294 0.18893144 0.64200002 10262374
-0.094623812 0.18863715 0.64100003 8225371
-0.093257144 0.18834287 0.64000005 6975304
-0.09175048 0.18775429 0.63800001 7038517
-0.090393335 0.18746001 0.63700002 7367482
-0.08918 0.18746001 0.63700002 7564077
-0.087828577 0.18716572 0.63600004 7037733
-0.086617149 0.18716572 0.63600004 7037452
-0.085271433 0.18687144 0.63500005 9603379
-0.084061913 0.18687144 0.63500005 10719341
-0.082721904 0.18657714 0.634 11311478
-0.081514291 0.18657714 0.634 11116145
-0.080306664 0.18657714 0.634 10392422
-0.079099044 0.18657714 0.634 8685673
-0.077645719 0.18598858 0.63200003 7632985
-0.076441906 0.18598858 0.63200003 7305296
-0.075238094 0.18598858 0.63200003 7436882
-0.074034289 0.18598858 0.63200003 7305280
-0.073060952 0.18657714 0.634 7305280
-0.071853332 0.18657714 0.634 7370319
-0.070645712 0.18657714 0.634 7370319
-0.0694381 0.18657714 0.634 6911821
-0.068338096 0.18687144 0.63500005 6911821
-0.067128576 0.18687144 0.63500005 7372097
-0.065919049 0.18687144 0.63500005 7108925
-0.064709529 0.18687144 0.63500005 8026173
-0.063500002 0.18687144 0.63500005 10263135
-0.062388573 0.18716572 0.63600004 10852971
-0.061273336 0.18746001 0.63700002 10655592
-0.060060002 0.18746001 0.63700002 10721626
-0.058846667 0.18746001 0.63700002 11050591
-0.057723809 0.18775429 0.63800001 10590847
-0.056685716 0.18834287 0.64000005 9669745
-0.055553336 0.18863715 0.64100003 8620631
-0.054332383 0.18863715 0.64100003 7238978
-0.053194284 0.18893144 0.64200002 5400615
-0.051971432 0.18893144 0.64200002 4874271
-0.050827619 0.1892257 0.64300001 6910506
-0.049680006 0.18952002 0.64400005 10858086
-0.04860381 0.19010858 0.64600003 11118210
-0.047446668 0.19040287 0.64700001 9933936
-0.046428576 0.19128571 0.65000004 9474664
-0.045329522 0.19187428 0.65200001 8619355
-0.04415524 0.19216859 0.65300006 8490853
-0.042977147 0.19246286 0.65400004 8425060
-0.041795239 0.19275714 0.65500003 8425308
-0.040671431 0.19334571 0.65700001 9609582
-0.039480001 0.19364002 0.65800005 10068343
-0.038284764 0.19393429 0.65900004 9541999
-0.037029523 0.19393429 0.65900004 8816418
-0.035774291 0.19393429 0.65900004 12829791
-0.03451905 0.19393429 0.65900004 15589533
-0.11007715 0.19341241 0.65300006 16117188
-0.10833334 0.19252382 0.65000004 14997680
-0.10709524 0.19252382 0.65000004 10786928
-0.10569429 0.19222763 0.64900005 10853491
-0.10429715 0.19193143 0.648 11116663
-0.10306286 0.19193143 0.648 10526809
-0.10167143 0.19163525 0.64700001 8947777
-0.10028381 0.19133905 0.64600003 8816998
-0.098746672 0.19074668 0.64400005 9014377
-0.097520009 0.19074668 0.64400005 10592332
-0.096143812 0.19045047 0.64300001 11118676
-0.09477143 0.19015428 0.64200002 9867618
-0.093402863 0.18985811 0.64100003 8091207
-0.092038102 0.1895619 0.64000005 7696951
-0.090535238 0.18896952 0.63800001 7631158
-0.089320004 0.18896952 0.63800001 7828015
-0.087966673 0.18867335 0.63700002 9407047
-0.086753339 0.18867335 0.63700002 10327365
-0.085405715 0.18837714 0.63600004 11380053
-0.084194295 0.18837714 0.63600004 11049848
-0.082852393 0.18808097 0.63500005 10852469
-0.081642859 0.18808097 0.63500005 10590553
-0.080433339 0.18808097 0.63500005 10393174
-0.079223812 0.18808097 0.63500005 9341794
-0.077891432 0.18778476 0.634 9012829
-0.076683804 0.18778476 0.634 7830630
-0.075476192 0.18778476 0.634 7370079
-0.074268572 0.18778476 0.634 7043132
-0.073060952 0.18778476 0.634 7174718
-0.071853332 0.18778476 0.634 7371089
-0.070645712 0.18778476 0.634 7502675
-0.0694381 0.18778476 0.634 7568209
-0.068338096 0.18808097 0.63500005 7634002
-0.067128576 0.18808097 0.63500005 8094019
-0.065919049 0.18808097 0.63500005 9475672
-0.064811431 0.18837714 0.63600004 10326881
-0.063600004 0.18837714 0.63600004 11247983
-0.062486667 0.18867335 0.63700002 10590551
-0.061273336 0.18867335 0.63700002 8814140
-0.060060002 0.18867335 0.63700002 9734224
-0.058939047 0.18896952 0.63800001 10984291
-0.057904765 0.1895619 0.64000005 10918766
-0.056685716 0.1895619 0.64000005 11116145
-0.055553336 0.18985811 0.64100003 10657130
-0.054417145 0.19015428 0.64200002 10459751
-0.053194284 0.19015428 0.64200002 9081682
-0.051971432 0.19015428 0.64200002 7371064
-0.050827619 0.19045047 0.64300001 8289889
-0.049680006 0.19074668 0.64400005 11382160
-0.04860381 0.19133905 0.64600003 11117672
-0.04752 0.19193143 0.648 9407054
-0.04657143 0.19311619 0.65200001 8423261
-0.045399051 0.19341241 0.65300006 8357468
-0.044222858 0.19370858 0.65400004 8293474
-0.043042861 0.19400477 0.65500003 8425060
-0.041795239 0.19400477 0.65500003 8687192
-0.040671431 0.19459714 0.65700001 10068845
-0.039480001 0.19489335 0.65800005 10724208
-0.038284764 0.19518952 0.65900004 10395243
-0.037029523 0.19518952 0.65900004 10329173
-0.035774291 0.19518952 0.65900004 13158272
-0.11007715 0.19465621 0.65300006 16117198
-0.10883334 0.19465621 0.65300006 15261356
-0.10742477 0.1943581 0.65200001 11313776
-0.10569429 0.19346382 0.64900005 10590567
-0.1044581 0.19346382 0.64900005 10853739
-0.10306286 0.19316572 0.648 9737054
-0.10167143 0.19286762 0.64700001 9079124
-0.10043905 0.19286762 0.64700001 8621161
-0.099053338 0.19256954 0.64600003 8489575
-0.097520009 0.19197336 0.64400005 9933902
-0.096143812 0.19167525 0.64300001 10855004
-0.09477143 0.19137713 0.64200002 10722162
-0.093402863 0.19107905 0.64100003 8879958
-0.092038102 0.19078095 0.64000005 7959349
-0.090819053 0.19078095 0.64000005 7696177
-0.089320004 0.19018476 0.63800001 7958831
-0.088104762 0.19018476 0.63800001 10195793
-0.086753339 0.18988667 0.63700002 10589792
-0.085540004 0.18988667 0.63700002 11247722
-0.084194295 0.18958858 0.63600004 10919042
-0.082982861 0.18958858 0.63600004 9800561
-0.081642859 0.18929049 0.63500005 9340484
-0.080433339 0.18929049 0.63500005 9866828
-0.079223812 0.18929049 0.63500005 10261863
-0.078014292 0.18929049 0.63500005 9735519
-0.076683804 0.18899238 0.634 8685158
-0.075476192 0.18899238 0.634 7632470
-0.074268572 0.18899238 0.634 6911796
-0.073176198 0.18929049 0.63500005 7109175
-0.07196667 0.18929049 0.63500005 7436887
-0.070757151 0.18929049 0.63500005 7436887
-0.069547623 0.18929049 0.63500005 7437144
-0.068338096 0.18929049 0.63500005 7502937
-0.067234285 0.18958858 0.63600004 8552526
-0.066022858 0.18958858 0.63600004 10065765
-0.064811431 0.18958858 0.63600004 10851429
-0.063600004 0.18958858 0.63600004 10983015
-0.062486667 0.18988667 0.63700002 10524260
-0.061273336 0.18988667 0.63700002 7563575
-0.060154289 0.19018476 0.63800001 8415782
-0.059123814 0.19078095 0.64000005 10060607
-0.057904765 0.19078095 0.64000005 11048292
-0.056774288 0.19107905 0.64100003 11574636
-0.055553336 0.19107905 0.64100003 11313006
-0.054417145 0.19137713 0.64200002 11313006
-0.053194284 0.19137713 0.64200002 10394989
-0.051971432 0.19137713 0.64200002 10000231
-0.050827619 0.19167525 0.64300001 9801329
-0.049834289 0.19256954 0.64600003 11051396
-0.04867905 0.19286762 0.64700001 10657130
-0.047593337 0.19346382 0.64900005 8617547
-0.04657143 0.1943581 0.65200001 7897678
-0.045399051 0.19465621 0.65300006 8292436
-0.044222858 0.19495429 0.65400004 8292697
-0.043042861 0.19525239 0.65500003 8226904
-0.041922856 0.19584857 0.65700001 8489547
-0.040733337 0.19614667 0.65800005 10265958
-0.03954 0.19644478 0.65900004 11183226
-0.038284764 0.19644478 0.65900004 10920054
-0.037141904 0.19704096 0.66100001 10197063
-0.03588286 0.19704096 0.66100001 13486713
-0.11041429 0.1965 0.65500003 16117198
-0.10883334 0.19590002 0.65300006 15393706
-0.10758953 0.19590002 0.65300006 11577712
-0.10618286 0.1956 0.65200001 10262892
-0.1044581 0.19470002 0.64900005 10526064
-0.10306286 0.1944 0.648 9935721
-0.10182857 0.1944 0.648 8883033
-0.10043905 0.19410001 0.64700001 8357737
-0.099053338 0.1938 0.64600003 8160358
-0.097520009 0.19320001 0.64400005 9276753
-0.096143812 0.1929 0.64300001 10066269
-0.094919048 0.1929 0.64300001 10393701
-0.093548574 0.19260001 0.64200002 10591080
-0.092181914 0.19230001 0.64100003 10129766
-0.090819053 0.19200002 0.64000005 9800801
-0.089320004 0.19140001 0.63800001 10787432
-0.088104762 0.19140001 0.63800001 11247983
-0.086753339 0.19110002 0.63700002 11049830
-0.085540004 0.19110002 0.63700002 10786658
-0.084194295 0.19080001 0.63600004 9406060
-0.082982861 0.19080001 0.63600004 6708547
-0.081771433 0.19080001 0.63600004 6317844
-0.080560006 0.19080001 0.63600004 7436325
-0.079223812 0.19050001 0.63500005 8880723
-0.078014292 0.19050001 0.63500005 10393962
-0.076683804 0.1902 0.634 10261870
-0.075476192 0.1902 0.634 9998698
-0.074268572 0.1902 0.634 8621131
-0.073176198 0.19050001 0.63500005 7568443
-0.07196667 0.19050001 0.63500005 7240031
-0.070757151 0.19050001 0.63500005 7108445
-0.069547623 0.19050001 0.63500005 7960926
-0.068338096 0.19050001 0.63500005 9276786
-0.067234285 0.19080001 0.63600004 10458983
-0.066022858 0.19080001 0.63600004 10919534
-0.064811431 0.19080001 0.63600004 10523749
-0.063600004 0.19080001 0.63600004 9273682
-0.062486667 0.19110002 0.63700002 8154697
-0.061369527 0.19140001 0.63800001 7102009
-0.060154289 0.19140001 0.63800001 7430223
-0.059123814 0.19200002 0.64000005 8219739
-0.057904765 0.19200002 0.64000005 9536055
-0.056774288 0.19230001 0.64100003 10325571
-0.055640001 0.19260001 0.64200002 10720349
-0.054417145 0.19260001 0.64200002 11509865
-0.053277142 0.1929 0.64300001 11182704
-0.052052379 0.1929 0.64300001 11445876
-0.050906669 0.19320001 0.64400005 11314560
-0.049834289 0.1938 0.64600003 10130286
-0.04867905 0.19410001 0.64700001 9473869
-0.047593337 0.19470002 0.64900005 8618560
-0.046428576 0.19500001 0.65000004 7897949
-0.045399051 0.19590002 0.65300006 8226914
-0.044222858 0.19620001 0.65400004 8358490
-0.043042861 0.1965 0.65500003 8226904
-0.041922856 0.1971 0.65700001 8555088
-0.040733337 0.19740002 0.65800005 10331499
-0.03954 0.19770001 0.65900004 11840645
-0.038400952 0.1983 0.66100001 12564368
-0.037141904 0.1983 0.66100001 12170866
-0.03588286 0.1983 0.66100001 14210449
-0.034728575 0.19890001 0.66300005 15788464
-0.033465717 0.19890001 0.66300005 16577980
-0.11024573 0.19744572 0.65400004 16379083
-0.109 0.19744572 0.65400004 15591355
-0.10758953 0.19714382 0.65300006 11577982
-0.10618286 0.19684191 0.65200001 10854513
-0.10461906 0.19623812 0.65000004 10986099
-0.10322192 0.1959362 0.64900005 9738610
-0.10182857 0.19563429 0.648 8620129
-0.10043905 0.19533238 0.64700001 8423261
-0.099206664 0.19533238 0.64700001 8357468
-0.097520009 0.19442667 0.64400005 8357716
-0.096293338 0.19442667 0.64400005 8423509
-0.095066674 0.19442667 0.64400005 9276242
-0.093548574 0.19382286 0.64200002 10328930
-0.092181914 0.19352096 0.64100003 10721389
-0.090960957 0.19352096 0.64100003 11116147
-0.089600012 0.19321907 0.64000005 11116413
-0.088380955 0.19321907 0.64000005 11116413
-0.086753339 0.19231333 0.63700002 10984559
-0.085540004 0.19231333 0.63700002 10063457
-0.084194295 0.19201145 0.63600004 7896155
-0.082982861 0.19201145 0.63600004 5461814
-0.081771433 0.19201145 0.63600004 5136650
-0.080560006 0.19201145 0.63600004 5268236
-0.079223812 0.19170953 0.63500005 7958565
-0.078014292 0.19170953 0.63500005 9932355
-0.076804765 0.19170953 0.63500005 10918514
-0.075595245 0.19170953 0.63500005 10523756
-0.074385718 0.19170953 0.63500005 9802595
-0.073176198 0.19170953 0.63500005 8618321
-0.07196667 0.19170953 0.63500005 7765329
-0.070757151 0.19170953 0.63500005 7502157
-0.069547623 0.19170953 0.63500005 8354375
-0.068338096 0.19170953 0.63500005 10328165
-0.067234285 0.19201145 0.63600004 10852460
-0.066022858 0.19201145 0.63600004 10720874
-0.06491334 0.19231333 0.63700002 10326893
-0.063699998 0.19231333 0.63700002 8089931
-0.062584765 0.19261524 0.63800001 7694893
-0.061369527 0.19261524 0.63800001 7365928
-0.060342859 0.19321907 0.64000005 7233859
-0.059123814 0.19321907 0.64000005 7497031
-0.057904765 0.19321907 0.64000005 8023345
-0.056774288 0.19352096 0.64100003 8549689
-0.055640001 0.19382286 0.64200002 9995327
-0.054501906 0.19412477 0.64300001 11048015
-0.053277142 0.19412477 0.64300001 11772533
-0.052052379 0.19412477 0.64300001 12035705
-0.050906669 0.19442667 0.64400005 11445647
-0.049834289 0.19503048 0.64600003 9471857
-0.04867905 0.19533238 0.64700001 9079372
-0.047593337 0.1959362 0.64900005 8684614
-0.046428576 0.19623812 0.65000004 7766342
-0.045399051 0.19714382 0.65300006 8490065
-0.044222858 0.19744572 0.65400004 8686940
-0.043042861 0.19774763 0.65500003 8489561
-0.041922856 0.19835143 0.65700001 9474650
-0.040733337 0.19865334 0.65800005 10856303
-0.03954 0.19895525 0.65900004 11775606
-0.038400952 0.19955905 0.66100001 12499329
-0.037198097 0.19986098 0.66200006 12563832
-0.035991434 0.20016287 0.66300005 15392931
-0.034728575 0.20016287 0.66300005 15657400
-0.033465717 0.20016287 0.66300005 16446916
-0.109 0.19869143 0.65400004 15788484
-0.10758953 0.19838764 0.65300006 13288350
-0.10618286 0.19808382 0.65200001 10920080
-0.10461906 0.19747619 0.65000004 11117459
-0.10322192 0.1971724 0.64900005 10198641
-0.10182857 0.19686857 0.648 8619609
-0.10043905 0.19656476 0.64700001 8357730
-0.099206664 0.19656476 0.64700001 8291937
-0.09782286 0.19626096 0.64600003 8291932
-0.096293338 0.19565335 0.64400005 8226139
-0.095066674 0.19565335 0.64400005 8947538
-0.093548574 0.19504571 0.64200002 10066019
-0.092181914 0.1947419 0.64100003 10655596
-0.090960957 0.1947419 0.64100003 11576698
-0.089740001 0.1947419 0.64100003 11511155
-0.088380955 0.19443811 0.64000005 10392674
-0.08688952 0.19383048 0.63800001 8485965
-0.085540004 0.19352667 0.63700002 6314796
-0.084194295 0.19322287 0.63600004 5463085
-0.082982861 0.19322287 0.63600004 5265706
-0.081771433 0.19322287 0.63600004 4808496
-0.080560006 0.19322287 0.63600004 4413738
-0.079348572 0.19322287 0.63600004 5923352
-0.078137144 0.19322287 0.63600004 6976040
-0.076804765 0.19291906 0.63500005 8814406
-0.075595245 0.19291906 0.63500005 10064473
-0.074502863 0.19322287 0.63600004 9998698
-0.073291428 0.19322287 0.63600004 10064491
-0.07196667 0.19291906 0.63500005 9867866
-0.070757151 0.19291906 0.63500005 9670487
-0.069657147 0.19322287 0.63600004 10195545
-0.06844572 0.19322287 0.63600004 11314026
-0.067234285 0.19322287 0.63600004 10590303
-0.066126674 0.19352667 0.63700002 9142857
-0.06491334 0.19352667 0.63700002 8023898
-0.0638 0.19383048 0.63800001 7431761
-0.062584765 0.19383048 0.63800001 7563825
-0.061369527 0.19383048 0.63800001 7366446
-0.060342859 0.19443811 0.64000005 7364941
-0.059123814 0.19443811 0.64000005 7364941
-0.057904765 0.19443811 0.64000005 7562814
-0.056774288 0.1947419 0.64100003 7233849
-0.055640001 0.19504571 0.64200002 8088629
-0.054501906 0.19534953 0.64300001 9996626
-0.053277142 0.19534953 0.64300001 11312223
-0.052133337 0.19565335 0.64400005 12035946
-0.050906669 0.19565335 0.64400005 11445358
-0.049911428 0.19656476 0.64700001 8945224
-0.048754286 0.19686857 0.648 8555090
-0.047666669 0.19747619 0.65000004 8620883
-0.04657143 0.19808382 0.65200001 8161102
-0.045399051 0.19838764 0.65300006 8687446
-0.044222858 0.19869143 0.65400004 8621399
-0.043174285 0.19960286 0.65700001 8621399
-0.041986667 0.19990669 0.65800005 9868899
-0.040795241 0.20021048 0.65900004 10921587
-0.039659999 0.20081811 0.66100001 11775052
-0.038400952 0.20081811 0.66100001 12696154
-0.037198097 0.20112193 0.66200006 12563839
-0.035991434 0.20142572 0.66300005 15524524
-0.034728575 0.20142572 0.66300005 15919802
-0.033465717 0.20142572 0.66300005 16709318
-0.032202858 0.20142572 0.66300005 16446398
-0.11041429 0.20024286 0.65500003 16182474
-0.10916667 0.20024286 0.65500003 16050894
-0.10775429 0.19993716 0.65400004 13616553
-0.10634572 0.19963145 0.65300006 12629648
-0.10494096 0.19932573 0.65200001 11576960
-0.10338096 0.19871429 0.65000004 10526327
-0.10198572 0.19840857 0.64900005 9078881
-0.10059428 0.19810285 0.648 8621149
-0.099206664 0.19779715 0.64700001 8489563
-0.09782286 0.19749144 0.64600003 8096093
-0.096293338 0.19688001 0.64400005 7898714
-0.095066674 0.19688001 0.64400005 8685134
-0.093694285 0.19657429 0.64300001 9343064
-0.092325717 0.19626857 0.64200002 10589803
-0.090960957 0.19596288 0.64100003 11576698
-0.089740001 0.19596288 0.64100003 11380092
-0.088519052 0.19596288 0.64100003 8419407
-0.087161906 0.19565716 0.64000005 6974507
-0.085674286 0.19504571 0.63800001 5527061
-0.08432667 0.19474 0.63700002 4742703
-0.083113335 0.19474 0.63700002 4808496
-0.081771433 0.19443429 0.63600004 4546603
-0.080560006 0.19443429 0.63600004 4349224
-0.079348572 0.19443429 0.63600004 3758098
-0.078137144 0.19443429 0.63600004 4416028
-0.076804765 0.19412859 0.63500005 6580764
-0.075595245 0.19412859 0.63500005 8291382
-0.074502863 0.19443429 0.63600004 10326109
-0.073291428 0.19443429 0.63600004 10391902
-0.072080001 0.19443429 0.63600004 10654563
-0.070868574 0.19443429 0.63600004 10654563
-0.069657147 0.19443429 0.63600004 10524006
-0.06844572 0.19443429 0.63600004 10787178
-0.067234285 0.19443429 0.63600004 10393447
-0.066126674 0.19474 0.63700002 7695934
-0.065015234 0.19504571 0.63800001 7300674
-0.0638 0.19504571 0.63800001 7366467
-0.062584765 0.19504571 0.63800001 7235133
-0.061561912 0.19565716 0.64000005 7300926
-0.060342859 0.19565716 0.64000005 7496529
-0.05921619 0.19596288 0.64100003 7496529
-0.057995241 0.19596288 0.64100003 7562308
-0.056862857 0.19626857 0.64200002 7364929
-0.055726666 0.19657429 0.64300001 7563037
-0.054501906 0.19657429 0.64300001 8286760
-0.053277142 0.19657429 0.64300001 10718555
-0.052133337 0.19688001 0.64400005 12429173
-0.051064763 0.19749144 0.64600003 11249019
-0.049911428 0.19779715 0.64700001 9143643
-0.048754286 0.19810285 0.648 8424020
-0.047666669 0.19871429 0.65000004 8292434
-0.04657143 0.19932573 0.65200001 8226895
-0.045399051 0.19963145 0.65300006 8490067
-0.044222858 0.19993716 0.65400004 8424022
-0.043174285 0.20085429 0.65700001 8818780
-0.041986667 0.20116001 0.65800005 10262131
-0.040919047 0.20207714 0.66100001 10130545
-0.039659999 0.20207714 0.66100001 10391875
-0.038400952 0.20207714 0.66100001 10391875
-0.037198097 0.20238286 0.66200006 12890744
-0.035991434 0.20268857 0.66300005 15983015
-0.034728575 0.20268857 0.66300005 16116663
-0.03381905 0.20482858 0.67000002 16511421
-0.11041429 0.20149048 0.65500003 16181954
-0.10916667 0.20149048 0.65500003 15985614
-0.10775429 0.20118287 0.65400004 14472375
-0.10650858 0.20118287 0.65400004 13354134
-0.10494096 0.20056762 0.65200001 11577723
-0.10369905 0.20056762 0.65200001 10264184
-0.10198572 0.19964477 0.64900005 9145703
-0.10059428 0.19933714 0.648 8621156
-0.099360004 0.19933714 0.648 8423777
-0.09782286 0.1987219 0.64600003 8226909
-0.096293338 0.19810669 0.64400005 8161116
-0.095066674 0.19810669 0.64400005 8422480
-0.093694285 0.19779904 0.64300001 8422480
-0.092325717 0.19749144 0.64200002 10589792
-0.090960957 0.19718382 0.64100003 11379308
-0.089740001 0.19718382 0.64100003 10459233
-0.088519052 0.19718382 0.64100003 6643239
-0.087161906 0.1968762 0.64000005 5134391
-0.085674286 0.19626096 0.63800001 5200184
-0.084459044 0.19626096 0.63800001 4874297
-0.083113335 0.19595334 0.63700002 4808504
-0.081900001 0.19595334 0.63700002 4611619
-0.080560006 0.19564572 0.63600004 4611619
-0.079348572 0.19564572 0.63600004 4217396
-0.078137144 0.19564572 0.63600004 4151603
-0.076925717 0.19564572 0.63600004 5661218
-0.07571429 0.19564572 0.63600004 6121769
-0.074502863 0.19564572 0.63600004 8289075
-0.073291428 0.19564572 0.63600004 9933900
-0.072080001 0.19564572 0.63600004 10457956
-0.070868574 0.19564572 0.63600004 11313265
-0.069657147 0.19564572 0.63600004 10392938
-0.06844572 0.19564572 0.63600004 9142871
-0.067340001 0.19595334 0.63700002 7827261
-0.066126674 0.19595334 0.63700002 6840366
-0.065015234 0.19626096 0.63800001 7103801
-0.0638 0.19626096 0.63800001 7301180
