# .PCD v0.7 - Point Cloud Data file format
VERSION 0.7
FIELDS x y z rgba
SIZE 4 4 4 4
TYPE F F F U
COUNT 1 1 1 1
WIDTH 1111
HEIGHT 1
VIEWPOINT 0 0 0 1 0 0 0
POINTS 1111
DATA ascii
-0.067975245 0.072257146 0.56200004 16579836
-0.065620005 0.074442863 0.57900006 16645629
-0.06440571 0.074314281 0.57800001 16316664
-0.063195243 0.074185714 0.57700002 16643071
-0.062096193 0.074185714 0.57700002 16775423
-0.060997147 0.074185714 0.57700002 16644607
-0.060105722 0.074442863 0.57900006 16710399
-0.058900952 0.074314281 0.57800001 16644094
-0.057800002 0.074314281 0.57800001 16775679
-0.056699049 0.074314281 0.57800001 16644094
-0.05569429 0.074442863 0.57900006 16775935
-0.054591436 0.074442863 0.57900006 16644605
-0.053488575 0.074442863 0.57900006 16776191
-0.052476194 0.074571431 0.58000004 16578301
-0.051371429 0.074571431 0.58000004 16775935
-0.050266668 0.074571431 0.58000004 16644094
-0.049161907 0.074571431 0.58000004 16775935
-0.048057146 0.074571431 0.58000004 16645629
-0.046952382 0.074571431 0.58000004 16645629
-0.045768574 0.074442863 0.57900006 16710911
-0.04466572 0.074442863 0.57900006 16710911
-0.043562863 0.074442863 0.57900006 16710911
-0.042460002 0.074442863 0.57900006 16645118
-0.041357145 0.074442863 0.57900006 16645118
-0.040254291 0.074442863 0.57900006 16645118
-0.039151434 0.074442863 0.57900006 16644607
-0.038048577 0.074442863 0.57900006 16644607
-0.036945716 0.074442863 0.57900006 16644094
-0.035842858 0.074442863 0.57900006 16578301
-0.034740005 0.074442863 0.57900006 16314879
-0.033637147 0.074442863 0.57900006 16183293
-0.032590479 0.074571431 0.58000004 15722494
-0.031485714 0.074571431 0.58000004 16117247
-0.030380953 0.074571431 0.58000004 15589887
-0.029276192 0.074571431 0.58000004 11642308
-0.1251743 0.075545721 0.57900006 13213148
-0.12407143 0.075545721 0.57900006 14660594
-0.12318096 0.075676195 0.58000004 15645951
-0.12186573 0.075545721 0.57900006 15645951
-0.12076286 0.075545721 0.57900006 16372479
-0.11966001 0.075545721 0.57900006 16175102
-0.11835238 0.075415239 0.57800001 15782399
-0.11725143 0.075415239 0.57800001 15782399
-0.11615048 0.075415239 0.57800001 15651583
-0.11504953 0.075415239 0.57800001 15519999
-0.11394858 0.075415239 0.57800001 15519487
-0.11284763 0.075415239 0.57800001 15585279
-0.11174667 0.075415239 0.57800001 15849215
-0.11064571 0.075415239 0.57800001 15783423
-0.10954476 0.075415239 0.57800001 15915007
-0.10844381 0.075415239 0.57800001 15915007
-0.10734285 0.075415239 0.57800001 16243455
-0.1062419 0.075415239 0.57800001 16111871
-0.10495905 0.075284764 0.57700002 16111615
-0.10386 0.075284764 0.57700002 16111615
-0.10276096 0.075284764 0.57700002 16178431
-0.10166191 0.075284764 0.57700002 16112639
-0.10056286 0.075284764 0.57700002 16047871
-0.099463813 0.075284764 0.57700002 16113663
-0.098364763 0.075284764 0.57700002 16575743
-0.09726572 0.075284764 0.57700002 16115192
-0.096333332 0.075415239 0.57800001 15787258
-0.095726676 0.07580667 0.58100003 16775423
-0.094620004 0.07580667 0.58100003 16711422
-0.090133332 0.073066667 0.56 16711422
-0.089066662 0.073066667 0.56 16711422
-0.088 0.073066667 0.56 16711422
-0.08693333 0.073066667 0.56 16579836
-0.085713334 0.072936192 0.55900002 16579836
-0.084648572 0.072936192 0.55900002 16579836
-0.083583809 0.072936192 0.55900002 16579836
-0.082519054 0.072936192 0.55900002 16579836
-0.081454284 0.072936192 0.55900002 16579836
-0.080389529 0.072936192 0.55900002 16579836
-0.079466671 0.073066667 0.56 16579836
-0.078400001 0.073066667 0.56 16579836
-0.077333331 0.073066667 0.56 16579836
-0.076266669 0.073066667 0.56 16579836
-0.075199999 0.073066667 0.56 16579836
-0.074265718 0.073197149 0.56100005 16579836
-0.073066667 0.073066667 0.56 16579836
-0.071999997 0.073066667 0.56 16579836
-0.071060002 0.073197149 0.56100005 16579836
-0.069991432 0.073197149 0.56100005 16579836
-0.068922862 0.073197149 0.56100005 16579836
-0.067854293 0.073197149 0.56100005 16579836
-0.066785723 0.073197149 0.56100005 16579836
-0.065620005 0.075545721 0.57900006 16646142
-0.06440571 0.075415239 0.57800001 15132903
-0.063195243 0.075284764 0.57700002 12839933
-0.062096193 0.075284764 0.57700002 13037311
-0.060997147 0.075284764 0.57700002 13235711
-0.060105722 0.075545721 0.57900006 13104127
-0.058900952 0.075415239 0.57800001 12907263
-0.057800002 0.075415239 0.57800001 12841471
-0.056699049 0.075415239 0.57800001 11987967
-0.055598095 0.075415239 0.57800001 11987967
-0.054591436 0.075545721 0.57900006 11987711
-0.053488575 0.075545721 0.57900006 11856127
-0.052385718 0.075545721 0.57900006 11068927
-0.051371429 0.075676195 0.58000004 11200511
-0.050266668 0.075676195 0.58000004 11462655
-0.049161907 0.075676195 0.58000004 11396863
-0.047974288 0.075545721 0.57900006 10806783
-0.046871431 0.075545721 0.57900006 10740991
-0.045768574 0.075545721 0.57900006 10478847
-0.04466572 0.075545721 0.57900006 10281471
-0.04348762 0.075415239 0.57800001 10215423
-0.042386666 0.075415239 0.57800001 10018047
-0.041285716 0.075415239 0.57800001 9820415
-0.040184762 0.075415239 0.57800001 9820415
-0.039083812 0.075415239 0.57800001 9492479
-0.037982855 0.075415239 0.57800001 9360895
-0.036945716 0.075545721 0.57900006 8967423
-0.035842858 0.075545721 0.57900006 8901631
-0.034740005 0.075545721 0.57900006 8573695
-0.033637147 0.075545721 0.57900006 8376319
-0.03253429 0.075545721 0.57900006 7982335
-0.031431429 0.075545721 0.57900006 8377087
-0.030328574 0.075545721 0.57900006 10606079
-0.029225716 0.075545721 0.57900006 5605816
-0.12495811 0.076516189 0.57800001 9738239
-0.12385715 0.076516189 0.57800001 10856703
-0.12275618 0.076516189 0.57800001 11973375
-0.12165523 0.076516189 0.57800001 11841791
-0.12055428 0.076516189 0.57800001 11776255
-0.11945333 0.076516189 0.57800001 11776255
-0.11814763 0.076383814 0.57700002 11645695
-0.11704857 0.076383814 0.57700002 11645695
-0.11594953 0.076383814 0.57700002 11711999
-0.11485048 0.076383814 0.57700002 11777791
-0.11375143 0.076383814 0.57700002 11711999
-0.11265238 0.076383814 0.57700002 11711999
-0.11155333 0.076383814 0.57700002 11909375
-0.11045429 0.076383814 0.57700002 12040959
-0.10935524 0.076383814 0.57700002 12238335
-0.10844381 0.076516189 0.57800001 12435711
-0.10734285 0.076516189 0.57800001 12435967
-0.1060581 0.076383814 0.57700002 12304383
-0.10495905 0.076383814 0.57700002 12238335
-0.10386 0.076383814 0.57700002 12106751
-0.10276096 0.076383814 0.57700002 12304127
-0.10166191 0.076383814 0.57700002 12435711
-0.10056286 0.076383814 0.57700002 12370431
-0.099463813 0.076383814 0.57700002 12370431
-0.098364763 0.076383814 0.57700002 12305407
-0.09726572 0.076383814 0.57700002 11450102
-0.096333332 0.076516189 0.57800001 13222908
-0.095232382 0.076516189 0.57800001 16578303
-0.094131432 0.076516189 0.57800001 16711422
-0.090133332 0.074133337 0.56 16711422
-0.089066662 0.074133337 0.56 16645629
-0.088 0.074133337 0.56 16579836
-0.086778097 0.074000955 0.55900002 16579836
-0.085713334 0.074000955 0.55900002 16579836
-0.084648572 0.074000955 0.55900002 16579836
-0.083434291 0.073868573 0.55800003 16579836
-0.082371436 0.073868573 0.55800003 16579836
-0.081454284 0.074000955 0.55900002 16579836
-0.080389529 0.074000955 0.55900002 16579836
-0.07932476 0.074000955 0.55900002 16579836
-0.078260005 0.074000955 0.55900002 16579836
-0.077333331 0.074133337 0.56 16579836
-0.076266669 0.074133337 0.56 16579836
-0.075199999 0.074133337 0.56 16579836
-0.074133337 0.074133337 0.56 16579836
-0.073066667 0.074133337 0.56 16579836
-0.071999997 0.074133337 0.56 16579836
-0.070933335 0.074133337 0.56 16579836
-0.069866665 0.074133337 0.56 16579836
-0.068799995 0.074133337 0.56 16579836
-0.067733333 0.074133337 0.56 16579836
-0.066666663 0.074133337 0.56 16579836
-0.065131433 0.073603816 0.55600005 16579836
-0.064072385 0.073603816 0.55600005 16711422
-0.063013345 0.073603816 0.55600005 16449020
-0.064182863 0.076251432 0.57600003 14935781
-0.06308572 0.076251432 0.57600003 9951743
-0.061988577 0.076251432 0.57600003 8899061
-0.060891431 0.076251432 0.57600003 9033727
-0.060001906 0.076516189 0.57800001 8704767
-0.058799051 0.076383814 0.57700002 8442367
-0.057700001 0.076383814 0.57700002 8376575
-0.056600954 0.076383814 0.57700002 7917055
-0.055501904 0.076383814 0.57700002 7588095
-0.054497141 0.076516189 0.57800001 7457023
-0.053396191 0.076516189 0.57800001 7325439
-0.052385718 0.076648578 0.57900006 7719935
-0.05128286 0.076648578 0.57900006 7785727
-0.050180007 0.076648578 0.57900006 7851519
-0.049077149 0.076648578 0.57900006 7983103
-0.047891427 0.076516189 0.57800001 8049151
-0.046790477 0.076516189 0.57800001 7983359
-0.045689523 0.076516189 0.57800001 7917567
-0.044588573 0.076516189 0.57800001 7720191
-0.04341238 0.076383814 0.57700002 7786239
-0.042313334 0.076383814 0.57700002 7654655
-0.041285716 0.076516189 0.57800001 7851007
-0.040115241 0.076383814 0.57700002 7916799
-0.039016195 0.076383814 0.57700002 7456511
-0.037917141 0.076383814 0.57700002 7390719
-0.036881905 0.076516189 0.57800001 7588607
-0.035780951 0.076516189 0.57800001 7720191
-0.034680001 0.076516189 0.57800001 7720447
-0.033520956 0.076383814 0.57700002 7786239
-0.032421906 0.076383814 0.57700002 7457791
-0.031322856 0.076383814 0.57700002 8049919
-0.030328574 0.076648578 0.57900006 10607103
-0.029225716 0.076648578 0.57900006 5672633
-0.02783143 0.075854287 0.57300001 1076459
-0.026740002 0.075854287 0.57300001 2787071
-0.025648572 0.075854287 0.57300001 5869823
-0.12495811 0.077617146 0.57800001 5281535
-0.12385715 0.077617146 0.57800001 5478911
-0.12275618 0.077617146 0.57800001 4039423
-0.12165523 0.077617146 0.57800001 3973631
-0.12055428 0.077617146 0.57800001 4499455
-0.11924667 0.077482857 0.57700002 4433663
-0.11794286 0.077348575 0.57600003 4433663
-0.11684573 0.077348575 0.57600003 4696831
-0.11574858 0.077348575 0.57600003 5484031
-0.11465143 0.077348575 0.57600003 5220863
-0.11355429 0.077348575 0.57600003 4434687
-0.11245715 0.077348575 0.57600003 4697855
-0.11136001 0.077348575 0.57600003 5025535
-0.11026286 0.077348575 0.57600003 5288703
-0.10916572 0.077348575 0.57600003 5550847
-0.10806858 0.077348575 0.57600003 5879807
-0.10697144 0.077348575 0.57600003 6536191
-0.10587429 0.077348575 0.57600003 6338815
-0.10477715 0.077348575 0.57600003 5880063
-0.10368001 0.077348575 0.57600003 5616895
-0.10258286 0.077348575 0.57600003 5355007
-0.10148572 0.077348575 0.57600003 5420799
-0.10038857 0.077348575 0.57600003 5552639
-0.099291429 0.077348575 0.57600003 5552639
-0.098364763 0.077482857 0.57700002 6208511
-0.09726572 0.077482857 0.57700002 4168937
-0.096333332 0.077617146 0.57800001 10468349
-0.095232382 0.077617146 0.57800001 14942207
-0.094131432 0.077617146 0.57800001 16711420
-0.089972384 0.075065717 0.55900002 16645627
-0.088907622 0.075065717 0.55900002 16645629
-0.087842859 0.075065717 0.55900002 16645629
-0.086622857 0.074931428 0.55800003 16579836
-0.085560001 0.074931428 0.55800003 16579836
-0.084497146 0.074931428 0.55800003 16579836
-0.083284765 0.074797146 0.55700004 16579836
-0.082223818 0.074797146 0.55700004 16579836
-0.081308573 0.074931428 0.55800003 16579836
-0.080245718 0.074931428 0.55800003 16579836
-0.07932476 0.075065717 0.55900002 16579836
-0.078260005 0.075065717 0.55900002 16579836
-0.077195235 0.075065717 0.55900002 16579836
-0.07613048 0.075065717 0.55900002 16579836
-0.075065717 0.075065717 0.55900002 16579836
-0.074000955 0.075065717 0.55900002 16579836
-0.072936192 0.075065717 0.55900002 16579836
-0.07187143 0.075065717 0.55900002 16579836
-0.070806667 0.075065717 0.55900002 16579836
-0.069741905 0.075065717 0.55900002 16579836
-0.06855429 0.074931428 0.55800003 16579836
-0.067491435 0.074931428 0.55800003 16579836
-0.066428572 0.074931428 0.55800003 16579836
-0.065131433 0.074662864 0.55600005 16579836
-0.06395714 0.074528567 0.55500001 16711422
-0.062899999 0.074528567 0.55500001 16186875
-0.061842855 0.074528567 0.55500001 15199980
-0.062976196 0.077214286 0.57500005 7920127
-0.061880957 0.077214286 0.57500005 6933237
-0.060785718 0.077214286 0.57500005 8116735
-0.059794288 0.077348575 0.57600003 7458813
-0.058697145 0.077348575 0.57600003 6737919
-0.057600003 0.077348575 0.57600003 6540543
-0.05650286 0.077348575 0.57600003 6146559
-0.055405717 0.077348575 0.57600003 5949183
-0.054402858 0.077482857 0.57700002 5883647
-0.053303812 0.077482857 0.57700002 5949439
-0.052204765 0.077482857 0.57700002 6343167
-0.051105715 0.077482857 0.57700002 6343167
-0.050006669 0.077482857 0.57700002 6277887
-0.048907619 0.077482857 0.57700002 6475263
-0.047808573 0.077482857 0.57700002 7394047
-0.046628572 0.077348575 0.57600003 7262463
-0.045531429 0.077348575 0.57600003 7000319
-0.044434287 0.077348575 0.57600003 6868735
-0.043337144 0.077348575 0.57600003 7196671
-0.042240001 0.077348575 0.57600003 6867711
-0.041142859 0.077348575 0.57600003 6998271
-0.04004572 0.077348575 0.57600003 6932479
-0.038948573 0.077348575 0.57600003 6866431
-0.03785143 0.077348575 0.57600003 6932223
-0.036754288 0.077348575 0.57600003 6998271
-0.035657145 0.077348575 0.57600003 7064063
-0.034560002 0.077348575 0.57600003 7261183
-0.033404768 0.077214286 0.57500005 7195391
-0.032309525 0.077214286 0.57500005 6539519
-0.031322856 0.077482857 0.57700002 7460607
-0.030223809 0.077482857 0.57700002 10607871
-0.028922858 0.076945715 0.57300001 5870780
-0.027782857 0.076811425 0.57200003 1077227
-0.026693335 0.076811425 0.57200003 2919423
-0.02560381 0.076811425 0.57200003 5738239
-0.024514288 0.076811425 0.57200003 7119871
-0.12562287 0.078445718 0.57600003 8167315
-0.12452573 0.078445718 0.57600003 6465535
-0.12364287 0.078581907 0.57700002 6465535
-0.12254381 0.078581907 0.57700002 5614847
-0.12144477 0.078581907 0.57700002 5351679
-0.12034572 0.078581907 0.57700002 5221119
-0.11924667 0.078581907 0.57700002 5155327
-0.11794286 0.078445718 0.57600003 5681663
-0.11684573 0.078445718 0.57600003 5944831
-0.11574858 0.078445718 0.57600003 6010367
-0.11445239 0.078309529 0.57500005 5944575
-0.11335715 0.078309529 0.57500005 6010367
-0.11226191 0.078309529 0.57500005 6141951
-0.11116667 0.078309529 0.57500005 6404607
-0.11007144 0.078309529 0.57500005 6470399
-0.1089762 0.078309529 0.57500005 6601983
-0.10788096 0.078309529 0.57500005 6865151
-0.10678572 0.078309529 0.57500005 6996735
-0.10569048 0.078309529 0.57500005 6996735
-0.10459525 0.078309529 0.57500005 6800127
-0.10350001 0.078309529 0.57500005 6602751
-0.10240477 0.078309529 0.57500005 6537215
-0.10130953 0.078309529 0.57500005 6668799
-0.10021429 0.078309529 0.57500005 6603007
-0.09911906 0.078309529 0.57500005 6405631
-0.098194286 0.078445718 0.57600003 6536703
-0.097097144 0.078445718 0.57600003 5812989
-0.095666662 0.078173332 0.574 12110846
-0.094573334 0.078173332 0.574 15466239
-0.093479998 0.078173332 0.574 16711422
-0.089650482 0.075858101 0.55700004 16645629
-0.088589527 0.075858101 0.55700004 16579836
-0.087528579 0.075858101 0.55700004 16579836
-0.086467624 0.075858101 0.55700004 16579836
-0.085406676 0.075858101 0.55700004 16579836
-0.084345713 0.075858101 0.55700004 16579836
-0.083284765 0.075858101 0.55700004 16579836
-0.082076199 0.075721912 0.55600005 16579836
-0.081017151 0.075721912 0.55600005 16579836
-0.079958104 0.075721912 0.55600005 16579836
-0.078757145 0.075585708 0.55500001 16579836
-0.077699997 0.075585708 0.55500001 16579836
-0.076642856 0.075585708 0.55500001 16579836
-0.075585708 0.075585708 0.55500001 16579836
-0.074528567 0.075585708 0.55500001 16579836
-0.073471434 0.075585708 0.55500001 16579836
-0.072414286 0.075585708 0.55500001 16579836
-0.071357146 0.075585708 0.55500001 16579836
-0.070299998 0.075585708 0.55500001 16579836
-0.069242857 0.075585708 0.55500001 16579836
-0.068185717 0.075585708 0.55500001 16579836
-0.067128569 0.075585708 0.55500001 16579836
-0.066071428 0.075585708 0.55500001 16579836
-0.065014288 0.075585708 0.55500001 16579836
-0.063841909 0.075449526 0.55400002 16711422
-0.062786669 0.075449526 0.55400002 16514813
-0.061731428 0.075449526 0.55400002 16185848
-0.062866665 0.078173332 0.574 10216191
-0.061558098 0.077900954 0.57200003 8373992
-0.060468573 0.077900954 0.57200003 7723007
-0.059379049 0.077900954 0.57200003 7591423
-0.058289524 0.077900954 0.57200003 7328767
-0.0572 0.077900954 0.57200003 7131391
-0.056110479 0.077900954 0.57200003 6803199
-0.055213332 0.078173332 0.574 6737407
-0.054308575 0.078445718 0.57600003 6737407
-0.053119052 0.078309529 0.57500005 6737407
-0.052023813 0.078309529 0.57500005 6803199
-0.050928578 0.078309529 0.57500005 6803199
-0.049833339 0.078309529 0.57500005 6803199
-0.048738096 0.078309529 0.57500005 6737407
-0.047559999 0.078173332 0.574 7066111
-0.046466667 0.078173332 0.574 7197695
-0.045294289 0.078037143 0.57300001 7197183
-0.04420286 0.078037143 0.57300001 6999807
-0.043186668 0.078173332 0.574 6671103
-0.042093333 0.078173332 0.574 6605311
-0.041071434 0.078309529 0.57500005 6605311
-0.039976191 0.078309529 0.57500005 6671103
-0.038880955 0.078309529 0.57500005 6866943
-0.037719999 0.078173332 0.574 6866943
-0.036626667 0.078173332 0.574 6801151
-0.035471432 0.078037143 0.57300001 6801151
-0.03438 0.078037143 0.57300001 6866943
-0.033230476 0.077900954 0.57200003 6998527
-0.032140952 0.077900954 0.57200003 6801919
-0.031051429 0.077900954 0.57200003 7788799
-0.029961905 0.077900954 0.57200003 10476543
-0.028922858 0.078037143 0.57300001 5673660
-0.027782857 0.077900954 0.57200003 1143540
-0.026693335 0.077900954 0.57200003 2590975
-0.02560381 0.077900954 0.57200003 5738238
-0.024514288 0.077900954 0.57200003 7054079
-0.12518667 0.079266667 0.574 7839136
-0.12409334 0.079266667 0.574 6860799
-0.123 0.079266667 0.574 6334463
-0.12190667 0.079266667 0.574 5287423
-0.12081333 0.079266667 0.574 5221631
-0.11972 0.079266667 0.574 5352447
-0.11862666 0.079266667 0.574 5484031
-0.11753333 0.079266667 0.574 6205951
-0.11644 0.079266667 0.574 6205951
-0.11534666 0.079266667 0.574 5944575
-0.11425333 0.079266667 0.574 6010367
-0.11296286 0.079128571 0.57300001 6141695
-0.11187143 0.079128571 0.57300001 6207487
-0.11078 0.079128571 0.57300001 6339327
-0.10968857 0.079128571 0.57300001 6405119
-0.10859714 0.079128571 0.57300001 6208511
-0.10750572 0.079128571 0.57300001 6340095
-0.10641429 0.079128571 0.57300001 7127551
-0.10532286 0.079128571 0.57300001 7061759
-0.10423142 0.079128571 0.57300001 6734335
-0.10314 0.079128571 0.57300001 6668543
-0.10204857 0.079128571 0.57300001 6537215
-0.10095715 0.079128571 0.57300001 6537215
-0.099865712 0.079128571 0.57300001 6537215
-0.098946661 0.079266667 0.574 6339839
-0.097853333 0.079266667 0.574 6208511
-0.096759997 0.079266667 0.574 5747967
-0.095666662 0.079266667 0.574 12965626
-0.094573334 0.079266667 0.574 15663103
-0.090222858 0.076504759 0.55400002 16711422
-0.089167625 0.076504759 0.55400002 16645629
-0.088112384 0.076504759 0.55400002 16579836
-0.087057143 0.076504759 0.55400002 16579836
-0.086157143 0.076642856 0.55500001 16579836
-0.085100003 0.076642856 0.55500001 16579836
-0.084042862 0.076642856 0.55500001 16579836
-0.082836196 0.076504759 0.55400002 16579836
-0.081780955 0.076504759 0.55400002 16579836
-0.080725715 0.076504759 0.55400002 16579836
-0.079814285 0.076642856 0.55500001 16579836
-0.078757145 0.076642856 0.55500001 16579836
-0.07756 0.076504759 0.55400002 16579836
-0.076504759 0.076504759 0.55400002 16579836
-0.075449526 0.076504759 0.55400002 16579836
-0.074394293 0.076504759 0.55400002 16579836
-0.073339052 0.076504759 0.55400002 16579836
-0.072283812 0.076504759 0.55400002 16579836
-0.071228571 0.076504759 0.55400002 16579836
-0.070173331 0.076504759 0.55400002 16579836
-0.069118097 0.076504759 0.55400002 16579836
-0.068062857 0.076504759 0.55400002 16579836
-0.067007624 0.076504759 0.55400002 16579836
-0.065952383 0.076504759 0.55400002 16579836
-0.06489715 0.076504759 0.55400002 16579836
-0.063841909 0.076504759 0.55400002 16711422
-0.062786669 0.076504759 0.55400002 16580606
-0.061731428 0.076504759 0.55400002 16317434
-0.062866665 0.079266667 0.574 11134719
-0.061558098 0.078990474 0.57200003 8766176
-0.060468573 0.078990474 0.57200003 7394303
-0.059275243 0.078852385 0.57100004 7394303
-0.058187623 0.078852385 0.57100004 7066111
-0.0572 0.078990474 0.57200003 6802943
-0.056110479 0.078990474 0.57200003 6540287
-0.055020954 0.078990474 0.57200003 6606079
-0.054025713 0.079128571 0.57300001 6540799
-0.053026669 0.079266667 0.574 6540799
-0.051933333 0.079266667 0.574 6606591
-0.050839998 0.079266667 0.574 6606591
-0.049746666 0.079266667 0.574 6803199
-0.048653331 0.079266667 0.574 6671615
-0.047477145 0.079128571 0.57300001 6671359
-0.046385717 0.079128571 0.57300001 6671359
-0.045215238 0.078990474 0.57200003 6671359
-0.044125713 0.078990474 0.57200003 6539775
-0.043036193 0.078990474 0.57200003 6605311
-0.041946668 0.078990474 0.57200003 6539519
-0.040857144 0.078990474 0.57200003 6473983
-0.039767619 0.078990474 0.57200003 6473983
-0.038813334 0.079266667 0.574 6539519
-0.037719999 0.079266667 0.574 6407935
-0.036626667 0.079266667 0.574 6538239
-0.035409525 0.078990474 0.57200003 6669823
-0.034320004 0.078990474 0.57200003 6801151
-0.033230476 0.078990474 0.57200003 7064319
-0.032140952 0.078990474 0.57200003 6605311
-0.031051429 0.078990474 0.57200003 7592191
-0.029961905 0.078990474 0.57200003 10214143
-0.028872382 0.078990474 0.57200003 5345467
-0.027782857 0.078990474 0.57200003 1076977
-0.026693335 0.078990474 0.57200003 2327039
-0.02560381 0.078990474 0.57200003 6000377
-0.024514288 0.078990474 0.57200003 6724095
-0.12540001 0.07980001 0.57000005 6722475
-0.1243143 0.07980001 0.57000005 7380405
-0.12387714 0.080219999 0.57300001 6467327
-0.12278572 0.080219999 0.57300001 5743615
-0.12169428 0.080219999 0.57300001 4762367
-0.12081333 0.080359995 0.574 4828159
-0.11951143 0.080219999 0.57300001 5090559
-0.11842 0.080219999 0.57300001 5287935
-0.11732857 0.080219999 0.57300001 5485055
-0.11623715 0.080219999 0.57300001 5485055
-0.11514571 0.080219999 0.57300001 5945087
-0.11405428 0.080219999 0.57300001 5879295
-0.11296286 0.080219999 0.57300001 6076159
-0.11167619 0.080080003 0.57200003 6010367
-0.11039334 0.079940006 0.57100004 5748479
-0.10930572 0.079940006 0.57100004 5945855
-0.10840762 0.080080003 0.57200003 5814271
-0.1073181 0.080080003 0.57200003 5880063
-0.10622858 0.080080003 0.57200003 6800127
-0.10532286 0.080219999 0.57300001 6800127
-0.10423142 0.080219999 0.57300001 6538239
-0.10314 0.080219999 0.57300001 6472447
-0.10204857 0.080219999 0.57300001 6406399
-0.10095715 0.080219999 0.57300001 6406399
-0.099865712 0.080219999 0.57300001 6341119
-0.098774292 0.080219999 0.57300001 6143743
-0.097682856 0.080219999 0.57300001 6339839
-0.096759997 0.080359995 0.574 6010879
-0.095666662 0.080359995 0.574 13294073
-0.091113336 0.077420004 0.55300003 15794175
-0.090060003 0.077420004 0.55300003 16711422
-0.089006677 0.077420004 0.55300003 16579836
-0.088112384 0.07756 0.55400002 16579836
-0.087057143 0.07756 0.55400002 16579836
-0.086001903 0.07756 0.55400002 16579836
-0.08494667 0.07756 0.55400002 16579836
-0.083891436 0.07756 0.55400002 16579836
-0.082836196 0.07756 0.55400002 16579836
-0.081780955 0.07756 0.55400002 16579836
-0.080725715 0.07756 0.55400002 16579836
-0.079670474 0.07756 0.55400002 16579836
-0.078615241 0.07756 0.55400002 16579836
-0.07756 0.07756 0.55400002 16579836
-0.076504759 0.07756 0.55400002 16579836
-0.075449526 0.07756 0.55400002 16579836
-0.074394293 0.07756 0.55400002 16579836
-0.073339052 0.07756 0.55400002 16579836
-0.072283812 0.07756 0.55400002 16579836
-0.071228571 0.07756 0.55400002 16579836
-0.070173331 0.07756 0.55400002 16579836
-0.069118097 0.07756 0.55400002 16579836
-0.068062857 0.07756 0.55400002 16579836
-0.067007624 0.07756 0.55400002 16579836
-0.065952383 0.07756 0.55400002 16579836
-0.06489715 0.07756 0.55400002 16579836
-0.063726671 0.077420004 0.55300003 16711422
-0.062673338 0.077420004 0.55300003 16514813
-0.061620004 0.077420004 0.55300003 16251641
-0.062209524 0.079520002 0.56800002 11134719
-0.061127625 0.079520002 0.56800002 8634590
-0.060045715 0.079520002 0.56800002 7132415
-0.059171431 0.07980001 0.57000005 7132415
-0.058085717 0.07980001 0.57000005 7066111
-0.057100005 0.079940006 0.57100004 6671359
-0.056012385 0.079940006 0.57100004 6343167
-0.055020954 0.080080003 0.57200003 6408959
-0.05393143 0.080080003 0.57200003 6277887
-0.052841906 0.080080003 0.57200003 6080511
-0.051842857 0.080219999 0.57300001 6015487
-0.050751429 0.080219999 0.57300001 6147071
-0.049660001 0.080219999 0.57300001 6408959
-0.048483811 0.080080003 0.57200003 6474751
-0.047394291 0.080080003 0.57200003 6605311
-0.046304762 0.080080003 0.57200003 6605311
-0.045136191 0.079940006 0.57100004 6408703
-0.044048574 0.079940006 0.57100004 6408703
-0.042960957 0.079940006 0.57100004 6342655
-0.041873336 0.079940006 0.57100004 6342655
-0.04071429 0.07980001 0.57000005 6342655
-0.039628576 0.07980001 0.57000005 6408447
-0.038542863 0.07980001 0.57000005 6342655
-0.03752286 0.079940006 0.57100004 6145279
-0.03649905 0.080080003 0.57200003 6145535
-0.035347622 0.079940006 0.57100004 6342911
-0.034260001 0.079940006 0.57100004 6801919
-0.03317238 0.079940006 0.57100004 7788799
-0.032084763 0.079940006 0.57100004 8312575
-0.030997144 0.079940006 0.57100004 8312575
-0.029909525 0.079940006 0.57100004 10083071
-0.028821906 0.079940006 0.57100004 5214394
-0.027782857 0.080080003 0.57200003 1209844
-0.026740002 0.080219999 0.57300001 1999359
-0.025648572 0.080219999 0.57300001 5081846
-0.024557142 0.080219999 0.57300001 4884467
-0.1262638 0.080743805 0.56900001 10591640
-0.12517999 0.080743805 0.56900001 6853314
-0.1243143 0.080885723 0.57000005 7511244
-0.12344477 0.08102762 0.57100004 5615359
-0.12235714 0.08102762 0.57100004 5220607
-0.12126953 0.08102762 0.57100004 4631551
-0.12039238 0.081169531 0.57200003 4697343
-0.11951143 0.081311427 0.57300001 5091071
-0.11842 0.081311427 0.57300001 5091071
-0.11732857 0.081311427 0.57300001 5157119
-0.11623715 0.081311427 0.57300001 5354495
-0.11514571 0.081311427 0.57300001 5748479
-0.11385524 0.081169531 0.57200003 5682687
-0.11276572 0.081169531 0.57200003 6405631
-0.11148096 0.08102762 0.57100004 5945087
-0.11020001 0.080885723 0.57000005 5289727
-0.10911429 0.080885723 0.57000005 5552895
-0.10802858 0.080885723 0.57000005 5945599
-0.10713048 0.08102762 0.57100004 6077183
-0.10604286 0.08102762 0.57100004 6996735
-0.10495525 0.08102762 0.57100004 6996735
-0.10386762 0.08102762 0.57100004 6342399
-0.10278001 0.08102762 0.57100004 6210815
-0.10187048 0.081169531 0.57200003 6341119
-0.10060477 0.08102762 0.57100004 6406911
-0.099517144 0.08102762 0.57100004 6341119
-0.098257147 0.080885723 0.57000005 5946367
-0.097171433 0.080885723 0.57000005 6207999
-0.09608572 0.080885723 0.57000005 5944831
-0.095000006 0.080885723 0.57000005 13819639
-0.090948582 0.078331433 0.55200005 15990783
-0.089897148 0.078331433 0.55200005 16711420
-0.089006677 0.078473337 0.55300003 16579834
-0.087953337 0.078473337 0.55300003 16579836
-0.086900003 0.078473337 0.55300003 16579836
-0.08584667 0.078473337 0.55300003 16579836
-0.084793337 0.078473337 0.55300003 16579836
-0.083740003 0.078473337 0.55300003 16579836
-0.08268667 0.078473337 0.55300003 16579836
-0.081633337 0.078473337 0.55300003 16579836
-0.080580011 0.078473337 0.55300003 16579836
-0.079670474 0.078615241 0.55400002 16579836
-0.078615241 0.078615241 0.55400002 16579836
-0.077420004 0.078473337 0.55300003 16579836
-0.07636667 0.078473337 0.55300003 16579836
-0.075313337 0.078473337 0.55300003 16579836
-0.074260004 0.078473337 0.55300003 16579836
-0.073206671 0.078473337 0.55300003 16579836
-0.072022863 0.078331433 0.55200005 16579836
-0.070971429 0.078331433 0.55200005 16579836
-0.070046671 0.078473337 0.55300003 16579836
-0.06899333 0.078473337 0.55300003 16579836
-0.067940004 0.078473337 0.55300003 16579836
-0.066886671 0.078473337 0.55300003 16579836
-0.065952383 0.078615241 0.55400002 16579836
-0.06489715 0.078615241 0.55400002 16579836
-0.063726671 0.078473337 0.55300003 16711422
-0.062673338 0.078473337 0.55300003 16580349
-0.061620004 0.078473337 0.55300003 16251384
-0.062100001 0.080459997 0.56700003 12251391
-0.061020005 0.080459997 0.56700003 9488086
-0.059940003 0.080459997 0.56700003 7788799
-0.059067618 0.080743805 0.56900001 7788799
-0.057983808 0.080743805 0.56900001 7328767
-0.056899998 0.080743805 0.56900001 6868223
-0.055816192 0.080743805 0.56900001 6671103
-0.054924767 0.08102762 0.57100004 6605311
-0.05393143 0.081169531 0.57200003 6408959
-0.052749529 0.08102762 0.57100004 6277375
-0.051661909 0.08102762 0.57100004 6211583
-0.050574288 0.08102762 0.57100004 6211583
-0.049486667 0.08102762 0.57100004 6539775
-0.04839905 0.08102762 0.57100004 6539775
-0.047311429 0.08102762 0.57100004 6474495
-0.046223812 0.08102762 0.57100004 6474495
-0.045136191 0.08102762 0.57100004 6539775
-0.043971434 0.080885723 0.57000005 6539775
-0.042810477 0.080743805 0.56900001 6145535
-0.041726667 0.080743805 0.56900001 6211327
-0.040642858 0.080743805 0.56900001 6014463
-0.039489523 0.080601908 0.56800002 6211839
-0.03840762 0.080601908 0.56800002 6474495
-0.037391428 0.080743805 0.56900001 6079743
-0.036307618 0.080743805 0.56900001 6211583
-0.035347622 0.08102762 0.57100004 6343167
-0.034260001 0.08102762 0.57100004 6736895
-0.03317238 0.08102762 0.57100004 7723775
-0.032084763 0.08102762 0.57100004 8640767
-0.030997144 0.08102762 0.57100004 8838143
-0.029909525 0.08102762 0.57100004 9886207
-0.028821906 0.08102762 0.57100004 5149117
-0.027782857 0.081169531 0.57200003 1145584
-0.026740002 0.081311427 0.57300001 2790399
-0.025648572 0.081311427 0.57300001 5017084
-0.12712382 0.081683815 0.56800002 10133142
-0.12604192 0.081683815 0.56800002 9606798
-0.12517999 0.081827618 0.56900001 6067934
-0.1243143 0.081971437 0.57000005 7120622
-0.12322859 0.081971437 0.57000005 6338303
-0.12214287 0.081971437 0.57000005 5811967
-0.12105715 0.081971437 0.57000005 5157119
-0.11997144 0.081971437 0.57000005 5157119
-0.11888573 0.081971437 0.57000005 5288703
-0.1178 0.081971437 0.57000005 5288703
-0.11671429 0.081971437 0.57000005 5157375
-0.11562858 0.081971437 0.57000005 5354751
-0.11454286 0.081971437 0.57000005 5355007
-0.11345715 0.081971437 0.57000005 5289215
-0.11237144 0.081971437 0.57000005 5552639
-0.11109048 0.081827618 0.56900001 5157887
-0.11000667 0.081827618 0.56900001 5289727
-0.10892286 0.081827618 0.56900001 5618687
-0.10783905 0.081827618 0.56900001 6077183
-0.10694286 0.081971437 0.57000005 6274559
-0.10585715 0.081971437 0.57000005 6734847
-0.10477144 0.081971437 0.57000005 6998015
-0.10368572 0.081971437 0.57000005 6866943
-0.10260001 0.081971437 0.57000005 6801151
-0.10169239 0.082115248 0.57100004 6604031
-0.10042858 0.081971437 0.57000005 6406655
-0.099342868 0.081971437 0.57000005 6538239
-0.098257147 0.081971437 0.57000005 6538239
-0.097171433 0.081971437 0.57000005 6273791
-0.09608572 0.081971437 0.57000005 4760563
-0.092000008 0.079382859 0.55200005 11255295
-0.090783805 0.079239041 0.551 15334399
-0.089734286 0.079239041 0.551 16711420
-0.088845722 0.079382859 0.55200005 16579834
-0.087794289 0.079382859 0.55200005 16579836
-0.086900003 0.07952667 0.55300003 16579836
-0.08584667 0.07952667 0.55300003 16579836
-0.084640011 0.079382859 0.55200005 16579836
-0.083588578 0.079382859 0.55200005 16579836
-0.08268667 0.07952667 0.55300003 16579836
-0.081633337 0.07952667 0.55300003 16579836
-0.080580011 0.07952667 0.55300003 16579836
-0.07952667 0.07952667 0.55300003 16579836
-0.078473337 0.07952667 0.55300003 16579836
-0.077420004 0.07952667 0.55300003 16579836
-0.07636667 0.07952667 0.55300003 16579836
-0.075313337 0.07952667 0.55300003 16579836
-0.074260004 0.07952667 0.55300003 16579836
-0.073074289 0.079382859 0.55200005 16579836
-0.072022863 0.079382859 0.55200005 16579836
-0.070842862 0.079239041 0.551 16579836
-0.069666669 0.079095237 0.55000001 16579836
-0.06861905 0.079095237 0.55000001 16579836
-0.067694284 0.079239041 0.551 16579836
-0.066644758 0.079239041 0.551 16579836
-0.065833338 0.07952667 0.55300003 16579836
-0.064780004 0.07952667 0.55300003 16579836
-0.063611433 0.079382859 0.55200005 16711422
-0.06256 0.079382859 0.55200005 16580349
-0.061508577 0.079382859 0.55200005 15922419
-0.062100001 0.081540003 0.56700003 12972541
-0.061020005 0.081540003 0.56700003 10998751
-0.059940003 0.081540003 0.56700003 8315135
-0.058963813 0.081683815 0.56800002 8117759
-0.057881907 0.081683815 0.56800002 7395327
-0.056800004 0.081683815 0.56800002 6868991
-0.055718098 0.081683815 0.56800002 6737919
-0.054924767 0.082115248 0.57100004 6803711
-0.053648572 0.081827618 0.56900001 6672383
-0.052564763 0.081827618 0.56900001 6475007
-0.051571433 0.081971437 0.57000005 5884415
-0.050485719 0.081971437 0.57000005 5752831
-0.049400005 0.081971437 0.57000005 6146047
-0.048314288 0.081971437 0.57000005 6211839
-0.047228575 0.081971437 0.57000005 6540287
-0.046061907 0.081827618 0.56900001 6540287
-0.044978097 0.081827618 0.56900001 6803199
-0.043894287 0.081827618 0.56900001 6934783
-0.042735238 0.081683815 0.56800002 6408959
-0.041653331 0.081683815 0.56800002 6408959
-0.040571429 0.081683815 0.56800002 6408959
-0.039489523 0.081683815 0.56800002 6474751
-0.03840762 0.081683815 0.56800002 6474495
-0.037325714 0.081683815 0.56800002 6145535
-0.036243808 0.081683815 0.56800002 6342655
-0.035161905 0.081683815 0.56800002 7395327
-0.034079999 0.081683815 0.56800002 7919615
-0.032998096 0.081683815 0.56800002 8182783
-0.03191619 0.081683815 0.56800002 8574975
-0.030834286 0.081683815 0.56800002 8903935
-0.029857146 0.081971437 0.57000005 9885439
-0.028821906 0.082115248 0.57100004 6003658
-0.12820572 0.082765713 0.56800002 11314329
-0.12712382 0.082765713 0.56800002 9740694
-0.12604192 0.082765713 0.56800002 9214350
-0.12517999 0.082911424 0.56900001 5741041
-0.12409618 0.082911424 0.56900001 6662143
-0.12301237 0.082911424 0.56900001 6206975
-0.12192857 0.082911424 0.56900001 5614847
-0.12105715 0.08305715 0.57000005 4894975
-0.11997144 0.08305715 0.57000005 5026559
-0.11888573 0.08305715 0.57000005 5157375
-0.1178 0.08305715 0.57000005 5091583
-0.11671429 0.08305715 0.57000005 4895487
-0.11542571 0.082911424 0.56900001 5092863
-0.1143419 0.082911424 0.56900001 5158399
-0.11325809 0.082911424 0.56900001 5026815
-0.11217429 0.082911424 0.56900001 5224703
-0.11089524 0.082765713 0.56800002 5290495
-0.10981333 0.082765713 0.56800002 5618431
-0.10873143 0.082765713 0.56800002 5684223
-0.10764953 0.082765713 0.56800002 5946879
-0.10675524 0.082911424 0.56900001 6012671
-0.10567143 0.082911424 0.56900001 6472447
-0.10458762 0.082911424 0.56900001 6867199
-0.10350381 0.082911424 0.56900001 6866943
-0.10260001 0.08305715 0.57000005 6866943
-0.10151429 0.08305715 0.57000005 6801151
-0.10025238 0.082911424 0.56900001 6735359
-0.099168569 0.082911424 0.56900001 6801151
-0.098084763 0.082911424 0.56900001 6735359
-0.097171433 0.08305715 0.57000005 7127551
-0.09608572 0.08305715 0.57000005 5219564
-0.091833338 0.080288574 0.551 11123965
-0.090783805 0.080288574 0.551 15334655
-0.089734286 0.080288574 0.551 16711420
-0.088845722 0.080434293 0.55200005 16579834
-0.087794289 0.080434293 0.55200005 16579836
-0.086742863 0.080434293 0.55200005 16579836
-0.08569143 0.080434293 0.55200005 16579836
-0.084640011 0.080434293 0.55200005 16579836
-0.083588578 0.080434293 0.55200005 16579836
-0.082537152 0.080434293 0.55200005 16579836
-0.081485718 0.080434293 0.55200005 16579836
-0.080434293 0.080434293 0.55200005 16579836
-0.079382859 0.080434293 0.55200005 16579836
-0.078331433 0.080434293 0.55200005 16579836
-0.077280007 0.080434293 0.55200005 16579836
-0.076228581 0.080434293 0.55200005 16579836
-0.075177148 0.080434293 0.55200005 16579836
-0.074125722 0.080434293 0.55200005 16579836
-0.073074289 0.080434293 0.55200005 16579836
-0.071892381 0.080288574 0.551 16579836
-0.070714287 0.080142856 0.55000001 16579836
-0.069666669 0.080142856 0.55000001 16579836
-0.06861905 0.080142856 0.55000001 16579836
-0.067571431 0.080142856 0.55000001 16579836
-0.066523805 0.080142856 0.55000001 16579836
-0.065595239 0.080288574 0.551 16579836
-0.064545713 0.080288574 0.551 16579836
-0.063611433 0.080434293 0.55200005 16711422
-0.06256 0.080434293 0.55200005 16646142
-0.061508577 0.080434293 0.55200005 16119798
-0.062100001 0.082620002 0.56700003 13169405
-0.061020005 0.082620002 0.56700003 11656166
-0.059940003 0.082620002 0.56700003 8971519
-0.058860004 0.082620002 0.56700003 8313595
-0.057780001 0.082620002 0.56700003 7133951
-0.056700002 0.082620002 0.56700003 6870783
-0.055620003 0.082620002 0.56700003 6869503
-0.054540001 0.082620002 0.56700003 6869503
-0.053554289 0.082765713 0.56800002 6476287
-0.052472383 0.082765713 0.56800002 6344703
-0.05139048 0.082765713 0.56800002 6278655
-0.050397143 0.082911424 0.56900001 5949695
-0.049313333 0.082911424 0.56900001 5622015
-0.048229523 0.082911424 0.56900001 5950975
-0.047145717 0.082911424 0.56900001 6803199
-0.045980953 0.082765713 0.56800002 6803199
-0.044899046 0.082765713 0.56800002 6606591
-0.043817144 0.082765713 0.56800002 6540799
-0.042735238 0.082765713 0.56800002 6343679
-0.041653331 0.082765713 0.56800002 6409471
-0.0405 0.082620002 0.56700003 6671871
-0.039420001 0.082620002 0.56700003 6606079
-0.038340002 0.082620002 0.56700003 6671615
-0.03726 0.082620002 0.56700003 6671615
-0.036180001 0.082620002 0.56700003 6868735
-0.035100002 0.082620002 0.56700003 7526655
-0.034019999 0.082620002 0.56700003 7854079
-0.03294 0.082620002 0.56700003 7722495
-0.031803809 0.082474291 0.56600004 8443647
-0.030725716 0.082474291 0.56600004 8772607
-0.029752383 0.082765713 0.56800002 10146815
-0.028821906 0.083202861 0.57100004 6922964
-0.12798001 0.083700001 0.56700003 11445913
-0.1269 0.083700001 0.56700003 9413014
-0.12604192 0.08384762 0.56800002 8755084
-0.12517999 0.083995238 0.56900001 5349119
-0.12409618 0.083995238 0.56900001 6730751
-0.12301237 0.083995238 0.56900001 6601727
-0.12171429 0.08384762 0.56800002 6141183
-0.12063238 0.08384762 0.56800002 6076671
-0.11955048 0.08384762 0.56800002 6142463
-0.11846858 0.08384762 0.56800002 5748479
-0.11738667 0.08384762 0.56800002 5287935
-0.11610001 0.083700001 0.56700003 4961279
-0.11502 0.083700001 0.56700003 5290239
-0.11394001 0.083700001 0.56700003 5289727
-0.11286 0.083700001 0.56700003 5158143
-0.11178 0.083700001 0.56700003 5618431
-0.1107 0.083700001 0.56700003 5552639
-0.10962 0.083700001 0.56700003 5618431
-0.10854 0.083700001 0.56700003 5815807
-0.10746001 0.083700001 0.56700003 6209279
-0.10656762 0.08384762 0.56800002 6209279
-0.10548571 0.08384762 0.56800002 6341119
-0.10440381 0.08384762 0.56800002 7064831
-0.10332191 0.08384762 0.56800002 7195647
-0.10224 0.08384762 0.56800002 6932479
-0.10133619 0.083995238 0.56900001 6473471
-0.10025238 0.083995238 0.56900001 6473471
-0.098994285 0.08384762 0.56800002 6735103
-0.097912386 0.08384762 0.56800002 6537727
-0.097171433 0.084142864 0.57000005 6799615
-0.09608572 0.084142864 0.57000005 3181010
-0.091833338 0.081338093 0.551 8627197
-0.090783805 0.081338093 0.551 14548479
-0.089734286 0.081338093 0.551 16711420
-0.088845722 0.081485718 0.55200005 16711420
-0.087794289 0.081485718 0.55200005 16579836
-0.086742863 0.081485718 0.55200005 16579836
-0.08569143 0.081485718 0.55200005 16579836
-0.084486663 0.081338093 0.551 16579836
-0.083437145 0.081338093 0.551 16579836
-0.082387611 0.081338093 0.551 16579836
-0.081485718 0.081485718 0.55200005 16579836
-0.080434293 0.081485718 0.55200005 16579836
-0.079382859 0.081485718 0.55200005 16579836
-0.078331433 0.081485718 0.55200005 16579836
-0.077280007 0.081485718 0.55200005 16579836
-0.076228581 0.081485718 0.55200005 16579836
-0.075040951 0.081338093 0.551 16579836
-0.073722862 0.081042856 0.54900002 16579836
-0.072544768 0.080895238 0.54800004 16579836
-0.071500957 0.080895238 0.54800004 16579836
-0.07058572 0.081042856 0.54900002 16579836
-0.069540001 0.081042856 0.54900002 16579836
-0.06849429 0.081042856 0.54900002 16579836
-0.067325711 0.080895238 0.54800004 16579836
-0.066281915 0.080895238 0.54800004 16579836
-0.065476187 0.081190474 0.55000001 16579836
-0.064428575 0.081190474 0.55000001 16645629
-0.063380957 0.081190474 0.55000001 16711422
-0.062333338 0.081190474 0.55000001 16449020
-0.061990481 0.083552383 0.56600004 13301756
-0.060912386 0.083552383 0.56600004 11459552
-0.05983429 0.083552383 0.56600004 8250623
-0.058860004 0.083700001 0.56700003 7790079
-0.0576781 0.083552383 0.56600004 7397119
-0.056600004 0.083552383 0.56600004 7199743
-0.055423807 0.083404757 0.565 7198719
-0.054347616 0.083404757 0.565 6869759
-0.053365719 0.083552383 0.56600004 6345727
-0.052287623 0.083552383 0.56600004 6082559
-0.0513 0.083700001 0.56700003 5951743
-0.050220001 0.083700001 0.56700003 6017535
-0.049140003 0.083700001 0.56700003 6409983
-0.04806 0.083700001 0.56700003 6475775
-0.046980001 0.083700001 0.56700003 6541311
-0.045900002 0.083700001 0.56700003 6475519
-0.044819999 0.083700001 0.56700003 6344191
-0.043740001 0.083700001 0.56700003 6278399
-0.042660002 0.083700001 0.56700003 6344191
-0.041580003 0.083700001 0.56700003 6607359
-0.040428575 0.083552383 0.56600004 6606591
-0.039280951 0.083404757 0.565 6606591
-0.038204763 0.083404757 0.565 7000319
-0.037128571 0.083404757 0.565 7329279
-0.03605238 0.083404757 0.565 7460095
-0.034976188 0.083404757 0.565 7986431
-0.0339 0.083404757 0.565 7395327
-0.032823808 0.083404757 0.565 7066367
-0.031747617 0.083404757 0.565 7459583
-0.030671427 0.083404757 0.565 8051711
-0.029595239 0.083404757 0.565 9818879
-0.028519047 0.083404757 0.565 6463444
-0.12798001 0.08478 0.56700003 11511708
-0.1269 0.08478 0.56700003 8954519
-0.12604192 0.084929526 0.56800002 8559761
-0.12496001 0.084929526 0.56800002 5612287
-0.1238781 0.084929526 0.56800002 6533375
-0.12279619 0.084929526 0.56800002 6273791
-0.1215 0.08478 0.56700003 5747455
-0.12042001 0.08478 0.56700003 5552127
-0.11934 0.08478 0.56700003 5749503
-0.11805144 0.084630482 0.56600004 5617407
-0.11697334 0.084630482 0.56600004 5551615
-0.11589525 0.084630482 0.56600004 5486847
-0.11481715 0.084630482 0.56600004 5552639
-0.11373906 0.084630482 0.56600004 5355519
-0.11266096 0.084630482 0.56600004 5421311
-0.11158287 0.084630482 0.56600004 5947135
-0.11050477 0.084630482 0.56600004 5815551
-0.10942668 0.084630482 0.56600004 5553407
-0.10834858 0.084630482 0.56600004 5684991
-0.10727049 0.084630482 0.56600004 6406911
-0.10638 0.08478 0.56700003 6077951
-0.1053 0.08478 0.56700003 5882367
-0.10422 0.08478 0.56700003 6803455
-0.10314 0.08478 0.56700003 7261951
-0.10206001 0.08478 0.56700003 7064575
-0.10098001 0.08478 0.56700003 6801919
-0.099723816 0.084630482 0.56600004 6736127
-0.098645724 0.084630482 0.56600004 6539519
-0.097567625 0.084630482 0.56600004 6276351
-0.096660003 0.08478 0.56700003 7389695
-0.095580004 0.08478 0.56700003 3836882
-0.091833338 0.082387611 0.551 7575022
-0.090783805 0.082387611 0.551 14417407
-0.089734286 0.082387611 0.551 16711422
-0.088845722 0.082537152 0.55200005 16711422
-0.087794289 0.082537152 0.55200005 16645627
-0.086742863 0.082537152 0.55200005 16579834
-0.085536189 0.082387611 0.551 16579836
-0.084486663 0.082387611 0.551 16579836
-0.083285719 0.082238093 0.55000001 16579836
-0.082238093 0.082238093 0.55000001 16579836
-0.081338093 0.082387611 0.551 16579836
-0.080142856 0.082238093 0.55000001 16579836
-0.078951433 0.082088575 0.54900002 16579836
-0.077905715 0.082088575 0.54900002 16579836
-0.076860003 0.082088575 0.54900002 16579836
-0.075814284 0.082088575 0.54900002 16579836
-0.074632384 0.081939049 0.54800004 16579836
-0.073588572 0.081939049 0.54800004 16579836
-0.072412387 0.081789531 0.54700005 16579836
-0.071370482 0.081789531 0.54700005 16579836
-0.070457146 0.081939049 0.54800004 16579836
-0.069413334 0.081939049 0.54800004 16579836
-0.068369523 0.081939049 0.54800004 16579836
-0.067325711 0.081939049 0.54800004 16579836
-0.066281915 0.081939049 0.54800004 16579836
-0.065476187 0.082238093 0.55000001 16645629
-0.064428575 0.082238093 0.55000001 16645629
-0.063380957 0.082238093 0.55000001 16711422
-0.060697146 0.08433143 0.56400001 11263200
-0.059622858 0.08433143 0.56400001 8776447
-0.058652379 0.084480956 0.565 8184315
-0.057576187 0.084480956 0.565 7857663
-0.056499999 0.084480956 0.565 7331325
-0.055423807 0.084480956 0.565 7002623
-0.054347616 0.084480956 0.565 6805247
-0.053271428 0.084480956 0.565 6673919
-0.052195236 0.084480956 0.565 6344959
-0.051119048 0.084480956 0.565 6083071
-0.050042856 0.084480956 0.565 6148863
-0.048966669 0.084480956 0.565 6214143
-0.047890477 0.084480956 0.565 6148351
-0.046897147 0.084630482 0.56600004 6147839
-0.045819052 0.084630482 0.56600004 6147839
-0.044740956 0.084630482 0.56600004 6278655
-0.043585714 0.084480956 0.565 6278655
-0.042509522 0.084480956 0.565 6409983
-0.04150667 0.084630482 0.56600004 6475775
-0.040357143 0.084480956 0.565 6475519
-0.039280951 0.084480956 0.565 6607103
-0.038204763 0.084480956 0.565 6868991
-0.037128571 0.084480956 0.565 7197951
-0.03605238 0.084480956 0.565 7132927
-0.034976188 0.084480956 0.565 7396095
-0.0339 0.084480956 0.565 6739711
-0.032823808 0.084480956 0.565 6410751
-0.031747617 0.084480956 0.565 6278143
-0.030617142 0.08433143 0.56400001 7199231
-0.029542858 0.08433143 0.56400001 9556991
-0.028468572 0.08433143 0.56400001 6135762
-0.12798001 0.085860007 0.56700003 11380381
-0.1269 0.085860007 0.56700003 8429976
-0.12582001 0.085860007 0.56700003 8101011
-0.12474 0.085860007 0.56700003 5481471
-0.12366 0.085860007 0.56700003 6336767
-0.12236382 0.085708573 0.56600004 6207999
-0.12128573 0.085708573 0.56600004 5813247
-0.12020763 0.085708573 0.56600004 5486335
-0.11912953 0.085708573 0.56600004 5486335
-0.11784285 0.08555714 0.565 5486847
-0.11676666 0.08555714 0.565 5421055
-0.11589525 0.085708573 0.56600004 5355519
-0.11481715 0.085708573 0.56600004 5355519
-0.11373906 0.085708573 0.56600004 5355519
-0.1124619 0.08555714 0.565 5355519
-0.11138572 0.08555714 0.565 5487615
-0.11030952 0.08555714 0.565 5553407
-0.10923333 0.08555714 0.565 5553407
-0.10815714 0.08555714 0.565 5487615
-0.10708095 0.08555714 0.565 5948159
-0.10619239 0.085708573 0.56600004 5750783
-0.10492858 0.08555714 0.565 5817343
-0.10385238 0.08555714 0.565 6870015
-0.10277619 0.08555714 0.565 7459583
-0.10169999 0.08555714 0.565 7393791
-0.10062381 0.08555714 0.565 7000319
-0.099547617 0.08555714 0.565 6868735
-0.098471425 0.08555714 0.565 6999551
-0.097395234 0.08555714 0.565 6473215
-0.09631905 0.08555714 0.565 7455487
-0.09524285 0.08555714 0.565 3836882
-0.091833338 0.083437145 0.551 6328575
-0.09061905 0.083285719 0.55000001 10144511
-0.089571431 0.083285719 0.55000001 16316153
-0.088684767 0.083437145 0.551 16776703
-0.087635234 0.083437145 0.551 16711420
-0.086585715 0.083437145 0.551 16579834
-0.085536189 0.083437145 0.551 16579836
-0.084333338 0.083285719 0.55000001 16579836
-0.083285719 0.083285719 0.55000001 16579836
-0.082238093 0.083285719 0.55000001 16579836
-0.081190474 0.083285719 0.55000001 16579836
-0.079997145 0.083134286 0.54900002 16579836
-0.078951433 0.083134286 0.54900002 16579836
-0.077905715 0.083134286 0.54900002 16579836
-0.076860003 0.083134286 0.54900002 16579836
-0.075676195 0.082982861 0.54800004 16579836
-0.074632384 0.082982861 0.54800004 16579836
-0.073588572 0.082982861 0.54800004 16579836
-0.072412387 0.082831435 0.54700005 16579836
-0.07124 0.082680002 0.546 16579836
-0.070199996 0.082680002 0.546 16579836
-0.069286674 0.082831435 0.54700005 16579836
-0.068369523 0.082982861 0.54800004 16579836
-0.067448579 0.083134286 0.54900002 16579836
-0.066523805 0.083285719 0.55000001 16579836
-0.065476187 0.083285719 0.55000001 16645629
-0.064428575 0.083285719 0.55000001 16711422
-0.063380957 0.083285719 0.55000001 16645629
-0.060589526 0.085254289 0.56300002 12247267
-0.059517145 0.085254289 0.56300002 8449791
-0.058548573 0.085405715 0.56400001 7791867
-0.05737238 0.085254289 0.56300002 7529983
-0.056299999 0.085254289 0.56300002 6937852
-0.055325717 0.085405715 0.56400001 6609663
-0.054251429 0.085405715 0.56400001 6412287
