# .PCD v0.7 - Point Cloud Data file format
VERSION 0.7
FIELDS x y z rgb
SIZE 4 4 4 4
TYPE F F F F
COUNT 1 1 1 1
WIDTH 970
HEIGHT 1
VIEWPOINT 0 0 0 1 0 0 0
POINTS 970
DATA ascii
-0.016206667 -0.086753339 1.001 1.5946945e-38
-0.0143 -0.086753339 1.001 1.6038775e-38
-0.012393334 -0.086753339 1.001 1.6591948e-38
-0.095998101 -0.08459238 0.99800003 1.5673963e-38
-0.094097145 -0.08459238 0.99800003 1.5949115e-38
-0.092473343 -0.084846668 1.001 1.6502289e-38
-0.090838097 -0.085100956 1.0040001 1.6686327e-38
-0.088925719 -0.085100956 1.0040001 1.705511e-38
-0.087273337 -0.085355245 1.0070001 1.7055826e-38
-0.085609525 -0.085609525 1.01 1.7609e-38
-0.083685718 -0.085609525 1.01 1.7517523e-38
-0.081761904 -0.085609525 1.01 1.7978501e-38
-0.080075242 -0.085863806 1.013 1.8163245e-38
-0.07837715 -0.086118095 1.016 1.8347637e-38
-0.076216191 -0.085863806 1.013 1.843876e-38
-0.074286662 -0.085863806 1.013 1.8715347e-38
-0.072571434 -0.086118095 1.016 1.8531319e-38
-0.07063619 -0.086118095 1.016 1.8807906e-38
-0.068700954 -0.086118095 1.016 1.8807906e-38
-0.066765718 -0.086118095 1.016 1.9084493e-38
-0.06502191 -0.086372383 1.0190001 1.8992297e-38
-0.063080952 -0.086372383 1.0190001 1.9268884e-38
-0.061140005 -0.086372383 1.0190001 1.926924e-38
-0.05919905 -0.086372383 1.0190001 1.926924e-38
-0.057258096 -0.086372383 1.0190001 1.9361435e-38
-0.055317145 -0.086372383 1.0190001 1.9545827e-38
-0.053219046 -0.086118095 1.016 1.9084493e-38
-0.051283814 -0.086118095 1.016 1.8900101e-38
-0.049494285 -0.086372383 1.0190001 1.8900101e-38
-0.047413334 -0.086118095 1.016 1.8900101e-38
-0.045478098 -0.086118095 1.016 1.8808262e-38
-0.043542858 -0.086118095 1.016 1.8992653e-38
-0.041607618 -0.086118095 1.016 1.8531319e-38
-0.03955524 -0.085863806 1.013 1.8623514e-38
-0.037625715 -0.085863806 1.013 1.8623514e-38
-0.03569619 -0.085863806 1.013 1.7609363e-38
-0.033666667 -0.085609525 1.01 1.7149091e-38
-0.031742856 -0.085609525 1.01 1.7333482e-38
-0.029819047 -0.085609525 1.01 1.7056898e-38
-0.027895236 -0.085609525 1.01 1.6964702e-38
-0.025894288 -0.085355245 1.0070001 1.6411172e-38
-0.023904763 -0.085100956 1.0040001 1.6134586e-38
-0.021992382 -0.085100956 1.0040001 1.6224983e-38
-0.020020001 -0.084846668 1.001 1.5303027e-38
-0.018113334 -0.084846668 1.001 1.4750206e-38
-0.016206667 -0.084846668 1.001 1.4565815e-38
-0.0143 -0.084846668 1.001 1.548525e-38
-0.012393334 -0.084846668 1.001 1.6683794e-38
-0.095998101 -0.082691431 0.99800003 1.6132421e-38
-0.094097145 -0.082691431 0.99800003 1.6040945e-38
-0.092473343 -0.082940005 1.001 1.6686315e-38
-0.090838097 -0.083188578 1.0040001 1.6594485e-38
-0.088925719 -0.083188578 1.0040001 1.7147658e-38
-0.087273337 -0.083437152 1.0070001 1.7056182e-38
-0.085609525 -0.083685718 1.01 1.7609355e-38
-0.083685718 -0.083685718 1.01 1.751752e-38
-0.081761904 -0.083685718 1.01 1.8070694e-38
-0.080075242 -0.083934292 1.013 1.8255085e-38
-0.07837715 -0.084182858 1.016 1.8347281e-38
-0.076441906 -0.084182858 1.016 1.8347283e-38
-0.07450667 -0.084182858 1.016 1.862387e-38
-0.072785713 -0.084431432 1.0190001 1.8531675e-38
-0.070844762 -0.084431432 1.0190001 1.8808262e-38
-0.068903819 -0.084431432 1.0190001 1.8716066e-38
-0.066962861 -0.084431432 1.0190001 1.8992653e-38
-0.06502191 -0.084431432 1.0190001 1.8900101e-38
-0.063080952 -0.084431432 1.0190001 1.9176688e-38
-0.061140005 -0.084431432 1.0190001 1.9268884e-38
-0.05919905 -0.084431432 1.0190001 1.9268884e-38
-0.057258096 -0.084431432 1.0190001 1.9361082e-38
-0.055317145 -0.084431432 1.0190001 1.9453278e-38
-0.053219046 -0.084182858 1.016 1.8993016e-38
-0.051283814 -0.084182858 1.016 1.890082e-38
-0.049494285 -0.084431432 1.0190001 1.8900457e-38
-0.047553334 -0.084431432 1.0190001 1.8992653e-38
-0.045478098 -0.084182858 1.016 1.8900454e-38
-0.043542858 -0.084182858 1.016 1.899265e-38
-0.041607618 -0.084182858 1.016 1.853204e-38
-0.03955524 -0.083934292 1.013 1.853204e-38
-0.037625715 -0.083934292 1.013 1.8531319e-38
-0.03569619 -0.083934292 1.013 1.7609363e-38
-0.033666667 -0.083685718 1.01 1.7241286e-38
-0.031742856 -0.083685718 1.01 1.7333482e-38
-0.029819047 -0.083685718 1.01 1.6872869e-38
-0.027895236 -0.083685718 1.01 1.6872869e-38
-0.025894288 -0.083437152 1.0070001 1.6779589e-38
-0.023904763 -0.083188578 1.0040001 1.6410807e-38
-0.021926668 -0.082940005 1.001 1.6317898e-38
-0.020020001 -0.082940005 1.001 1.5119355e-38
-0.018059047 -0.082691431 0.99800003 1.438249e-38
-0.016158095 -0.082691431 0.99800003 1.4474686e-38
-0.014214287 -0.082442857 0.99500006 1.5668575e-38
-0.012319048 -0.082442857 0.99500006 1.6498336e-38
-0.097604766 -0.080547623 0.99500006 1.5304099e-38
-0.095709525 -0.080547623 0.99500006 1.6226055e-38
-0.094097145 -0.080790475 0.99800003 1.6226415e-38
-0.092473343 -0.081033342 1.001 1.6687394e-38
-0.090838097 -0.081276193 1.0040001 1.6687399e-38
-0.089191437 -0.081519052 1.0070001 1.7148377e-38
-0.087273337 -0.081519052 1.0070001 1.7148377e-38
-0.085609525 -0.081761904 1.01 1.7609355e-38
-0.083685718 -0.081761904 1.01 1.751752e-38
-0.081761904 -0.081761904 1.01 1.8162889e-38
-0.080075242 -0.082004763 1.013 1.8163245e-38
-0.07837715 -0.082247622 1.016 1.8255441e-38
-0.076441906 -0.082247622 1.016 1.8346928e-38
-0.07450667 -0.082247622 1.016 1.8807906e-38
-0.072785713 -0.082490481 1.0190001 1.8808259e-38
-0.070844762 -0.082490481 1.0190001 1.9177041e-38
-0.068903819 -0.082490481 1.0190001 1.9177397e-38
-0.066962861 -0.082490481 1.0190001 1.9177397e-38
-0.06502191 -0.082490481 1.0190001 1.9084493e-38
-0.063080952 -0.082490481 1.0190001 1.9268884e-38
-0.061140005 -0.082490481 1.0190001 1.9176688e-38
-0.05919905 -0.082490481 1.0190001 1.9176688e-38
-0.057258096 -0.082490481 1.0190001 1.9453278e-38
-0.055317145 -0.082490481 1.0190001 1.9453278e-38
-0.053219046 -0.082247622 1.016 1.9176688e-38
-0.051283814 -0.082247622 1.016 1.9176688e-38
-0.049494285 -0.082490481 1.0190001 1.8992653e-38
-0.047553334 -0.082490481 1.0190001 1.8900457e-38
-0.045478098 -0.082247622 1.016 1.8900454e-38
-0.043542858 -0.082247622 1.016 1.9084846e-38
-0.041607618 -0.082247622 1.016 1.8715713e-38
-0.039672382 -0.082247622 1.016 1.8807908e-38
-0.037625715 -0.082004763 1.013 1.862387e-38
-0.03569619 -0.082004763 1.013 1.7609718e-38
-0.033766668 -0.082004763 1.013 1.7332763e-38
-0.031742856 -0.081761904 1.01 1.7424959e-38
-0.029819047 -0.081761904 1.01 1.6964702e-38
-0.027895236 -0.081761904 1.01 1.6964702e-38
-0.025894288 -0.081519052 1.0070001 1.668775e-38
-0.023904763 -0.081276193 1.0040001 1.6318967e-38
-0.021926668 -0.081033342 1.001 1.6225699e-38
-0.020020001 -0.081033342 1.001 1.5119352e-38
-0.018059047 -0.080790475 0.99800003 1.4382508e-38
-0.016158095 -0.080790475 0.99800003 1.5488856e-38
-0.014171429 -0.080304772 0.99200004 1.6316831e-38
-0.012244762 -0.080061905 0.98900002 1.5855853e-38
-0.010360952 -0.080061905 0.98900002 1.530121e-38
-0.099500008 -0.078652389 0.99500006 1.5946216e-38
-0.097604766 -0.078652389 0.99500006 1.5396295e-38
-0.095709525 -0.078652389 0.99500006 1.6226055e-38
-0.094097145 -0.078889519 0.99800003 1.6226418e-38
-0.092473343 -0.079126664 1.001 1.6687396e-38
-0.090838097 -0.079363815 1.0040001 1.6687396e-38
-0.089191437 -0.07960096 1.0070001 1.7148375e-38
-0.087273337 -0.07960096 1.0070001 1.7148375e-38
-0.085609525 -0.079838097 1.01 1.7609353e-38
-0.083685718 -0.079838097 1.01 1.7517876e-38
-0.081761904 -0.079838097 1.01 1.7886658e-38
-0.080075242 -0.080075242 1.013 1.7794107e-38
-0.07837715 -0.080312386 1.016 1.8255085e-38
-0.076441906 -0.080312386 1.016 1.8255088e-38
-0.074726671 -0.080549523 1.0190001 1.862387e-38
-0.072785713 -0.080549523 1.0190001 1.8531675e-38
-0.070844762 -0.080549523 1.0190001 1.8900457e-38
-0.068903819 -0.080549523 1.0190001 1.8900454e-38
-0.066962861 -0.080549523 1.0190001 1.9177041e-38
-0.065213338 -0.080786668 1.0220001 1.9177041e-38
-0.063266672 -0.080786668 1.0220001 1.9269237e-38
-0.061319999 -0.080786668 1.0220001 1.9085211e-38
-0.059373334 -0.080786668 1.0220001 1.9085211e-38
-0.057258096 -0.080549523 1.0190001 1.9268884e-38
-0.055317145 -0.080549523 1.0190001 1.9268884e-38
-0.05337619 -0.080549523 1.0190001 1.9084849e-38
-0.05143524 -0.080549523 1.0190001 1.8992653e-38
-0.049494285 -0.080549523 1.0190001 1.899229e-38
-0.047553334 -0.080549523 1.0190001 1.899229e-38
-0.045612384 -0.080549523 1.0190001 1.8991571e-38
-0.043671433 -0.080549523 1.0190001 1.8991571e-38
-0.041607618 -0.080312386 1.016 1.8623514e-38
-0.039672382 -0.080312386 1.016 1.8623514e-38
-0.037625715 -0.080075242 1.013 1.8346928e-38
-0.03569619 -0.080075242 1.013 1.7332776e-38
-0.033766668 -0.080075242 1.013 1.742388e-38
-0.031742856 -0.079838097 1.01 1.742388e-38
-0.029819047 -0.079838097 1.01 1.6964702e-38
-0.027895236 -0.079838097 1.01 1.6872507e-38
-0.025894288 -0.07960096 1.0070001 1.6502642e-38
-0.023904763 -0.079363815 1.0040001 1.6318251e-38
-0.021926668 -0.079126664 1.001 1.5949105e-38
-0.019959999 -0.078889519 0.99800003 1.521154e-38
-0.018059047 -0.078889519 0.99800003 1.4383212e-38
-0.016109524 -0.078652389 0.99500006 1.6042733e-38
-0.014171429 -0.078415245 0.99200004 1.6779602e-38
-0.012244762 -0.0781781 0.98900002 1.512008e-38
-0.010360952 -0.0781781 0.98900002 1.4565445e-38
-0.099500008 -0.076757148 0.99500006 1.6039168e-38
-0.097604766 -0.076757148 0.99500006 1.5855834e-38
-0.095709525 -0.076757148 0.99500006 1.6501203e-38
-0.094097145 -0.076988578 0.99800003 1.6226415e-38
-0.092473343 -0.07722 1.001 1.6871785e-38
-0.090838097 -0.07745143 1.0040001 1.6779945e-38
-0.089191437 -0.077682868 1.0070001 1.7148728e-38
-0.087533325 -0.077914283 1.01 1.724057e-38
-0.085609525 -0.077914283 1.01 1.7701548e-38
-0.083934292 -0.078145713 1.013 1.7609353e-38
-0.082004763 -0.078145713 1.013 1.8070331e-38
-0.080075242 -0.078145713 1.013 1.7977782e-38
-0.07837715 -0.07837715 1.016 1.843876e-38
-0.076441906 -0.07837715 1.016 1.8346565e-38
-0.074726671 -0.078608572 1.0190001 1.8715347e-38
-0.072785713 -0.078608572 1.0190001 1.8531675e-38
-0.070844762 -0.078608572 1.0190001 1.8808262e-38
-0.068903819 -0.078608572 1.0190001 1.8808259e-38
-0.067160003 -0.078840002 1.0220001 1.899265e-38
-0.065213338 -0.078840002 1.0220001 1.9177041e-38
-0.063266672 -0.078840002 1.0220001 1.9361433e-38
-0.061319999 -0.078840002 1.0220001 1.9269237e-38
-0.059373334 -0.078840002 1.0220001 1.9177041e-38
-0.057426669 -0.078840002 1.0220001 1.9177041e-38
-0.055480003 -0.078840002 1.0220001 1.9177041e-38
-0.053533334 -0.078840002 1.0220001 1.8992653e-38
-0.051586669 -0.078840002 1.0220001 1.8808262e-38
-0.049494285 -0.078608572 1.0190001 1.899229e-38
-0.047553334 -0.078608572 1.0190001 1.8900094e-38
-0.045612384 -0.078608572 1.0190001 1.8715703e-38
-0.043671433 -0.078608572 1.0190001 1.8623507e-38
-0.041607618 -0.07837715 1.016 1.8623507e-38
-0.039672382 -0.07837715 1.016 1.8531312e-38
-0.037737142 -0.07837715 1.016 1.8254732e-38
-0.03569619 -0.078145713 1.013 1.7148384e-38
-0.033766668 -0.078145713 1.013 1.6779955e-38
-0.031742856 -0.077914283 1.01 1.6687759e-38
-0.029819047 -0.077914283 1.01 1.659592e-38
-0.027978096 -0.078145713 1.013 1.659592e-38
-0.025971429 -0.077914283 1.01 1.6133504e-38
-0.023904763 -0.07745143 1.0040001 1.5949112e-38
-0.021926668 -0.07722 1.001 1.6502627e-38
-0.019959999 -0.076988578 0.99800003 1.6963605e-38
-0.018004762 -0.076757148 0.99500006 1.6687747e-38
-0.016109524 -0.076757148 0.99500006 1.641116e-38
-0.014171429 -0.076525718 0.99200004 1.6319315e-38
-0.012281906 -0.076525718 0.99200004 1.5212967e-38
-0.010392382 -0.076525718 0.99200004 1.5394853e-38
-0.099500008 -0.074861906 0.99500006 1.567214e-38
-0.097604766 -0.074861906 0.99500006 1.6131351e-38
-0.095709525 -0.074861906 0.99500006 1.659233e-38
-0.094097145 -0.075087622 0.99800003 1.6226055e-38
-0.092473343 -0.075313337 1.001 1.6687033e-38
-0.091109529 -0.075764768 1.0070001 1.6594838e-38
-0.089191437 -0.075764768 1.0070001 1.7148012e-38
-0.087533325 -0.075990476 1.01 1.7239851e-38
-0.085863806 -0.076216191 1.013 1.7700829e-38
-0.083934292 -0.076216191 1.013 1.7609e-38
-0.082004763 -0.076216191 1.013 1.7977782e-38
-0.080312386 -0.076441906 1.016 1.7978145e-38
-0.07837715 -0.076441906 1.016 1.8162536e-38
-0.076667622 -0.076667622 1.0190001 1.8162536e-38
-0.074726671 -0.076667622 1.0190001 1.8623514e-38
-0.072785713 -0.076667622 1.0190001 1.8531675e-38
-0.070844762 -0.076667622 1.0190001 1.8531675e-38
-0.068903819 -0.076667622 1.0190001 1.862387e-38
-0.067160003 -0.076893337 1.0220001 1.8808262e-38
-0.065213338 -0.076893337 1.0220001 1.8807899e-38
-0.063266672 -0.076893337 1.0220001 1.8900094e-38
-0.061319999 -0.076893337 1.0220001 1.899229e-38
-0.059373334 -0.076893337 1.0220001 1.899229e-38
-0.057426669 -0.076893337 1.0220001 1.899229e-38
-0.055480003 -0.076893337 1.0220001 1.899229e-38
-0.053533334 -0.076893337 1.0220001 1.8899741e-38
-0.051586669 -0.076893337 1.0220001 1.8807546e-38
-0.049494285 -0.076667622 1.0190001 1.8807546e-38
-0.047413334 -0.076441906 1.016 1.871535e-38
-0.045478098 -0.076441906 1.016 1.8531309e-38
-0.043542858 -0.076441906 1.016 1.8531309e-38
-0.041607618 -0.076441906 1.016 1.8439113e-38
-0.039672382 -0.076441906 1.016 1.8531309e-38
-0.037737142 -0.076441906 1.016 1.8069978e-38
-0.03569619 -0.076216191 1.013 1.7055826e-38
-0.033766668 -0.076216191 1.013 1.6687394e-38
-0.031742856 -0.075990476 1.01 1.6779589e-38
-0.029819047 -0.075990476 1.01 1.6595198e-38
-0.027978096 -0.076216191 1.013 1.6595198e-38
-0.025971429 -0.075990476 1.01 1.6225692e-38
-0.023976194 -0.075764768 1.0070001 1.6594475e-38
-0.021992382 -0.075539045 1.0040001 1.7237709e-38
-0.019959999 -0.075087622 0.99800003 1.7698687e-38
-0.018004762 -0.074861906 0.99500006 1.7516444e-38
-0.016109524 -0.074861906 0.99500006 1.6041314e-38
-0.014171429 -0.074636191 0.99200004 1.4844894e-38
-0.012281906 -0.074636191 0.99200004 1.5305872e-38
-0.010392382 -0.074636191 0.99200004 1.5671793e-38
-0.0085028578 -0.074636191 0.99200004 1.5487401e-38
-0.099799998 -0.073186666 0.99800003 1.4660122e-38
-0.097604766 -0.072966672 0.99500006 1.585513e-38
-0.095709525 -0.072966672 0.99500006 1.6869282e-38
-0.094097145 -0.073186666 0.99800003 1.6502276e-38
-0.092473343 -0.073406667 1.001 1.6871059e-38
-0.091380946 -0.074066661 1.01 1.6687033e-38
-0.089457139 -0.074066661 1.01 1.6871425e-38
-0.087793328 -0.074286662 1.013 1.6962548e-38
-0.085863806 -0.074286662 1.013 1.7331331e-38
-0.083934292 -0.074286662 1.013 1.7239148e-38
-0.082004763 -0.074286662 1.013 1.7700126e-38
-0.080312386 -0.07450667 1.016 1.7608649e-38
-0.07837715 -0.07450667 1.016 1.7977432e-38
-0.076667622 -0.074726671 1.0190001 1.8070343e-38
-0.074726671 -0.074726671 1.0190001 1.8439126e-38
-0.072785713 -0.074726671 1.0190001 1.8346928e-38
-0.070844762 -0.074726671 1.0190001 1.8254732e-38
-0.068903819 -0.074726671 1.0190001 1.834693e-38
-0.066962861 -0.074726671 1.0190001 1.8623517e-38
-0.065213338 -0.074946672 1.0220001 1.8623505e-38
-0.063266672 -0.074946672 1.0220001 1.8531309e-38
-0.061319999 -0.074946672 1.0220001 1.8531319e-38
-0.059373334 -0.074946672 1.0220001 1.871571e-38
-0.057426669 -0.074946672 1.0220001 1.8439479e-38
-0.055480003 -0.074946672 1.0220001 1.8439479e-38
-0.053533334 -0.074946672 1.0220001 1.834693e-38
-0.05143524 -0.074726671 1.0190001 1.8254735e-38
-0.049494285 -0.074726671 1.0190001 1.8254372e-38
-0.047413334 -0.07450667 1.016 1.8162176e-38
-0.045478098 -0.07450667 1.016 1.7977782e-38
-0.043542858 -0.07450667 1.016 1.7977782e-38
-0.041607618 -0.07450667 1.016 1.7885224e-38
-0.039672382 -0.07450667 1.016 1.7977419e-38
-0.037737142 -0.07450667 1.016 1.7885221e-38
-0.03569619 -0.074286662 1.013 1.7424243e-38
-0.033766668 -0.074286662 1.013 1.7884858e-38
-0.031742856 -0.074066661 1.01 1.825364e-38
-0.029819047 -0.074066661 1.01 1.853023e-38
-0.027978096 -0.074286662 1.013 1.8806817e-38
-0.025894288 -0.073846675 1.0070001 1.9083754e-38
-0.023904763 -0.073626675 1.0040001 1.9452537e-38
-0.021926668 -0.073406667 1.001 1.8068924e-38
-0.020020001 -0.073406667 1.001 1.6593794e-38
-0.018113334 -0.073406667 1.001 1.4015563e-38
-0.016158095 -0.073186666 0.99800003 1.0788716e-38
-0.014214287 -0.072966672 0.99500006 1.1525886e-38
-0.012281906 -0.072746672 0.99200004 1.502932e-38
-0.010392382 -0.072746672 0.99200004 1.5763625e-38
-0.0085028578 -0.072746672 0.99200004 1.5487039e-38
-0.097604766 -0.071071438 0.99500006 1.502675e-38
-0.095709525 -0.071071438 0.99500006 1.650188e-38
-0.094380006 -0.071500003 1.001 1.7054011e-38
-0.092473343 -0.071500003 1.001 1.7514989e-38
-0.091380946 -0.072142854 1.01 1.7055097e-38
-0.089457139 -0.072142854 1.01 1.7147293e-38
-0.087793328 -0.07235714 1.013 1.7054747e-38
-0.085863806 -0.07235714 1.013 1.7331334e-38
-0.083934292 -0.07235714 1.013 1.7055463e-38
-0.082247622 -0.072571434 1.016 1.7516441e-38
-0.080312386 -0.072571434 1.016 1.7333129e-38
-0.078608572 -0.072785713 1.0190001 1.7794107e-38
-0.076667622 -0.072785713 1.0190001 1.7977782e-38
-0.074726671 -0.072785713 1.0190001 1.8254369e-38
-0.072785713 -0.072785713 1.0190001 1.8162526e-38
-0.070844762 -0.072785713 1.0190001 1.8254722e-38
-0.068903819 -0.072785713 1.0190001 1.8162889e-38
-0.066962861 -0.072785713 1.0190001 1.8439476e-38
-0.065213338 -0.073000006 1.0220001 1.8347637e-38
-0.063266672 -0.073000006 1.0220001 1.8439832e-38
-0.061319999 -0.073000006 1.0220001 1.8439113e-38
-0.059373334 -0.073000006 1.0220001 1.8531309e-38
-0.057426669 -0.073000006 1.0220001 1.8439116e-38
-0.055480003 -0.073000006 1.0220001 1.8439116e-38
-0.053533334 -0.073000006 1.0220001 1.8254725e-38
-0.05143524 -0.072785713 1.0190001 1.8162529e-38
-0.049494285 -0.072785713 1.0190001 1.8070334e-38
-0.047553334 -0.072785713 1.0190001 1.8070334e-38
-0.045612384 -0.072785713 1.0190001 1.7978138e-38
-0.043671433 -0.072785713 1.0190001 1.7978138e-38
-0.041607618 -0.072571434 1.016 1.8069612e-38
-0.039672382 -0.072571434 1.016 1.8346199e-38
-0.037737142 -0.072571434 1.016 1.8713562e-38
-0.03569619 -0.07235714 1.013 1.8713562e-38
-0.033766668 -0.07235714 1.013 1.8622072e-38
-0.031742856 -0.072142854 1.01 1.9083051e-38
-0.029819047 -0.072142854 1.01 1.9359638e-38
-0.027978096 -0.07235714 1.013 1.9359638e-38
-0.025894288 -0.071928583 1.0070001 1.9545098e-38
-0.023904763 -0.071714289 1.0040001 1.9176315e-38
-0.021926668 -0.071500003 1.001 1.6874331e-38
-0.020020001 -0.071500003 1.001 1.3463093e-38
-0.018113334 -0.071500003 1.001 1.189754e-38
-0.016206667 -0.071500003 1.001 9.1316707e-39
-0.014257143 -0.07128571 0.99800003 1.0697856e-38
-0.01235619 -0.07128571 0.99800003 1.5215442e-38
-0.010455239 -0.07128571 0.99800003 1.5855821e-38
-0.0085542863 -0.07128571 0.99800003 1.5487039e-38
-0.094945721 -0.070010483 1.0070001 1.6226393e-38
-0.093027629 -0.070010483 1.0070001 1.7240545e-38
-0.091380946 -0.07021904 1.01 1.7331684e-38
-0.089722857 -0.070427619 1.013 1.8806814e-38
-0.087793328 -0.070427619 1.013 1.8898659e-38
-0.085863806 -0.070427619 1.013 1.8990855e-38
-0.084182858 -0.07063619 1.016 1.8990852e-38
-0.082247622 -0.07063619 1.016 1.9175243e-38
-0.080549523 -0.070844762 1.0190001 1.936106e-38
-0.078608572 -0.070844762 1.0190001 1.9176669e-38
-0.076667622 -0.070844762 1.0190001 1.9084483e-38
-0.074726671 -0.070844762 1.0190001 1.9084483e-38
-0.072785713 -0.070844762 1.0190001 1.9453618e-38
-0.070844762 -0.070844762 1.0190001 1.9545814e-38
-0.068903819 -0.070844762 1.0190001 1.9545458e-38
-0.066962861 -0.070844762 1.0190001 1.9545458e-38
-0.06502191 -0.070844762 1.0190001 1.9637659e-38
-0.063266672 -0.071053334 1.0220001 1.9914246e-38
-0.061319999 -0.071053334 1.0220001 2.0006073e-38
-0.05919905 -0.070844762 1.0190001 2.0190465e-38
-0.057258096 -0.070844762 1.0190001 2.0283029e-38
-0.055317145 -0.070844762 1.0190001 2.0651811e-38
-0.05337619 -0.070844762 1.0190001 2.0927679e-38
-0.05143524 -0.070844762 1.0190001 2.1019875e-38
-0.049494285 -0.070844762 1.0190001 2.0744004e-38
-0.047553334 -0.070844762 1.0190001 2.0744004e-38
-0.045612384 -0.070844762 1.0190001 2.1020241e-38
-0.043671433 -0.070844762 1.0190001 2.1112436e-38
-0.041607618 -0.07063619 1.016 2.1113152e-38
-0.039672382 -0.07063619 1.016 2.1205348e-38
-0.037625715 -0.070427619 1.013 1.9730606e-38
-0.03569619 -0.070427619 1.013 1.9269628e-38
-0.033666667 -0.07021904 1.01 1.8348012e-38
-0.031742856 -0.07021904 1.01 1.8624599e-38
-0.029819047 -0.07021904 1.01 1.8808622e-38
-0.027978096 -0.070427619 1.013 1.71491e-38
-0.025894288 -0.070010483 1.0070001 1.5582503e-38
-0.023976194 -0.070010483 1.0070001 1.5951286e-38
-0.020940954 -0.066464759 0.95600003 1.6043456e-38
-0.01912 -0.066464759 0.95600003 1.2263435e-38
-0.017299049 -0.066464759 0.95600003 1.0886953e-38
-0.015526668 -0.066673338 0.95900005 7.1991274e-39
-0.013700001 -0.066673338 0.95900005 9.4122009e-39
-0.011873334 -0.066673338 0.95900005 1.4114178e-38
-0.010046667 -0.066673338 0.95900005 1.5947295e-38
-0.089665718 -0.064305715 0.95100003 1.4384301e-38
-0.087854289 -0.064305715 0.95100003 1.4937474e-38
-0.086495236 -0.064643808 0.95600003 1.5857964e-38
-0.083788574 -0.063967615 0.94600004 1.8439441e-38
-0.081986673 -0.063967615 0.94600004 1.8531322e-38
-0.080184758 -0.063967615 0.94600004 1.8531322e-38
-0.078382857 -0.063967615 0.94600004 1.917595e-38
-0.076580957 -0.063967615 0.94600004 1.9360341e-38
-0.074541911 -0.063764766 0.94300002 2.0006073e-38
-0.072745718 -0.063764766 0.94300002 1.9821682e-38
-0.076893337 -0.069106668 1.0220001 1.9545824e-38
-0.074946672 -0.069106668 1.0220001 1.9453628e-38
-0.073000006 -0.069106668 1.0220001 1.9821685e-38
-0.070844762 -0.068903819 1.0190001 2.0006076e-38
-0.068903819 -0.068903819 1.0190001 2.0190114e-38
-0.066962861 -0.068903819 1.0190001 2.028231e-38
-0.06502191 -0.068903819 1.0190001 2.0190114e-38
-0.063080952 -0.068903819 1.0190001 2.0466701e-38
-0.061140005 -0.068903819 1.0190001 2.0835484e-38
-0.059024762 -0.068700954 1.016 2.0743288e-38
-0.057089522 -0.068700954 1.016 2.0927679e-38
-0.055317145 -0.068903819 1.0190001 2.1204266e-38
-0.05337619 -0.068903819 1.0190001 2.1481219e-38
-0.05143524 -0.068903819 1.0190001 2.1481219e-38
-0.049494285 -0.068903819 1.0190001 2.1665607e-38
-0.047553334 -0.068903819 1.0190001 2.1112433e-38
-0.045612384 -0.068903819 1.0190001 2.1389371e-38
-0.043671433 -0.068903819 1.0190001 2.1665958e-38
-0.038495239 -0.063561909 0.94000006 2.1390831e-38
-0.036704764 -0.063561909 0.94000006 2.0100092e-38
-0.035025716 -0.063764766 0.94300002 1.7156303e-38
-0.033229522 -0.063764766 0.94300002 1.6142151e-38
-0.031433333 -0.063764766 0.94300002 1.4302529e-38
-0.029637143 -0.063764766 0.94300002 1.6515224e-38
-0.027988574 -0.064102866 0.94800007 1.7154521e-38
-0.02618286 -0.064102866 0.94800007 1.4388652e-38
-0.02453143 -0.064508572 0.95400006 1.4017326e-38
-0.022714287 -0.064508572 0.95400006 1.4847087e-38
-0.020897144 -0.064508572 0.95400006 1.6872504e-38
-0.01912 -0.064643808 0.95600003 1.5950547e-38
-0.017299049 -0.064643808 0.95600003 1.1992972e-38
-0.015478096 -0.064643808 0.95600003 6.7378214e-39
-0.013700001 -0.064846672 0.95900005 9.2270711e-39
-0.011873334 -0.064846672 0.95900005 1.4390026e-38
-0.09407334 -0.063020006 0.95900005 7.1055249e-39
-0.092246674 -0.063020006 0.95900005 1.2637263e-38
-0.089665718 -0.062494289 0.95100003 1.2635105e-38
-0.087854289 -0.062494289 0.95100003 1.0330214e-38
-0.086314291 -0.062691435 0.95400006 1.1159243e-38
-0.083788574 -0.062165715 0.94600004 1.4754873e-38
-0.081986673 -0.062165715 0.94600004 1.4753802e-38
-0.080184758 -0.062165715 0.94600004 1.3094281e-38
-0.078382857 -0.062165715 0.94600004 1.2267782e-38
-0.076580957 -0.062165715 0.94600004 1.3927304e-38
-0.074541911 -0.061968572 0.94300002 1.6964699e-38
-0.072745718 -0.061968572 0.94300002 1.9638373e-38
-0.070949525 -0.061968572 0.94300002 1.9822058e-38
-0.069153331 -0.061968572 0.94300002 1.9361079e-38
-0.073000006 -0.067160003 1.0220001 1.9178476e-38
-0.070844762 -0.066962861 1.0190001 1.9362868e-38
-0.063426666 -0.061639998 0.93800002 1.9638748e-38
-0.061639998 -0.061639998 0.93800002 2.0284118e-38
-0.059853334 -0.061639998 0.93800002 1.9087014e-38
-0.058190476 -0.06177143 0.94000006 1.8718231e-38
-0.056400005 -0.06177143 0.94000006 1.8443442e-38
-0.054493334 -0.061639998 0.93800002 1.8259051e-38
-0.05270667 -0.061639998 0.93800002 1.8902975e-38
-0.055317145 -0.066962861 1.0190001 1.9548345e-38
-0.05337619 -0.066962861 1.0190001 2.0744014e-38
-0.05143524 -0.066962861 1.0190001 2.1112796e-38
-0.045560002 -0.061639998 0.93800002 2.0006452e-38
-0.043773334 -0.061639998 0.93800002 1.6779605e-38
-0.042076193 -0.06177143 0.94000006 1.7148387e-38
-0.040285718 -0.06177143 0.94000006 2.0375234e-38
-0.038495239 -0.06177143 0.94000006 2.0098998e-38
-0.036704764 -0.06177143 0.94000006 1.5212629e-38
-0.035025716 -0.061968572 0.94300002 1.2643688e-38
-0.033229522 -0.061968572 0.94300002 1.2551492e-38
-0.031433333 -0.061968572 0.94300002 1.3841129e-38
-0.029637143 -0.061968572 0.94300002 1.8082128e-38
-0.027988574 -0.062297143 0.94800007 1.7983543e-38
-0.02618286 -0.062297143 0.94800007 1.4203522e-38
-0.02453143 -0.062691435 0.95400006 1.1720736e-38
-0.022714287 -0.062691435 0.95400006 1.227391e-38
-0.020897144 -0.062691435 0.95400006 1.5678267e-38
-0.01912 -0.062822863 0.95600003 1.6692419e-38
-0.017299049 -0.062822863 0.95600003 1.2638004e-38
-0.015478096 -0.062822863 0.95600003 4.8935711e-39
-0.013657142 -0.062822863 0.95600003 8.4920593e-39
-0.011836191 -0.062822863 0.95600003 1.3931601e-38
-0.0964 -0.061512385 0.96400005 7.7440672e-39
-0.09407334 -0.06119334 0.95900005 8.7603309e-39
-0.092246674 -0.06119334 0.95900005 1.3923286e-38
-0.090137146 -0.061001904 0.95600003 1.1900777e-38
-0.088316195 -0.061001904 0.95600003 9.1349077e-39
-0.086314291 -0.060874287 0.95400006 9.506895e-39
-0.083965719 -0.060491435 0.94800007 1.3102525e-38
-0.082160003 -0.060491435 0.94800007 1.4295718e-38
-0.080184758 -0.060363814 0.94600004 1.171424e-38
-0.078382857 -0.060363814 0.94600004 5.2774091e-39
-0.076580957 -0.060363814 0.94600004 9.6106037e-39
-0.074779049 -0.060363814 0.94600004 1.2823459e-38
-0.072745718 -0.060172379 0.94300002 1.7709827e-38
-0.070949525 -0.060172379 0.94300002 1.8810427e-38
-0.069153331 -0.060172379 0.94300002 1.7150905e-38
-0.067357138 -0.060172379 0.94300002 1.6599867e-38
-0.065560959 -0.060172379 0.94300002 1.6876454e-38
-0.063426666 -0.059853334 0.93800002 1.8258322e-38
-0.061639998 -0.059853334 0.93800002 1.9917843e-38
-0.059853334 -0.059853334 0.93800002 1.7342142e-38
-0.058190476 -0.059980955 0.94000006 1.6235794e-38
-0.056400005 -0.059980955 0.94000006 1.301686e-38
-0.054493334 -0.059853334 0.93800002 1.2740274e-38
-0.05270667 -0.059853334 0.93800002 1.4484791e-38
-0.051028572 -0.059980955 0.94000006 1.7527246e-38
-0.049238101 -0.059980955 0.94000006 1.9454372e-38
-0.047447622 -0.059980955 0.94000006 1.9454372e-38
-0.045560002 -0.059853334 0.93800002 1.89923e-38
-0.043773334 -0.059853334 0.93800002 1.4382518e-38
-0.042076193 -0.059980955 0.94000006 1.5671391e-38
-0.040285718 -0.059980955 0.94000006 1.9820194e-38
-0.038618095 -0.060172379 0.94300002 2.1019512e-38
-0.036821906 -0.060172379 0.94300002 1.6870709e-38
-0.035025716 -0.060172379 0.94300002 1.4481181e-38
-0.033335239 -0.060363814 0.94600004 1.3743616e-38
-0.031533334 -0.060363814 0.94600004 1.4574447e-38
-0.029731428 -0.060363814 0.94600004 1.8262272e-38
-0.027988574 -0.060491435 0.94800007 1.8075738e-38
-0.02618286 -0.060491435 0.94800007 1.3373761e-38
-0.02453143 -0.060874287 0.95400006 9.9765724e-39
-0.022714287 -0.060874287 0.95400006 9.8843768e-39
-0.020940954 -0.061001904 0.95600003 1.3467399e-38
-0.01912 -0.061001904 0.95600003 1.4942529e-38
-0.017299049 -0.061001904 0.95600003 1.2729464e-38
-0.015478096 -0.061001904 0.95600003 5.6304004e-39
-0.013657142 -0.061001904 0.95600003 9.4103932e-39
-0.011836191 -0.061001904 0.95600003 1.4665544e-38
-0.0964 -0.059676193 0.96400005 6.1770974e-39
-0.094367623 -0.059552386 0.96200007 5.5389377e-39
-0.092246674 -0.05936667 0.95900005 1.1070675e-38
-0.09042 -0.05936667 0.95900005 1.1072438e-38
-0.088593334 -0.05936667 0.95900005 9.9660907e-39
-0.086314291 -0.059057143 0.95400006 9.2328641e-39
-0.084231429 -0.058871429 0.95100003 1.1168972e-38
-0.082419999 -0.058871429 0.95100003 1.3651084e-38
-0.080354296 -0.05868572 0.94800007 1.5402801e-38
-0.078548573 -0.05868572 0.94800007 1.5125782e-38
-0.076580957 -0.058561906 0.94600004 1.5402369e-38
-0.074779049 -0.058561906 0.94600004 1.6966514e-38
-0.072745718 -0.058376193 0.94300002 1.9732383e-38
-0.070949525 -0.058376193 0.94300002 1.8444871e-38
-0.069153331 -0.058376193 0.94300002 1.3742894e-38
-0.067357138 -0.058376193 0.94300002 9.2407828e-39
-0.065560959 -0.058376193 0.94300002 8.964196e-39
-0.063561909 -0.058190476 0.94000006 1.3746875e-38
-0.061639998 -0.058066666 0.93800002 1.9463004e-38
-0.059853334 -0.058066666 0.93800002 2.0562862e-38
-0.058190476 -0.058190476 0.94000006 1.9917493e-38
-0.056400005 -0.058190476 0.94000006 1.7340697e-38
-0.054609526 -0.058190476 0.94000006 1.6142154e-38
-0.052819051 -0.058190476 0.94000006 1.8259061e-38
-0.051028572 -0.058190476 0.94000006 2.185469e-38
-0.049238101 -0.058190476 0.94000006 2.1389396e-38
-0.047447622 -0.058190476 0.94000006 1.7978158e-38
-0.045657143 -0.058190476 0.94000006 1.4475825e-38
-0.043866668 -0.058190476 0.94000006 1.1709956e-38
-0.042210475 -0.058376193 0.94300002 1.2079779e-38
-0.040414285 -0.058376193 0.94300002 1.668956e-38
-0.038618095 -0.058376193 0.94300002 1.9913868e-38
-0.036821906 -0.058376193 0.94300002 2.1942172e-38
-0.035025716 -0.058376193 0.94300002 2.065255e-38
-0.033335239 -0.058561906 0.94600004 1.9822789e-38
-0.031533334 -0.058561906 0.94600004 1.9271761e-38
-0.029731428 -0.058561906 0.94600004 1.7335652e-38
-0.027988574 -0.05868572 0.94800007 1.4209277e-38
-0.026265714 -0.058871429 0.95100003 1.1904386e-38
-0.02453143 -0.059057143 0.95400006 9.9772941e-39
-0.022714287 -0.059057143 0.95400006 9.3319247e-39
-0.020940954 -0.059180956 0.95600003 1.1904036e-38
-0.01912 -0.059180956 0.95600003 1.2733797e-38
-0.017299049 -0.059180956 0.95600003 1.1349751e-38
-0.015526668 -0.05936667 0.95900005 5.0804482e-39
-0.013657142 -0.059180956 0.95600003 8.8601159e-39
-0.011836191 -0.059180956 0.95600003 1.3930876e-38
-0.098541915 -0.058020003 0.96700007 1.5673961e-38
-0.0964 -0.057840001 0.96400005 8.0217232e-39
-0.094367623 -0.057720002 0.96200007 4.530447e-39
-0.09253525 -0.057720002 0.96200007 9.7855979e-39
-0.09042 -0.057540003 0.95900005 9.6913241e-39
-0.088593334 -0.057540003 0.95900005 9.7835198e-39
-0.086495236 -0.057360001 0.95600003 8.4063559e-39
-0.084231429 -0.05706 0.95100003 9.0517253e-39
-0.082419999 -0.05706 0.95100003 1.245396e-38
-0.080354296 -0.056880001 0.94800007 1.5312025e-38
-0.078548573 -0.056880001 0.94800007 1.7240558e-38
-0.076742865 -0.056880001 0.94800007 1.908447e-38
-0.074779049 -0.056760002 0.94600004 1.8718237e-38
-0.072977141 -0.056760002 0.94600004 1.844165e-38
-0.070949525 -0.05658 0.94300002 1.5592217e-38
-0.069153331 -0.05658 0.94300002 1.0337066e-38
-0.067357138 -0.05658 0.94300002 2.7168641e-39
-0.065560959 -0.05658 0.94300002 2.7168641e-39
-0.063561909 -0.056400005 0.94000006 1.1905443e-38
-0.06177143 -0.056400005 0.94000006 1.6884007e-38
-0.059980955 -0.056400005 0.94000006 2.0745433e-38
-0.058190476 -0.056400005 0.94000006 2.102202e-38
-0.056400005 -0.056400005 0.94000006 2.0193727e-38
-0.054609526 -0.056400005 0.94000006 1.9640553e-38
-0.052819051 -0.056400005 0.94000006 2.0653989e-38
-0.051028572 -0.056400005 0.94000006 2.1575945e-38
-0.049395241 -0.05658 0.94300002 2.1296837e-38
-0.047599047 -0.05658 0.94300002 1.6041686e-38
-0.045802858 -0.05658 0.94300002 1.3003181e-38
-0.044006668 -0.05658 0.94300002 1.2450007e-38
-0.042210475 -0.05658 0.94300002 1.1529107e-38
-0.040414285 -0.05658 0.94300002 1.2912042e-38
-0.038618095 -0.05658 0.94300002 1.6685929e-38
-0.036821906 -0.05658 0.94300002 1.9912776e-38
-0.035137143 -0.056760002 0.94600004 2.1940389e-38
-0.033335239 -0.056760002 0.94600004 2.2032585e-38
-0.031533334 -0.056760002 0.94600004 1.9272865e-38
-0.029794287 -0.056880001 0.94800007 1.4570888e-38
-0.027988574 -0.056880001 0.94800007 1.2090941e-38
-0.026265714 -0.05706 0.95100003 1.190655e-38
-0.024582857 -0.057360001 0.95600003 1.0896729e-38
-0.022761906 -0.057360001 0.95600003 1.0066969e-38
-0.020940954 -0.057360001 0.95600003 1.1627815e-38
-0.019180002 -0.057540003 0.95900005 1.2457576e-38
-0.017353334 -0.057540003 0.95900005 1.0522171e-38
-0.015526668 -0.057540003 0.95900005 6.6499543e-39
-0.013700001 -0.057540003 0.95900005 9.687699e-39
-0.011873334 -0.057540003 0.95900005 1.4389676e-38
-0.098541915 -0.056178097 0.96700007 1.6042017e-38
-0.0964 -0.056003813 0.96400005 9.9571056e-39
-0.094367623 -0.055887621 0.96200007 6.2775593e-39
-0.09253525 -0.055887621 0.96200007 1.0518558e-38
-0.090702862 -0.055887621 0.96200007 1.0243429e-38
-0.088870488 -0.055887621 0.96200007 9.6902549e-39
-0.086495236 -0.055539049 0.95600003 8.5907597e-39
-0.084497146 -0.055422861 0.95400006 9.0517379e-39
-0.082419999 -0.055248573 0.95100003 9.8782489e-39
-0.080354296 -0.055074289 0.94800007 1.2644118e-38
-0.078548573 -0.055074289 0.94800007 1.6503018e-38
-0.076742865 -0.055074289 0.94800007 2.0190843e-38
-0.074779049 -0.054958098 0.94600004 1.8073215e-38
-0.072977141 -0.054958098 0.94600004 1.226489e-38
-0.070949525 -0.05478381 0.94300002 6.940571e-39
-0.069153331 -0.05478381 0.94300002 6.2952016e-39
-0.067357138 -0.05478381 0.94300002 5.380839e-39
-0.065560959 -0.05478381 0.94300002 5.4730346e-39
-0.063561909 -0.054609526 0.94000006 8.0447606e-39
-0.06177143 -0.054609526 0.94000006 8.4135431e-39
-0.059980955 -0.054609526 0.94000006 1.4669458e-38
-0.058190476 -0.054609526 0.94000006 1.9002653e-38
-0.056400005 -0.054609526 0.94000006 2.0929853e-38
-0.054609526 -0.054609526 0.94000006 2.2865961e-38
-0.052819051 -0.054609526 0.94000006 2.1573787e-38
-0.051191427 -0.05478381 0.94300002 1.7056201e-38
-0.049395241 -0.05478381 0.94300002 1.3370212e-38
-0.047599047 -0.05478381 0.94300002 1.2263864e-38
-0.045802858 -0.05478381 0.94300002 1.2542556e-38
-0.044006668 -0.05478381 0.94300002 1.3187925e-38
-0.042210475 -0.05478381 0.94300002 1.2726244e-38
-0.040414285 -0.05478381 0.94300002 1.1527701e-38
-0.038618095 -0.05478381 0.94300002 1.2171962e-38
-0.036821906 -0.05478381 0.94300002 1.5122222e-38
-0.035137143 -0.054958098 0.94600004 1.972943e-38
-0.033335239 -0.054958098 0.94600004 2.184993e-38
-0.031600002 -0.055074289 0.94800007 1.9364307e-38
-0.029794287 -0.055074289 0.94800007 1.4293547e-38
-0.027988574 -0.055074289 0.94800007 1.1357708e-38
-0.026348574 -0.055422861 0.95400006 1.1542099e-38
-0.024582857 -0.055539049 0.95600003 1.0988572e-38
-0.022761906 -0.055539049 0.95600003 9.6978332e-39
-0.021006668 -0.055713337 0.95900005 1.2731644e-38
-0.019180002 -0.055713337 0.95900005 1.5128731e-38
-0.017353334 -0.055713337 0.95900005 1.3558155e-38
-0.015526668 -0.055713337 0.95900005 9.2249608e-39
-0.013700001 -0.055713337 0.95900005 1.0791918e-38
-0.011873334 -0.055713337 0.95900005 1.4387548e-38
-0.098236188 -0.054167621 0.96400005 1.6042014e-38
-0.0964 -0.054167621 0.96400005 1.0418081e-38
-0.094563812 -0.054167621 0.96400005 8.1156649e-39
-0.09253525 -0.05405524 0.96200007 1.2080077e-38
-0.090702862 -0.05405524 0.96200007 1.0334543e-38
-0.088870488 -0.05405524 0.96200007 9.5047819e-39
-0.086766668 -0.053886667 0.95900005 8.3141798e-39
-0.084497146 -0.053605717 0.95400006 9.1439405e-39
-0.082680002 -0.053605717 0.95400006 8.7776495e-39
-0.080608569 -0.053437144 0.95100003 9.9761927e-39
-0.078548573 -0.053268574 0.94800007 1.5216598e-38
-0.076742865 -0.053268574 0.94800007 1.9088814e-38
-0.074779049 -0.053156193 0.94600004 1.614323e-38
-0.072977141 -0.053156193 0.94600004 7.8456235e-39
-0.070949525 -0.05298762 0.94300002 1.7927442e-39
-0.069153331 -0.05298762 0.94300002 4.3742218e-39
-0.067357138 -0.05298762 0.94300002 6.9431144e-39
-0.065560959 -0.05298762 0.94300002 7.4040925e-39
-0.063764766 -0.05298762 0.94300002 5.3822585e-39
-0.061968572 -0.05298762 0.94300002 3.7227371e-39
-0.060172379 -0.05298762 0.94300002 7.5848138e-39
-0.058376193 -0.05298762 0.94300002 1.2839965e-38
-0.05658 -0.05298762 0.94300002 2.046778e-38
-0.05478381 -0.05298762 0.94300002 2.2772671e-38
-0.05298762 -0.05298762 0.94300002 2.157378e-38
-0.051191427 -0.05298762 0.94300002 1.3276174e-38
-0.049395241 -0.05298762 0.94300002 1.2814474e-38
-0.047599047 -0.05298762 0.94300002 1.3552039e-38
-0.045802858 -0.05298762 0.94300002 1.3095377e-38
-0.044006668 -0.05298762 0.94300002 1.3464159e-38
-0.042210475 -0.05298762 0.94300002 1.3279773e-38
-0.040414285 -0.05298762 0.94300002 1.2357817e-38
-0.038618095 -0.05298762 0.94300002 1.1345785e-38
-0.036939051 -0.053156193 0.94600004 1.2820915e-38
-0.035137143 -0.053156193 0.94600004 1.6321475e-38
-0.033405717 -0.053268574 0.94800007 2.0562474e-38
-0.031600002 -0.053268574 0.94800007 1.6881174e-38
-0.029794287 -0.053268574 0.94800007 1.2547979e-38
-0.028077144 -0.053437144 0.95100003 1.0990004e-38
-0.026348574 -0.053605717 0.95400006 1.1174395e-38
-0.024660001 -0.053886667 0.95900005 1.052867e-38
-0.022833334 -0.053886667 0.95900005 1.0252083e-38
-0.021006668 -0.053886667 0.95900005 1.4018064e-38
-0.019180002 -0.053886667 0.95900005 1.5308803e-38
-0.017353334 -0.053886667 0.95900005 1.5213708e-38
-0.015575239 -0.05405524 0.96200007 1.1618079e-38
-0.013742859 -0.05405524 0.96200007 1.207976e-38
-0.098236188 -0.052331429 0.96400005 1.6224964e-38
-0.0964 -0.052331429 0.96400005 1.2998117e-38
-0.094367623 -0.052222859 0.96200007 1.1896072e-38
-0.09253525 -0.052222859 0.96200007 1.2910224e-38
-0.090702862 -0.052222859 0.96200007 1.0518934e-38
-0.088870488 -0.052222859 0.96200007 9.6891731e-39
-0.086766668 -0.052060001 0.95900005 8.4056594e-39
-0.084497146 -0.051788572 0.95400006 9.2354201e-39
-0.082680002 -0.051788572 0.95400006 8.5932709e-39
-0.080608569 -0.051625714 0.95100003 9.4230315e-39
-0.078797139 -0.051625714 0.95100003 1.466414e-38
-0.076742865 -0.051462859 0.94800007 1.8628552e-38
-0.07493715 -0.051462859 0.94800007 1.5865905e-38
-0.072977141 -0.051354285 0.94600004 7.5682981e-39
-0.07117524 -0.051354285 0.94600004 1.8864e-39
-0.069373332 -0.051354285 0.94600004 4.375682e-39
-0.067357138 -0.051191427 0.94300002 6.5764955e-39
-0.065560959 -0.051191427 0.94300002 7.1296693e-39
-0.063764766 -0.051191427 0.94300002 6.8534453e-39
-0.061968572 -0.051191427 0.94300002 6.4846628e-39
-0.060172379 -0.051191427 0.94300002 5.6570447e-39
-0.058376193 -0.051191427 0.94300002 6.7633923e-39
-0.05658 -0.051191427 0.94300002 1.8444434e-38
-0.05478381 -0.051191427 0.94300002 2.1855672e-38
-0.05298762 -0.051191427 0.94300002 2.1020916e-38
-0.051191427 -0.051191427 0.94300002 1.207794e-38
-0.049395241 -0.051191427 0.94300002 1.1070315e-38
-0.047599047 -0.051191427 0.94300002 1.2729837e-38
-0.045802858 -0.051191427 0.94300002 1.3463083e-38
-0.044006668 -0.051191427 0.94300002 1.3463083e-38
-0.042210475 -0.051191427 0.94300002 1.3187575e-38
-0.040414285 -0.051191427 0.94300002 1.2726597e-38
-0.038618095 -0.051191427 0.94300002 1.1346176e-38
-0.036939051 -0.051354285 0.94600004 1.2452524e-38
-0.035137143 -0.051354285 0.94600004 1.6228949e-38
-0.033405717 -0.051462859 0.94800007 2.0654339e-38
-0.031600002 -0.051462859 0.94800007 1.8352681e-38
-0.029888572 -0.051625714 0.95100003 1.2820943e-38
-0.028077144 -0.051625714 0.95100003 9.7957769e-39
-0.026403811 -0.051897142 0.95600003 1.0164559e-38
-0.024660001 -0.052060001 0.95900005 1.1447755e-38
-0.022833334 -0.052060001 0.95900005 1.2461907e-38
-0.021072382 -0.052222859 0.96200007 1.466485e-38
-0.019240001 -0.052222859 0.96200007 1.3650699e-38
-0.01740762 -0.052222859 0.96200007 1.4292448e-38
-0.015656192 -0.052494287 0.96700007 1.383147e-38
-0.013857143 -0.052657142 0.97000003 1.3922231e-38
-0.098236188 -0.050495241 0.96400005 1.6500472e-38
-0.0964 -0.050495241 0.96400005 1.4287776e-38
-0.094367623 -0.050390478 0.96200007 1.2632208e-38
-0.09253525 -0.050390478 0.96200007 1.217123e-38
-0.090702862 -0.050390478 0.96200007 1.0519249e-38
-0.088870488 -0.050390478 0.96200007 1.0427053e-38
-0.086766668 -0.050233334 0.95900005 8.313454e-39
-0.084674291 -0.05007619 0.95600003 9.051019e-39
-0.082853332 -0.05007619 0.95600003 8.0411831e-39
-0.080862865 -0.049971428 0.95400006 9.4241175e-39
-0.079045713 -0.049971428 0.95400006 1.4020573e-38
-0.076985717 -0.049814284 0.95100003 1.807718e-38
-0.07493715 -0.049657144 0.94800007 1.4395131e-38
-0.073131435 -0.049657144 0.94800007 6.9272853e-39
-0.07117524 -0.049552381 0.94600004 2.8040277e-39
-0.069373332 -0.049552381 0.94600004 4.9245271e-39
-0.067571431 -0.049552381 0.94600004 6.8523635e-39
-0.065769531 -0.049552381 0.94600004 7.221146e-39
-0.063764766 -0.049395241 0.94300002 6.9456381e-39
-0.061968572 -0.049395241 0.94300002 6.6690512e-39
-0.060172379 -0.049395241 0.94300002 1.7988847e-39
-0.058376193 -0.049395241 0.94300002 3.3662104e-39
-0.05658 -0.049395241 0.94300002 1.5497485e-38
-0.05478381 -0.049395241 0.94300002 2.066044e-38
-0.05298762 -0.049395241 0.94300002 1.8166152e-38
-0.051191427 -0.049395241 0.94300002 1.1343675e-38
-0.049395241 -0.049395241 0.94300002 1.1620249e-38
-0.047599047 -0.049395241 0.94300002 1.3187575e-38
-0.045802858 -0.049395241 0.94300002 1.3555276e-38
-0.044006668 -0.049395241 0.94300002 1.346308e-38
-0.042210475 -0.049395241 0.94300002 1.3003181e-38
-0.040414285 -0.049395241 0.94300002 1.2265616e-38
-0.038740952 -0.049552381 0.94600004 1.0517855e-38
-0.036939051 -0.049552381 0.94600004 1.3929093e-38
-0.035137143 -0.049552381 0.94600004 1.7885233e-38
-0.033405717 -0.049657144 0.94800007 2.028232e-38
-0.031600002 -0.049657144 0.94800007 1.8536366e-38
-0.029888572 -0.049814284 0.95100003 1.466415e-38
-0.028077144 -0.049814284 0.95100003 1.0347168e-38
-0.026403811 -0.05007619 0.95600003 9.7017988e-39
-0.024660001 -0.050233334 0.95900005 1.1905831e-38
-0.022833334 -0.050233334 0.95900005 1.4026331e-38
-0.021072382 -0.050390478 0.96200007 1.5217314e-38
-0.019280002 -0.050495241 0.96400005 1.1529489e-38
-0.01744381 -0.050495241 0.96400005 1.2909109e-38
-0.015656192 -0.050652385 0.96700007 1.4845217e-38
-0.013900001 -0.050966669 0.97300005 1.4749468e-38
-0.098236188 -0.048659049 0.96400005 1.6039856e-38
-0.0964 -0.048659049 0.96400005 1.4841313e-38
-0.094367623 -0.048558097 0.96200007 1.1253968e-38
-0.09253525 -0.048558097 0.96200007 4.800274e-39
-0.090702862 -0.048558097 0.96200007 5.1780963e-39
-0.088870488 -0.048558097 0.96200007 1.1263008e-38
-0.086766668 -0.048406668 0.95900005 1.1534881e-38
-0.084674291 -0.048255239 0.95600003 9.5987726e-39
-0.082853332 -0.048255239 0.95600003 9.8786119e-39
-0.080862865 -0.048154291 0.95400006 1.3566437e-38
-0.079045713 -0.048154291 0.95400006 1.7059766e-38
-0.076985717 -0.048002861 0.95100003 1.9272461e-38
-0.075174294 -0.048002861 0.95100003 1.8166858e-38
-0.073131435 -0.047851432 0.94800007 1.3925859e-38
-0.071325719 -0.047851432 0.94800007 6.4814398e-39
-0.069373332 -0.047750477 0.94600004 5.190701e-39
-0.067571431 -0.047750477 0.94600004 4.6457949e-39
-0.065769531 -0.047750477 0.94600004 5.8443381e-39
-0.063967615 -0.047750477 0.94600004 6.1180383e-39
-0.061968572 -0.047599047 0.94300002 4.5507126e-39
-0.060172379 -0.047599047 0.94300002 4.4621015e-39
-0.058376193 -0.047599047 0.94300002 9.9016436e-39
-0.05658 -0.047599047 0.94300002 1.8444161e-38
-0.05478381 -0.047599047 0.94300002 2.2224182e-38
-0.05298762 -0.047599047 0.94300002 2.1482651e-38
-0.051191427 -0.047599047 0.94300002 1.5028957e-38
-0.049395241 -0.047599047 0.94300002 1.0702664e-38
-0.047599047 -0.047599047 0.94300002 1.1440229e-38
-0.045802858 -0.047599047 0.94300002 1.2175581e-38
-0.044006668 -0.047599047 0.94300002 1.2359972e-38
-0.042344764 -0.047750477 0.94600004 1.2541127e-38
-0.04054286 -0.047750477 0.94600004 1.226454e-38
-0.038740952 -0.047750477 0.94600004 1.3460597e-38
-0.036939051 -0.047750477 0.94600004 1.9545509e-38
-0.035211433 -0.047851432 0.94800007 1.9363606e-38
-0.033405717 -0.047851432 0.94800007 1.8810432e-38
-0.0317 -0.048002861 0.95100003 1.8536363e-38
-0.029888572 -0.048002861 0.95100003 1.8628559e-38
-0.028077144 -0.048002861 0.95100003 1.4670662e-38
-0.026403811 -0.048255239 0.95600003 1.1812597e-38
-0.024660001 -0.048406668 0.95900005 1.3470992e-38
-0.022904763 -0.048558097 0.96200007 1.54071e-38
-0.021116192 -0.048659049 0.96400005 1.4571926e-38
-0.019280002 -0.048659049 0.96400005 6.643102e-39
-0.01744381 -0.048659049 0.96400005 8.1164552e-39
-0.015656192 -0.048810478 0.96700007 1.4016976e-38
-0.013900001 -0.049113337 0.97300005 1.5025692e-38
-0.098236188 -0.046822857 0.96400005 1.5763632e-38
-0.096200012 -0.046725716 0.96200007 1.5579241e-38
-0.094367623 -0.046725716 0.96200007 1.0887344e-38
-0.09253525 -0.046725716 0.96200007 3.5116932e-39
-0.090702862 -0.046725716 0.96200007 4.8116778e-39
-0.088870488 -0.046725716 0.96200007 1.2002927e-38
-0.086766668 -0.046580002 0.95900005 1.227173e-38
-0.084674291 -0.046434287 0.95600003 1.0243426e-38
-0.082853332 -0.046434287 0.95600003 1.0982092e-38
-0.08103238 -0.046434287 0.95600003 1.50387e-38
-0.079045713 -0.046337146 0.95400006 1.7702993e-38
-0.077228576 -0.046337146 0.95400006 1.797958e-38
-0.075174294 -0.046191432 0.95100003 1.8165766e-38
-0.073362865 -0.046191432 0.95100003 1.6690636e-38
-0.071325719 -0.046045717 0.94800007 1.1631454e-38
-0.069373332 -0.045948572 0.94600004 7.3904551e-39
-0.067571431 -0.045948572 0.94600004 2.6218042e-39
-0.065769531 -0.045948572 0.94600004 3.912543e-39
-0.063967615 -0.045948572 0.94600004 4.2784291e-39
-0.062165715 -0.045948572 0.94600004 3.3564728e-39
-0.060172379 -0.045802858 0.94300002 8.5965051e-39
-0.058376193 -0.045802858 0.94300002 1.4865808e-38
-0.05658 -0.045802858 0.94300002 2.0651468e-38
-0.05478381 -0.045802858 0.94300002 2.2126598e-38
-0.05298762 -0.045802858 0.94300002 2.1666699e-38
-0.051191427 -0.045802858 0.94300002 1.8071069e-38
-0.049395241 -0.045802858 0.94300002 1.4204297e-38
-0.047599047 -0.045802858 0.94300002 1.1991602e-38
-0.045802858 -0.045802858 0.94300002 1.1530938e-38
-0.044006668 -0.045802858 0.94300002 1.1162155e-38
-0.042344764 -0.045948572 0.94600004 1.2265221e-38
-0.04054286 -0.045948572 0.94600004 1.3924742e-38
-0.038740952 -0.045948572 0.94600004 1.7971356e-38
-0.036939051 -0.045948572 0.94600004 2.147479e-38
-0.035211433 -0.046045717 0.94800007 1.881259e-38
-0.033405717 -0.046045717 0.94800007 1.6415504e-38
-0.0317 -0.046191432 0.95100003 1.7523624e-38
-0.029888572 -0.046191432 0.95100003 1.9367537e-38
-0.028165715 -0.046337146 0.95400006 1.8536003e-38
-0.026403811 -0.046434287 0.95600003 1.6784286e-38
-0.024660001 -0.046580002 0.95900005 1.4394766e-38
-0.022952382 -0.046822857 0.96400005 1.3011831e-38
-0.021116192 -0.046822857 0.96400005 1.3921149e-38
-0.019280002 -0.046822857 0.96400005 8.1128245e-39
-0.017498096 -0.046968576 0.96700007 8.7599623e-39
-0.015704762 -0.047114287 0.97000003 1.42917e-38
-0.013900001 -0.047260001 0.97300005 1.4564363e-38
-0.098032385 -0.044893336 0.96200007 1.6040575e-38
-0.096200012 -0.044893336 0.96200007 1.5856184e-38
-0.094367623 -0.044893336 0.96200007 1.1899691e-38
-0.09253525 -0.044893336 0.96200007 3.3254971e-39
-0.090702862 -0.044893336 0.96200007 1.4030879e-39
-0.088870488 -0.044893336 0.96200007 8.9631296e-39
-0.086766668 -0.044753335 0.95900005 1.337268e-38
-0.084674291 -0.044613335 0.95600003 1.5032201e-38
-0.082853332 -0.044613335 0.95600003 1.6321478e-38
-0.08103238 -0.044613335 0.95600003 1.7427826e-38
-0.079045713 -0.044520002 0.95400006 1.4477613e-38
-0.077228576 -0.044520002 0.95400006 1.1711744e-38
-0.075411431 -0.044520002 0.95400006 1.3832584e-38
-0.073362865 -0.044380002 0.95100003 1.9917496e-38
-0.071551435 -0.044380002 0.95100003 1.8720407e-38
-0.069520004 -0.044240002 0.94800007 1.5124778e-38
-0.067714289 -0.044240002 0.94800007 7.4952218e-39
-0.065769531 -0.044146664 0.94600004 4.5449616e-39
-0.063967615 -0.044146664 0.94600004 6.023672e-39
-0.062165715 -0.044146664 0.94600004 1.1647605e-38
-0.060363814 -0.044146664 0.94600004 1.918278e-38
-0.058561906 -0.044146664 0.94600004 2.1303279e-38
-0.05658 -0.044006668 0.94300002 2.0101181e-38
-0.05478381 -0.044006668 0.94300002 1.8902638e-38
-0.05298762 -0.044006668 0.94300002 2.0101171e-38
-0.051191427 -0.044006668 0.94300002 2.2406062e-38
-0.049395241 -0.044006668 0.94300002 2.1114247e-38
-0.047599047 -0.044006668 0.94300002 1.7518617e-38
