# .PCD v0.7 - Point Cloud Data file format
VERSION 0.7
FIELDS x y z rgb
SIZE 4 4 4 4
TYPE F F F F
COUNT 1 1 1 1
WIDTH 997
HEIGHT 1
VIEWPOINT 0 0 0 1 0 0 0
POINTS 997
DATA ascii
-0.022033334 0.11268476 0.66100001 1.4755632e-38
-0.020774284 0.11268476 0.66100001 1.4202458e-38
-0.019515239 0.11268476 0.66100001 1.5766141e-38
-0.018200954 0.11234381 0.65900004 1.7794445e-38
-0.016945716 0.11234381 0.65900004 2.1203903e-38
-0.015666667 0.11217334 0.65800005 2.3509514e-38
-0.014413333 0.11217334 0.65800005 2.3326213e-38
-0.013139999 0.11200286 0.65700001 2.2773039e-38
-0.011888571 0.11200286 0.65700001 2.3234378e-38
-0.010637143 0.11200286 0.65700001 2.3234378e-38
-0.0093857143 0.11200286 0.65700001 2.341769e-38
-0.0081342859 0.11200286 0.65700001 2.3325494e-38
-0.0068828571 0.11200286 0.65700001 2.0750147e-38
-0.0056142863 0.1116619 0.65500003 1.96438e-38
-0.0043666665 0.1116619 0.65500003 1.7901093e-38
-0.0031190477 0.1116619 0.65500003 1.7716702e-38
-0.0018714287 0.1116619 0.65500003 1.8727617e-38
-0.00062380952 0.1116619 0.65500003 1.8819813e-38
0.00062380952 0.1116619 0.65500003 2.1761769e-38
0.0018714287 0.1116619 0.65500003 2.2775202e-38
0.0031285714 0.11200286 0.65700001 2.341769e-38
0.0043799998 0.11200286 0.65700001 2.341769e-38
0.0056314287 0.11200286 0.65700001 2.341769e-38
0.0068933335 0.11217334 0.65800005 2.341769e-38
0.0081466679 0.11217334 0.65800005 2.3326213e-38
0.0094142854 0.11234381 0.65900004 2.1390105e-38
0.010669525 0.11234381 0.65900004 1.6424855e-38
0.011960953 0.11268476 0.66100001 1.1722878e-38
0.01322 0.11268476 0.66100001 7.3209213e-39
0.014500954 0.11285525 0.66200006 8.1506819e-39
0.015857141 0.11353715 0.66600001 8.7009747e-39
0.017125715 0.11353715 0.66600001 8.608779e-39
0.018421907 0.11370763 0.66700006 7.5042307e-39
0.019721907 0.1138781 0.66800004 5.0149487e-39
0.021057144 0.11421905 0.67000002 1.1910901e-38
0.022366667 0.11438952 0.671 2.0111972e-38
0.023680001 0.11456001 0.67200005 2.3050705e-38
0.024960002 0.11456001 0.67200005 1.3923338e-38
0.026357144 0.11507143 0.67500001 1.1720682e-38
0.027642857 0.11507143 0.67500001 1.4670942e-38
0.02897143 0.11524191 0.67600006 1.6045286e-38
0.03025905 0.11524191 0.67600006 1.6137482e-38
0.031546671 0.11524191 0.67600006 1.6873242e-38
-0.039620955 0.11756381 0.68200004 1.4659443e-38
-0.038097143 0.11687429 0.67800003 1.3652506e-38
-0.036697146 0.11652953 0.67600006 1.2269572e-38
-0.035357144 0.11635715 0.67500001 7.12354e-39
-0.034020953 0.11618476 0.67400002 5.2796274e-39
-0.032591429 0.11566762 0.671 3.723484e-39
-0.031266667 0.11549524 0.67000002 1.3588416e-38
-0.029900953 0.11515048 0.66800004 2.0933111e-38
-0.028628573 0.11515048 0.66800004 1.4202831e-38
-0.027315238 0.1149781 0.66700006 1.2817713e-38
-0.026005713 0.11480572 0.66600001 1.4108452e-38
-0.024625717 0.11428858 0.66300005 1.420173e-38
-0.023327621 0.1141162 0.66200006 1.503149e-38
-0.022066668 0.1141162 0.66200006 1.5308437e-38
-0.020805717 0.1141162 0.66200006 1.4939655e-38
-0.019515239 0.11394381 0.66100001 1.4203156e-38
-0.018256191 0.11394381 0.66100001 1.4295352e-38
-0.016945716 0.11359905 0.65900004 1.7977034e-38
-0.015690476 0.11359905 0.65900004 2.3509853e-38
-0.014435238 0.11359905 0.65900004 2.341769e-38
-0.013160001 0.11342667 0.65800005 2.341769e-38
-0.011906668 0.11342667 0.65800005 2.341769e-38
-0.010653334 0.11342667 0.65800005 2.341769e-38
-0.0093857143 0.11325429 0.65700001 2.3234378e-38
-0.0081342859 0.11325429 0.65700001 2.1298269e-38
-0.0068828571 0.11325429 0.65700001 1.7533393e-38
-0.0056314287 0.11325429 0.65700001 1.7441197e-38
-0.0043799998 0.11325429 0.65700001 1.7258248e-38
-0.0031285714 0.11325429 0.65700001 1.762703e-38
-0.0018771428 0.11325429 0.65700001 1.7534834e-38
-0.00062571431 0.11325429 0.65700001 1.7166052e-38
0.00062571431 0.11325429 0.65700001 1.799256e-38
0.0018771428 0.11325429 0.65700001 1.9006712e-38
0.0031285714 0.11325429 0.65700001 2.3050705e-38
0.0043799998 0.11325429 0.65700001 2.3142542e-38
0.0056400001 0.11342667 0.65800005 2.341769e-38
0.0068933335 0.11342667 0.65800005 2.341769e-38
0.0081466679 0.11342667 0.65800005 2.3326213e-38
0.0094142854 0.11359905 0.65900004 1.6780324e-38
0.010669525 0.11359905 0.65900004 1.2006311e-38
0.011960953 0.11394381 0.66100001 1.0438986e-38
0.01322 0.11394381 0.66100001 8.1499561e-39
0.014500954 0.1141162 0.66200006 8.7031299e-39
0.015809525 0.11446096 0.66400003 8.885003e-39
0.017125715 0.11480572 0.66600001 8.6084161e-39
0.018421907 0.1149781 0.66700006 5.574242e-39
0.019721907 0.11515048 0.66800004 4.6522857e-39
0.021057144 0.11549524 0.67000002 1.3475355e-38
0.022400003 0.11584001 0.67200005 2.057115e-38
0.023680001 0.11584001 0.67200005 2.2774842e-38
0.024960002 0.11584001 0.67200005 1.6597734e-38
0.026357144 0.11635715 0.67500001 1.3190471e-38
0.027642857 0.11635715 0.67500001 1.5034384e-38
0.02897143 0.11652953 0.67600006 1.5860169e-38
0.030348573 0.11687429 0.67800003 1.6321147e-38
0.031640001 0.11687429 0.67800003 1.7057636e-38
-0.039620955 0.11886286 0.68200004 1.4197398e-38
-0.038097143 0.11816572 0.67800003 1.3004994e-38
-0.036697146 0.11781715 0.67600006 1.4480124e-38
-0.035357144 0.11764286 0.67500001 1.0344635e-38
-0.034020953 0.11746857 0.67400002 7.3943745e-39
-0.032591429 0.11694571 0.671 8.6851694e-39
-0.031266667 0.11677143 0.67000002 1.7812498e-38
-0.029900953 0.11642287 0.66800004 2.1392639e-38
-0.028628573 0.11642287 0.66800004 1.6782857e-38
-0.027356191 0.11642287 0.66800004 1.1992309e-38
-0.026005713 0.11607429 0.66600001 1.282207e-38
-0.024662858 0.11572572 0.66400003 1.4109544e-38
-0.023362858 0.11555143 0.66300005 1.5123696e-38
-0.022100002 0.11555143 0.66300005 1.5308793e-38
-0.020805717 0.11537715 0.66200006 1.5216598e-38
-0.019544763 0.11537715 0.66200006 1.5124412e-38
-0.01828381 0.11537715 0.66200006 1.4294651e-38
-0.016997144 0.11520286 0.66100001 1.4660553e-38
-0.015738094 0.11520286 0.66100001 2.0653269e-38
-0.014479048 0.11520286 0.66100001 2.341769e-38
-0.013180001 0.11485429 0.65900004 2.341769e-38
-0.011924762 0.11485429 0.65900004 2.341769e-38
-0.010653334 0.11468001 0.65800005 2.2680125e-38
-0.0094000008 0.11468001 0.65800005 1.9461575e-38
-0.0081342859 0.11450572 0.65700001 1.8631814e-38
-0.0068828571 0.11450572 0.65700001 1.7258248e-38
-0.0056314287 0.11450572 0.65700001 1.7534834e-38
-0.0043799998 0.11450572 0.65700001 1.7534834e-38
-0.0031285714 0.11450572 0.65700001 1.7719226e-38
-0.0018771428 0.11450572 0.65700001 1.7810704e-38
-0.00062571431 0.11450572 0.65700001 1.7902898e-38
0.00062571431 0.11450572 0.65700001 1.8178402e-38
0.0018771428 0.11450572 0.65700001 1.7809619e-38
0.0031333335 0.11468001 0.65800005 2.0381721e-38
0.0043866672 0.11468001 0.65800005 2.2224189e-38
0.0056400001 0.11468001 0.65800005 2.341769e-38
0.00690381 0.11485429 0.65900004 2.341769e-38
0.0081590479 0.11485429 0.65900004 2.3050705e-38
0.0094428575 0.11520286 0.66100001 1.429212e-38
0.010701905 0.11520286 0.66100001 7.1368831e-39
0.011960953 0.11520286 0.66100001 8.2432307e-39
0.013240001 0.11537715 0.66200006 9.0690383e-39
0.014522858 0.11555143 0.66300005 9.1612339e-39
0.015809525 0.11572572 0.66400003 8.9764825e-39
0.017151428 0.11624859 0.66700006 8.2389175e-39
0.018421907 0.11624859 0.66700006 8.2374686e-39
0.019721907 0.11642287 0.66800004 1.1648707e-38
0.021057144 0.11677143 0.67000002 1.8629676e-38
0.022400003 0.11712001 0.67200005 2.2040518e-38
0.023680001 0.11712001 0.67200005 2.3142182e-38
0.024960002 0.11712001 0.67200005 2.2404617e-38
0.026357144 0.11764286 0.67500001 1.9548017e-38
0.027642857 0.11764286 0.67500001 1.6044583e-38
0.029057145 0.11816572 0.67800003 1.5861967e-38
0.030438095 0.11851428 0.68000001 1.6415141e-38
0.031733334 0.11851428 0.68000001 1.7149835e-38
-0.039620955 0.12016191 0.68200004 1.401301e-38
-0.038209524 0.11980952 0.68000001 1.2635468e-38
-0.036697146 0.11910477 0.67600006 1.4755967e-38
-0.035357144 0.11892857 0.67500001 1.2184589e-38
-0.034020953 0.11875238 0.67400002 1.0525067e-38
-0.032640003 0.11840001 0.67200005 1.4575923e-38
-0.031313334 0.11822381 0.671 2.0476443e-38
-0.029990477 0.11804762 0.67000002 2.1852888e-38
-0.028714286 0.11804762 0.67000002 1.8902628e-38
-0.027356191 0.11769524 0.66800004 1.4665261e-38
-0.026044764 0.11751906 0.66700006 1.2913544e-38
-0.024737144 0.11734285 0.66600001 1.3649282e-38
-0.023398096 0.11699048 0.66400003 1.4940021e-38
-0.022100002 0.11681429 0.66300005 1.5216598e-38
-0.020837145 0.11681429 0.66300005 1.5308793e-38
-0.019544763 0.1166381 0.66200006 1.5216608e-38
-0.01828381 0.1166381 0.66200006 1.4755629e-38
-0.017022859 0.1166381 0.66200006 1.4202793e-38
-0.015761906 0.1166381 0.66200006 1.8535988e-38
-0.014479048 0.11646191 0.66100001 2.2034758e-38
-0.01322 0.11646191 0.66100001 2.3417691e-38
-0.011960953 0.11646191 0.66100001 2.3234378e-38
-0.010669525 0.11610953 0.65900004 2.0284118e-38
-0.0094142854 0.11610953 0.65900004 1.6427398e-38
-0.0081466679 0.11593334 0.65800005 1.7072767e-38
-0.0068933335 0.11593334 0.65800005 1.6983459e-38
-0.0056314287 0.11575714 0.65700001 1.7352241e-38
-0.0043799998 0.11575714 0.65700001 1.762703e-38
-0.0031285714 0.11575714 0.65700001 1.7719226e-38
-0.0018771428 0.11575714 0.65700001 1.7719227e-38
-0.00062571431 0.11575714 0.65700001 1.7903616e-38
0.0006266667 0.11593334 0.65800005 1.7903254e-38
0.0018800002 0.11593334 0.65800005 1.7165689e-38
0.0031380954 0.11610953 0.65900004 1.8451017e-38
0.0043933336 0.11610953 0.65900004 2.0662985e-38
0.0056485715 0.11610953 0.65900004 2.3326213e-38
0.0069247619 0.11646191 0.66100001 2.3326213e-38
0.0081838099 0.11646191 0.66100001 2.2499334e-38
0.0094428575 0.11646191 0.66100001 1.2081227e-38
0.010718096 0.1166381 0.66200006 6.2188827e-39
0.011979048 0.1166381 0.66200006 8.0627953e-39
0.013240001 0.1166381 0.66200006 9.5289347e-39
0.014522858 0.11681429 0.66300005 9.3445434e-39
0.015809525 0.11699048 0.66400003 8.6080602e-39
0.017151428 0.11751906 0.66700006 7.2251257e-39
0.018449524 0.11769524 0.66800004 8.3289523e-39
0.019780952 0.11804762 0.67000002 1.4874838e-38
0.02108857 0.11822381 0.671 2.1209335e-38
0.022400003 0.11840001 0.67200005 2.1485917e-38
0.023680001 0.11840001 0.67200005 2.2127667e-38
0.025034286 0.11875238 0.67400002 2.3141819e-38
0.026396191 0.11910477 0.67600006 2.1667436e-38
0.027806668 0.11963334 0.67900002 1.6320091e-38
0.029142857 0.11980952 0.68000001 1.5218743e-38
0.030438095 0.11980952 0.68000001 1.6232895e-38
0.031733334 0.11980952 0.68000001 1.7149835e-38
-0.039620955 0.12146095 0.68200004 1.3921174e-38
-0.038321909 0.12146095 0.68200004 1.309393e-38
-0.036805719 0.12074857 0.67800003 1.5491017e-38
-0.035409529 0.12039239 0.67600006 1.5677233e-38
-0.034020953 0.12003619 0.67400002 1.8811884e-38
-0.032640003 0.11968001 0.67200005 2.0469228e-38
-0.031313334 0.1195019 0.671 2.1667771e-38
-0.029990477 0.11932381 0.67000002 2.1483017e-38
-0.028714286 0.11932381 0.67000002 2.1483017e-38
-0.027356191 0.11896762 0.66800004 1.8534599e-38
-0.026044764 0.11878953 0.66700006 1.3095057e-38
-0.024737144 0.11861143 0.66600001 1.2269231e-38
-0.023468571 0.11861143 0.66600001 1.4020948e-38
-0.022100002 0.11807715 0.66300005 1.5307714e-38
-0.020837145 0.11807715 0.66300005 1.539991e-38
-0.019544763 0.11789906 0.66200006 1.5124412e-38
-0.01828381 0.11789906 0.66200006 1.4755629e-38
-0.017022859 0.11789906 0.66200006 1.3651437e-38
-0.015761906 0.11789906 0.66200006 1.6786088e-38
-0.014500954 0.11789906 0.66200006 2.129719e-38
-0.01322 0.11772095 0.66100001 2.341769e-38
-0.011960953 0.11772095 0.66100001 2.3142182e-38
-0.010701905 0.11772095 0.66100001 1.9546553e-38
-0.0094428575 0.11772095 0.66100001 1.5693446e-38
-0.0081590479 0.11736477 0.65900004 1.6523206e-38
-0.0068933335 0.11718668 0.65800005 1.7074935e-38
-0.0056400001 0.11718668 0.65800005 1.7443718e-38
-0.0043866672 0.11718668 0.65800005 1.7718866e-38
-0.0031285714 0.11700857 0.65700001 1.762667e-38
-0.0018771428 0.11700857 0.65700001 1.762703e-38
-0.0006266667 0.11718668 0.65800005 1.7811421e-38
0.0006266667 0.11718668 0.65800005 1.7811421e-38
0.0018800002 0.11718668 0.65800005 1.7073856e-38
0.0031380954 0.11736477 0.65900004 1.8727254e-38
0.0043933336 0.11736477 0.65900004 2.0846656e-38
0.0056657144 0.11772095 0.66100001 2.3326213e-38
0.0069247619 0.11772095 0.66100001 2.3326213e-38
0.0081961909 0.11789906 0.66200006 2.2591169e-38
0.009457144 0.11789906 0.66200006 1.180428e-38
0.010718096 0.11789906 0.66200006 2.1748923e-39
0.011979048 0.11789906 0.66200006 4.7563699e-39
0.013260001 0.11807715 0.66300005 8.2410825e-39
0.014544763 0.11825524 0.66400003 8.2410825e-39
0.015857141 0.11861143 0.66600001 7.3194891e-39
0.017151428 0.11878953 0.66700006 6.858511e-39
0.018449524 0.11896762 0.66800004 1.2003499e-38
0.019780952 0.11932381 0.67000002 1.9652795e-38
0.02108857 0.1195019 0.671 2.2774842e-38
0.022400003 0.11968001 0.67200005 1.7888473e-38
0.023680001 0.11968001 0.67200005 1.7982467e-38
0.025034286 0.12003619 0.67400002 2.1301509e-38
0.026474288 0.12074857 0.67800003 2.1299724e-38
0.027847618 0.12110476 0.68000001 1.6689943e-38
0.029228574 0.12146095 0.68200004 1.5218731e-38
0.03052762 0.12146095 0.68200004 1.6601665e-38
0.031826667 0.12146095 0.68200004 1.7518614e-38
-0.039620955 0.12276001 0.68200004 1.401337e-38
-0.038321909 0.12276001 0.68200004 1.3183947e-38
-0.036860004 0.12222001 0.67900002 1.4659077e-38
-0.035409529 0.12168001 0.67600006 1.7423179e-38
-0.034071431 0.1215 0.67500001 2.1295395e-38
-0.032737143 0.12132 0.67400002 2.1481229e-38
-0.03136 0.12096001 0.67200005 2.0282685e-38
-0.030035239 0.12078 0.671 1.9823127e-38
-0.028757142 0.12078 0.671 2.0929474e-38
-0.027438097 0.1206 0.67000002 2.0747276e-38
-0.026083812 0.12024 0.66800004 1.622969e-38
-0.024774287 0.12006001 0.66700006 1.2178143e-38
-0.023468571 0.11988 0.66600001 1.3376686e-38
-0.022133335 0.11952001 0.66400003 1.4938216e-38
-0.020837145 0.11934 0.66300005 1.5399194e-38
-0.019574286 0.11934 0.66300005 1.4847828e-38
-0.01831143 0.11934 0.66300005 1.438685e-38
-0.017048571 0.11934 0.66300005 1.2915682e-38
-0.015785715 0.11934 0.66300005 1.7709855e-38
-0.014500954 0.11916001 0.66200006 2.1297909e-38
-0.01322 0.11898 0.66100001 2.3326213e-38
-0.011960953 0.11898 0.66100001 2.3050705e-38
-0.010701905 0.11898 0.66100001 2.0192641e-38
-0.0094428575 0.11898 0.66100001 1.5969318e-38
-0.0081590479 0.11862001 0.65900004 1.6614687e-38
-0.00690381 0.11862001 0.65900004 1.6982737e-38
-0.0056400001 0.11844 0.65800005 1.7443715e-38
-0.0043866672 0.11844 0.65800005 1.7811058e-38
-0.0031333335 0.11844 0.65800005 1.7811058e-38
-0.0018800002 0.11844 0.65800005 1.7718866e-38
-0.0006266667 0.11844 0.65800005 1.7811061e-38
0.0006266667 0.11844 0.65800005 1.7534834e-38
0.0018828572 0.11862001 0.65900004 1.6889465e-38
0.0031476191 0.11898 0.66100001 1.8542863e-38
0.0044066664 0.11898 0.66100001 2.0662985e-38
0.0056657144 0.11898 0.66100001 2.3234018e-38
0.0069352384 0.11916001 0.66200006 2.3326213e-38
0.0081961909 0.11916001 0.66200006 2.2499336e-38
0.009457144 0.11916001 0.66200006 1.567686e-38
0.010734286 0.11934 0.66300005 4.8403119e-39
0.011997144 0.11934 0.66300005 5.2090944e-39
0.013280001 0.11952001 0.66400003 6.9525017e-39
0.014588571 0.11988 0.66600001 6.8603061e-39
0.015857141 0.11988 0.66600001 6.1241661e-39
0.017177144 0.12024 0.66800004 8.5212525e-39
0.018449524 0.12024 0.66800004 1.8168346e-38
0.019780952 0.1206 0.67000002 2.2040518e-38
0.021120002 0.12096001 0.67200005 2.2498618e-38
0.022400003 0.12096001 0.67200005 1.632151e-38
0.023750478 0.12132 0.67400002 1.4856094e-38
0.025034286 0.12132 0.67400002 1.8359528e-38
0.026357144 0.1215 0.67500001 2.0563957e-38
0.027847618 0.1224 0.68000001 1.5954175e-38
0.029228574 0.12276001 0.68200004 1.3560276e-38
0.03052762 0.12276001 0.68200004 1.6602731e-38
0.031826667 0.12276001 0.68200004 1.7794119e-38
-0.039620955 0.12405905 0.68200004 1.4382503e-38
-0.038321909 0.12405905 0.68200004 1.3184681e-38
-0.036860004 0.12351334 0.67900002 1.3645659e-38
-0.035514288 0.12333143 0.67800003 1.6410103e-38
-0.034071431 0.12278572 0.67500001 2.0927689e-38
-0.032737143 0.12260382 0.67400002 1.9824579e-38
-0.03136 0.12224001 0.67200005 1.6966514e-38
-0.030035239 0.12205809 0.671 1.59574e-38
-0.028757142 0.12205809 0.671 1.8446682e-38
-0.027438097 0.12187619 0.67000002 2.0930942e-38
-0.026083812 0.12151238 0.66800004 2.1207528e-38
-0.024774287 0.12133048 0.66700006 1.8350193e-38
-0.023468571 0.12114857 0.66600001 1.3740411e-38
-0.0222 0.12114857 0.66600001 1.300572e-38
-0.020868571 0.12078477 0.66400003 1.3835481e-38
-0.019574286 0.12060287 0.66300005 1.3465254e-38
-0.01831143 0.12060287 0.66300005 1.3373058e-38
-0.017048571 0.12060287 0.66300005 1.4568779e-38
-0.015785715 0.12060287 0.66300005 2.2589737e-38
-0.014522858 0.12060287 0.66300005 2.341769e-38
-0.013240001 0.12042096 0.66200006 2.341769e-38
-0.011979048 0.12042096 0.66200006 2.3326213e-38
-0.010718096 0.12042096 0.66200006 2.2957431e-38
-0.009457144 0.12042096 0.66200006 1.9649566e-38
-0.0081838099 0.12023905 0.66100001 1.7713458e-38
-0.00690381 0.11987524 0.65900004 1.6063307e-38
-0.0056485715 0.11987524 0.65900004 1.7077455e-38
-0.0043933336 0.11987524 0.65900004 1.7810698e-38
-0.0031380954 0.11987524 0.65900004 1.7902894e-38
-0.0018828572 0.11987524 0.65900004 1.762667e-38
-0.0006276191 0.11987524 0.65900004 1.7442279e-38
0.0006276191 0.11987524 0.65900004 1.7441916e-38
0.0018885714 0.12023905 0.66100001 1.7718503e-38
0.0031476191 0.12023905 0.66100001 2.111821e-38
0.0044066664 0.12023905 0.66100001 2.240786e-38
0.0056657144 0.12023905 0.66100001 2.341769e-38
0.0069352384 0.12042096 0.66200006 2.341769e-38
0.0081961909 0.12042096 0.66200006 2.3326213e-38
0.0094714295 0.12060287 0.66300005 2.3049626e-38
0.010734286 0.12060287 0.66300005 1.8270958e-38
0.011997144 0.12060287 0.66300005 1.2462636e-38
0.013280001 0.12078477 0.66400003 2.0812954e-39
0.014588571 0.12114857 0.66600001 1.5281216e-39
0.015857141 0.12114857 0.66600001 8.8799569e-39
0.017177144 0.12151238 0.66800004 1.7265072e-38
0.018504761 0.12187619 0.67000002 2.2774842e-38
0.019780952 0.12187619 0.67000002 2.2498255e-38
0.021120002 0.12224001 0.67200005 2.0565374e-38
0.022400003 0.12224001 0.67200005 1.5955592e-38
0.023750478 0.12260382 0.67400002 1.4030312e-38
0.025034286 0.12260382 0.67400002 1.5136659e-38
0.026318096 0.12260382 0.67400002 1.7525817e-38
0.027847618 0.12369524 0.68000001 1.4483361e-38
0.029228574 0.12405905 0.68200004 1.3375216e-38
0.03052762 0.12405905 0.68200004 1.6602063e-38
0.031826667 0.12405905 0.68200004 1.7978867e-38
-0.038153335 0.12480666 0.67900002 1.3186113e-38
-0.036860004 0.12480666 0.67900002 1.2540744e-38
-0.035514288 0.12462286 0.67800003 1.5858001e-38
-0.034121908 0.12425525 0.67600006 2.0191196e-38
-0.032785714 0.12407143 0.67500001 1.7801685e-38
-0.03136 0.12352001 0.67200005 1.4298251e-38
-0.030035239 0.1233362 0.671 1.310869e-38
-0.028757142 0.1233362 0.671 1.4952603e-38
-0.027438097 0.12315238 0.67000002 2.0192288e-38
-0.026083812 0.12278477 0.66800004 2.2128396e-38
-0.024774287 0.12260097 0.66700006 2.12983e-38
-0.023503812 0.12260097 0.66700006 1.4568021e-38
-0.0222 0.12241714 0.66600001 1.2452168e-38
-0.020868571 0.12204953 0.66400003 1.3005342e-38
-0.019603811 0.12204953 0.66400003 1.3096474e-38
-0.018339047 0.12204953 0.66400003 1.4755995e-38
-0.017074287 0.12204953 0.66400003 1.9544395e-38
-0.015809525 0.12204953 0.66400003 2.3509167e-38
-0.014544763 0.12204953 0.66400003 2.341769e-38
-0.013240001 0.12168191 0.66200006 2.341769e-38
-0.011979048 0.12168191 0.66200006 2.3325847e-38
-0.010734286 0.12186572 0.66300005 2.3418043e-38
-0.009457144 0.12168191 0.66200006 2.1948323e-38
-0.0081838099 0.1214981 0.66100001 1.927465e-38
-0.0069247619 0.1214981 0.66100001 1.505204e-38
-0.0056657144 0.1214981 0.66100001 1.6066188e-38
-0.0044066664 0.1214981 0.66100001 1.7441916e-38
-0.0031476191 0.1214981 0.66100001 1.7718503e-38
-0.0018885714 0.1214981 0.66100001 1.7442992e-38
-0.00062952383 0.1214981 0.66100001 1.7166405e-38
0.00062952383 0.1214981 0.66100001 1.7533748e-38
0.0018885714 0.1214981 0.66100001 1.8732287e-38
0.0031523814 0.12168191 0.66200006 2.3142182e-38
0.0044133337 0.12168191 0.66200006 2.3234378e-38
0.0056742863 0.12168191 0.66200006 2.341769e-38
0.0069352384 0.12168191 0.66200006 2.341769e-38
0.0081961909 0.12168191 0.66200006 2.341769e-38
0.0094714295 0.12186572 0.66300005 2.341769e-38
0.010734286 0.12186572 0.66300005 2.2774842e-38
0.012015239 0.12204953 0.66400003 1.8810429e-38
0.01332 0.12241714 0.66600001 7.7848085e-39
0.014588571 0.12241714 0.66600001 4.0047877e-39
0.015880954 0.12260097 0.66700006 1.0809951e-38
0.017228572 0.12315238 0.67000002 1.9101782e-38
0.018504761 0.12315238 0.67000002 2.2774842e-38
0.019810477 0.1233362 0.671 1.9916777e-38
0.021120002 0.12352001 0.67200005 1.7158837e-38
0.022400003 0.12352001 0.67200005 1.540712e-38
0.023750478 0.12388762 0.67400002 1.3205233e-38
0.025034286 0.12388762 0.67400002 1.3758407e-38
0.026318096 0.12388762 0.67400002 1.6698597e-38
0.027970478 0.12554191 0.68300003 1.4024924e-38
0.029228574 0.1253581 0.68200004 1.3652496e-38
0.03052762 0.1253581 0.68200004 1.6602757e-38
0.031826667 0.1253581 0.68200004 1.7610447e-38
-0.03854667 0.1274 0.68600005 1.3094303e-38
-0.036805719 0.12591429 0.67800003 1.1250391e-38
-0.035514288 0.12591429 0.67800003 1.3003206e-38
-0.03422286 0.12591429 0.67800003 1.7889575e-38
-0.032834288 0.12554286 0.67600006 1.6419817e-38
-0.031500001 0.12535714 0.67500001 1.4022731e-38
-0.030080002 0.1248 0.67200005 1.2925053e-38
-0.028800001 0.1248 0.67200005 1.3754814e-38
-0.027479049 0.12461428 0.671 1.697048e-38
-0.026161905 0.12442858 0.67000002 2.1488066e-38
-0.02481143 0.12405715 0.66800004 2.2313513e-38
-0.023503812 0.12387145 0.66700006 1.8256905e-38
-0.022233333 0.12387145 0.66700006 1.4574125e-38
-0.020931428 0.12368571 0.66600001 1.4389734e-38
-0.019662857 0.12368571 0.66600001 1.8256903e-38
-0.018394286 0.12368571 0.66600001 2.2958873e-38
-0.017074287 0.12331429 0.66400003 2.341769e-38
-0.015809525 0.12331429 0.66400003 2.341769e-38
-0.014544763 0.12331429 0.66400003 2.3326213e-38
-0.013280001 0.12331429 0.66400003 2.1297909e-38
-0.011997144 0.12312857 0.66300005 2.2404607e-38
-0.010734286 0.12312857 0.66300005 2.3326205e-38
-0.009457144 0.12294286 0.66200006 2.3326213e-38
-0.0081961909 0.12294286 0.66200006 2.2865235e-38
-0.0069247619 0.12275714 0.66100001 1.9925787e-38
-0.0056657144 0.12275714 0.66100001 1.7897483e-38
-0.0044066664 0.12275714 0.66100001 1.6430292e-38
-0.0031476191 0.12275714 0.66100001 1.689127e-38
-0.0018885714 0.12275714 0.66100001 1.7533746e-38
-0.00062952383 0.12275714 0.66100001 1.8179115e-38
0.00062952383 0.12275714 0.66100001 2.1856128e-38
0.0018914287 0.12294286 0.66200006 2.240786e-38
0.0031523814 0.12294286 0.66200006 2.341769e-38
0.0044133337 0.12294286 0.66200006 2.341769e-38
0.0056742863 0.12294286 0.66200006 2.2772323e-38
0.0069457148 0.12312857 0.66300005 2.0559628e-38
0.0082085719 0.12312857 0.66300005 2.2679772e-38
0.0094857151 0.12331429 0.66400003 2.3417333e-38
0.010750476 0.12331429 0.66400003 2.341769e-38
0.012051429 0.12368571 0.66600001 2.3325494e-38
0.01332 0.12368571 0.66600001 2.1029251e-38
0.014610478 0.12387145 0.66700006 1.7525817e-38
0.015904762 0.12405715 0.66800004 1.8723304e-38
0.017228572 0.12442858 0.67000002 2.1856847e-38
0.01853238 0.12461428 0.671 2.2314589e-38
0.019810477 0.12461428 0.671 1.807359e-38
0.021120002 0.1248 0.67200005 1.4861161e-38
0.022466667 0.12517144 0.67400002 1.4584574e-38
0.023785714 0.12535714 0.67500001 1.3940287e-38
0.025071429 0.12535714 0.67500001 1.449346e-38
0.026630478 0.12665714 0.68200004 1.7250679e-38
0.027970478 0.12684287 0.68300003 1.5222375e-38
0.029271429 0.12684287 0.68300003 1.549391e-38
0.030572383 0.12684287 0.68300003 1.7061236e-38
0.031873334 0.12684287 0.68300003 1.7610444e-38
-0.039853338 0.12870668 0.68600005 1.4750935e-38
-0.03854667 0.12870668 0.68600005 1.3372319e-38
-0.037240002 0.12870668 0.68600005 1.2173776e-38
-0.035514288 0.12720571 0.67800003 1.2085909e-38
-0.03422286 0.12720571 0.67800003 1.6880082e-38
-0.032834288 0.12683049 0.67600006 1.5591877e-38
-0.031500001 0.12664287 0.67500001 1.4024551e-38
-0.030080002 0.12608001 0.67200005 1.2834287e-38
-0.028800001 0.12608001 0.67200005 1.3110874e-38
-0.027479049 0.12589237 0.671 1.4764617e-38
-0.026200952 0.12589237 0.671 1.8544638e-38
-0.024885716 0.12570477 0.67000002 2.2221315e-38
-0.02353905 0.12532952 0.66800004 1.9271054e-38
-0.022233333 0.12514192 0.66700006 1.733565e-38
-0.020931428 0.12495428 0.66600001 1.7243454e-38
-0.019662857 0.12495428 0.66600001 2.1205358e-38
-0.018394286 0.12495428 0.66600001 2.3325856e-38
-0.017125715 0.12495428 0.66600001 2.341769e-38
-0.015857141 0.12495428 0.66600001 2.341769e-38
-0.014544763 0.12457906 0.66400003 2.3050705e-38
-0.013280001 0.12457906 0.66400003 1.7703359e-38
-0.012015239 0.12457906 0.66400003 1.7982076e-38
-0.010734286 0.12439144 0.66300005 2.231527e-38
-0.0094714295 0.12439144 0.66300005 2.341769e-38
-0.0081961909 0.12420382 0.66200006 2.341769e-38
-0.0069352384 0.12420382 0.66200006 2.2223829e-38
-0.0056657144 0.12401619 0.66100001 1.9734547e-38
-0.0044066664 0.12401619 0.66100001 1.5694525e-38
-0.0031476191 0.12401619 0.66100001 1.6063307e-38
-0.0018885714 0.12401619 0.66100001 1.7440831e-38
-0.00062952383 0.12401619 0.66100001 1.8915958e-38
0.00063047622 0.12420382 0.66200006 2.3234378e-38
0.0018914287 0.12420382 0.66200006 2.3234378e-38
0.0031523814 0.12420382 0.66200006 2.341769e-38
0.0044133337 0.12420382 0.66200006 2.2864516e-38
0.0056828577 0.12439144 0.66300005 2.0007896e-38
0.0069457148 0.12439144 0.66300005 1.8717158e-38
0.008220952 0.12457906 0.66400003 2.0651821e-38
0.0095142853 0.12495428 0.66600001 2.341769e-38
0.010782857 0.12495428 0.66600001 2.3418043e-38
0.012069525 0.12514192 0.66700006 2.3418043e-38
0.013340001 0.12514192 0.66700006 2.3326213e-38
0.014610478 0.12514192 0.66700006 2.2404257e-38
0.015904762 0.12532952 0.66800004 2.185433e-38
0.017254286 0.12589237 0.671 2.2315307e-38
0.01853238 0.12589237 0.671 2.1116409e-38
0.019810477 0.12589237 0.671 1.7151997e-38
0.021120002 0.12608001 0.67200005 1.3943164e-38
0.022466667 0.12645523 0.67400002 1.3850968e-38
0.023785714 0.12664287 0.67500001 1.4215063e-38
0.025108574 0.12683049 0.67600006 1.5690193e-38
0.026630478 0.1279562 0.68200004 1.7986455e-38
0.027970478 0.12814382 0.68300003 1.6326933e-38
0.029314285 0.12833142 0.68400002 1.5770134e-38
0.030617146 0.12833142 0.68400002 1.6968678e-38
-0.039853338 0.13001333 0.68600005 1.4842778e-38
-0.03854667 0.13001333 0.68600005 1.3647827e-38
-0.037240002 0.13001333 0.68600005 1.2910262e-38
-0.035776194 0.12944476 0.68300003 1.2912468e-38
-0.034273334 0.12868667 0.67900002 1.7891032e-38
-0.032931432 0.12849715 0.67800003 1.6604574e-38
-0.031546671 0.12811811 0.67600006 1.4391879e-38
-0.030169524 0.12773906 0.67400002 1.3018328e-38
-0.028800001 0.12736002 0.67200005 1.3571501e-38
-0.027520001 0.12736002 0.67200005 1.4122142e-38
-0.026200952 0.12717049 0.671 1.5044098e-38
-0.024885716 0.12698095 0.67000002 1.8905149e-38
-0.02353905 0.1266019 0.66800004 2.2499695e-38
-0.022266667 0.1266019 0.66800004 2.332621e-38
-0.020962859 0.12641239 0.66700006 2.332621e-38
-0.019692382 0.12641239 0.66700006 2.3326213e-38
-0.018394286 0.12622285 0.66600001 2.3326213e-38
-0.017125715 0.12622285 0.66600001 2.3326213e-38
-0.015857141 0.12622285 0.66600001 1.9914975e-38
-0.014544763 0.12584381 0.66400003 1.0993315e-38
-0.013280001 0.12584381 0.66400003 7.3054902e-39
-0.012015239 0.12584381 0.66400003 1.0437563e-38
-0.010750476 0.12584381 0.66400003 1.5969301e-38
-0.0094714295 0.1256543 0.66300005 2.2588282e-38
-0.0081961909 0.12546477 0.66200006 2.3418043e-38
-0.0069352384 0.12546477 0.66200006 2.3326213e-38
-0.0056742863 0.12546477 0.66200006 2.3049626e-38
-0.0044066664 0.12527524 0.66100001 2.0936692e-38
-0.0031476191 0.12527524 0.66100001 1.9738149e-38
-0.0018885714 0.12527524 0.66100001 2.1211481e-38
-0.00062952383 0.12527524 0.66100001 2.2224189e-38
0.00063047622 0.12546477 0.66200006 2.341769e-38
0.0018914287 0.12546477 0.66200006 2.341769e-38
0.0031523814 0.12546477 0.66200006 2.341769e-38
0.0044200001 0.1256543 0.66300005 1.7701561e-38
0.0056828577 0.1256543 0.66300005 1.4202471e-38
0.0069561908 0.12584381 0.66400003 1.4110275e-38
0.008220952 0.12584381 0.66400003 1.5397762e-38
0.0095142853 0.12622285 0.66600001 1.8255826e-38
0.010782857 0.12622285 0.66600001 2.1756351e-38
0.012069525 0.12641239 0.66700006 2.3509509e-38
0.013340001 0.12641239 0.66700006 2.341769e-38
0.014610478 0.12641239 0.66700006 2.341769e-38
0.015904762 0.1266019 0.66800004 2.3234378e-38
0.017254286 0.12717049 0.671 2.1206074e-38
0.01853238 0.12717049 0.671 1.8081146e-38
0.019810477 0.12717049 0.671 1.6329429e-38
0.021120002 0.12736002 0.67200005 1.4403426e-38
0.022499999 0.12792857 0.67500001 1.3665861e-38
0.023820955 0.12811811 0.67600006 1.4766798e-38
0.025368571 0.12944476 0.68300003 1.6702906e-38
0.026708571 0.12963428 0.68400002 1.9272509e-38
0.028011428 0.12963428 0.68400002 1.862714e-38
0.029314285 0.12963428 0.68400002 1.7888476e-38
-0.039853338 0.13132001 0.68600005 1.4659458e-38
-0.03854667 0.13132001 0.68600005 1.4015521e-38
-0.037240002 0.13132001 0.68600005 1.4107717e-38
-0.035828575 0.13093714 0.68400002 1.5491036e-38
-0.034273334 0.12998 0.67900002 1.8533492e-38
-0.032931432 0.12978856 0.67800003 1.6879378e-38
-0.031546671 0.12940572 0.67600006 1.4851075e-38
-0.030214285 0.12921429 0.67500001 1.320163e-38
-0.02892857 0.12921429 0.67500001 1.4031391e-38
-0.027601905 0.12902285 0.67400002 1.3571852e-38
-0.026240002 0.12864001 0.67200005 1.3203069e-38
-0.024922857 0.12844858 0.671 1.6604214e-38
-0.023609525 0.12825714 0.67000002 2.11218e-38
-0.022266667 0.12787428 0.66800004 2.3326213e-38
-0.020962859 0.12768286 0.66700006 2.3326213e-38
-0.019692382 0.12768286 0.66700006 2.3326213e-38
-0.018421907 0.12768286 0.66700006 2.3326213e-38
-0.017125715 0.12749143 0.66600001 2.1671015e-38
-0.015857141 0.12749143 0.66600001 1.5217321e-38
-0.014588571 0.12749143 0.66600001 6.9510598e-39
-0.01332 0.12749143 0.66600001 6.397886e-39
-0.012015239 0.12710857 0.66400003 7.044298e-39
-0.010750476 0.12710857 0.66400003 9.3491887e-39
-0.0094714295 0.12691715 0.66300005 1.8812212e-38
-0.0081961909 0.12672572 0.66200006 2.2591515e-38
-0.0069352384 0.12672572 0.66200006 2.3417687e-38
-0.0056742863 0.12672572 0.66200006 2.3417687e-38
-0.0044133337 0.12672572 0.66200006 2.2683365e-38
-0.0031523814 0.12672572 0.66200006 2.0839452e-38
-0.0018914287 0.12672572 0.66200006 2.2867034e-38
-0.00063047622 0.12672572 0.66200006 2.2958871e-38
0.00063142861 0.12691715 0.66300005 2.341769e-38
0.0018942858 0.12691715 0.66300005 2.341769e-38
0.003157143 0.12691715 0.66300005 2.1022048e-38
0.0044200001 0.12691715 0.66300005 1.613568e-38
0.0056914287 0.12710857 0.66400003 1.4847822e-38
0.0069561908 0.12710857 0.66400003 1.5493192e-38
0.008245714 0.12749143 0.66600001 1.5031485e-38
0.0095142853 0.12749143 0.66600001 1.4201724e-38
0.010799048 0.12768286 0.66700006 1.7699368e-38
0.012069525 0.12768286 0.66700006 2.2401345e-38
0.013340001 0.12768286 0.66700006 2.3418043e-38
0.014632382 0.12787428 0.66800004 2.3418043e-38
0.01595238 0.12825714 0.67000002 2.3326213e-38
0.017254286 0.12844858 0.671 1.9085214e-38
0.01856 0.12864001 0.67200005 1.5964978e-38
0.01984 0.12864001 0.67200005 1.5872782e-38
0.021182857 0.12902285 0.67400002 1.4495621e-38
0.022600001 0.12978856 0.67800003 1.3665861e-38
0.023926668 0.12998 0.67900002 1.5041227e-38
0.025368571 0.13074572 0.68300003 1.6977335e-38
0.026708571 0.13093714 0.68400002 2.0101178e-38
0.028011428 0.13093714 0.68400002 1.899483e-38
0.029314285 0.13093714 0.68400002 1.8716432e-38
0.030751429 0.13151143 0.68700004 1.8071062e-38
-0.03854667 0.13262668 0.68600005 1.4382869e-38
-0.037240002 0.13262668 0.68600005 1.6411172e-38
-0.035828575 0.13224 0.68400002 1.742534e-38
-0.034273334 0.13127334 0.67900002 1.9822426e-38
-0.032931432 0.13108 0.67800003 1.7706971e-38
-0.031546671 0.13069335 0.67600006 1.5402081e-38
-0.030214285 0.1305 0.67500001 1.3109434e-38
-0.02892857 0.1305 0.67500001 1.3939195e-38
-0.027601905 0.13030668 0.67400002 1.4031754e-38
-0.026240002 0.12992002 0.67200005 1.3847362e-38
-0.024960002 0.12992002 0.67200005 1.5317448e-38
-0.023644762 0.12972666 0.671 1.7898925e-38
-0.022333333 0.12953334 0.67000002 2.2865585e-38
-0.020962859 0.12895335 0.66700006 2.3326205e-38
-0.019692382 0.12895335 0.66700006 2.3326213e-38
-0.018421907 0.12895335 0.66700006 1.6872519e-38
-0.017151428 0.12895335 0.66700006 1.0350753e-38
-0.015880954 0.12895335 0.66700006 8.9678183e-39
-0.014588571 0.12876 0.66600001 7.8726559e-39
-0.01332 0.12876 0.66600001 8.3336341e-39
-0.012051429 0.12876 0.66600001 9.1601521e-39
-0.010782857 0.12876 0.66600001 8.6069784e-39
-0.0094857151 0.12837334 0.66400003 1.3110829e-38
-0.0082085719 0.12818 0.66300005 1.5323524e-38
-0.0069457148 0.12818 0.66300005 2.1297541e-38
-0.0056828577 0.12818 0.66300005 2.341804e-38
-0.0044200001 0.12818 0.66300005 2.341769e-38
-0.003157143 0.12818 0.66300005 2.3141103e-38
-0.0018942858 0.12818 0.66300005 2.341769e-38
-0.00063142861 0.12818 0.66300005 2.341769e-38
0.00063238095 0.12837334 0.66400003 2.341769e-38
0.001897143 0.12837334 0.66400003 1.7332778e-38
0.0031619049 0.12837334 0.66400003 1.6044558e-38
0.004426667 0.12837334 0.66400003 1.6228949e-38
0.0056914287 0.12837334 0.66400003 1.622968e-38
0.0069771428 0.12876 0.66600001 1.6414072e-38
0.008245714 0.12876 0.66600001 1.6413356e-38
0.0095285727 0.12895335 0.66700006 1.5399204e-38
0.010799048 0.12895335 0.66700006 1.4753825e-38
0.012087619 0.12914667 0.66800004 1.7243107e-38
0.01336 0.12914667 0.66800004 2.3141065e-38
0.014632382 0.12914667 0.66800004 2.3509851e-38
0.01595238 0.12953334 0.67000002 2.3326213e-38
0.017280001 0.12992002 0.67200005 1.8255454e-38
0.01856 0.12992002 0.67200005 1.449527e-38
0.019899048 0.13030668 0.67400002 1.4864052e-38
0.021214286 0.1305 0.67500001 1.4127555e-38
0.022666667 0.13146667 0.68000001 1.3850968e-38
0.024032382 0.13185334 0.68200004 1.6881529e-38
0.025405714 0.13224 0.68400002 1.6973725e-38
0.026708571 0.13224 0.68400002 1.8532401e-38
0.028093336 0.13262668 0.68600005 1.8716792e-38
0.029400002 0.13262668 0.68600005 1.8716066e-38
0.030751429 0.13282001 0.68700004 1.8347283e-38
0.032060001 0.13282001 0.68700004 1.8163265e-38
-0.038602859 0.13412857 0.68700004 1.4290663e-38
-0.037294287 0.13412857 0.68700004 1.668775e-38
-0.035933334 0.13393334 0.68600005 1.8253303e-38
-0.034273334 0.13256668 0.67900002 1.9267455e-38
-0.032931432 0.13237143 0.67800003 1.7522928e-38
-0.031546671 0.13198097 0.67600006 1.5955602e-38
-0.03025905 0.13198097 0.67600006 1.3385302e-38
-0.02897143 0.13198097 0.67600006 1.4030672e-38
-0.027642857 0.13178571 0.67500001 1.4308331e-38
-0.026318096 0.13159047 0.67400002 1.4216135e-38
-0.024960002 0.1312 0.67200005 1.4031401e-38
-0.023644762 0.13100477 0.671 1.5690922e-38
-0.022366667 0.13100477 0.671 2.1023487e-38
-0.020994287 0.13041905 0.66800004 2.2867037e-38
-0.019721907 0.13041905 0.66800004 2.1855046e-38
-0.018449524 0.13041905 0.66800004 1.1897918e-38
-0.017151428 0.13022383 0.66700006 5.6602971e-39
-0.015880954 0.13022383 0.66700006 7.4120141e-39
-0.014588571 0.13002858 0.66600001 8.6084161e-39
-0.01332 0.13002858 0.66600001 9.2537855e-39
-0.012051429 0.13002858 0.66600001 9.3448993e-39
-0.010782857 0.13002858 0.66600001 8.8839212e-39
-0.0094857151 0.12963811 0.66400003 7.5052887e-39
-0.008220952 0.12963811 0.66400003 7.5052887e-39
-0.0069561908 0.12963811 0.66400003 1.7337795e-38
-0.0056914287 0.12963811 0.66400003 2.2499674e-38
-0.004426667 0.12963811 0.66400003 2.341769e-38
-0.003157143 0.12944287 0.66300005 2.341769e-38
-0.0018942858 0.12944287 0.66300005 2.341769e-38
-0.00063142861 0.12944287 0.66300005 2.341769e-38
0.00063238095 0.12963811 0.66400003 2.0652547e-38
0.001897143 0.12963811 0.66400003 1.6134961e-38
0.0031619049 0.12963811 0.66400003 1.5585027e-38
0.004426667 0.12963811 0.66400003 1.6599179e-38
0.0057085715 0.13002858 0.66600001 1.6597747e-38
0.0069771428 0.13002858 0.66600001 1.6505551e-38
0.0082580959 0.13022383 0.66700006 1.6689943e-38
0.0095285727 0.13022383 0.66700006 1.6136769e-38
0.010815239 0.13041905 0.66800004 1.3468112e-38
0.01212381 0.13080953 0.67000002 1.540422e-38
0.013400001 0.13080953 0.67000002 2.0376303e-38
0.014676191 0.13080953 0.67000002 2.3326205e-38
0.015976191 0.13100477 0.671 2.3050705e-38
0.017331429 0.13159047 0.67400002 1.7979946e-38
0.018615238 0.13159047 0.67400002 1.3852055e-38
0.019928573 0.13178571 0.67500001 1.4128642e-38
0.021308571 0.13237143 0.67800003 1.4126826e-38
0.022666667 0.1327619 0.68000001 1.468e-38
0.024032382 0.1331524 0.68200004 1.8261247e-38
0.025405714 0.13354285 0.68400002 1.6232943e-38
0.026708571 0.13354285 0.68400002 1.6870686e-38
0.028093336 0.13393334 0.68600005 1.7700447e-38
0.029442858 0.13412857 0.68700004 1.8899741e-38
0.030796193 0.13432382 0.68800002 1.8530959e-38
0.032200001 0.13471429 0.69000006 1.8255461e-38
-0.038602859 0.13543716 0.68700004 1.4658379e-38
-0.037294287 0.13543716 0.68700004 1.6871074e-38
-0.035933334 0.13524002 0.68600005 1.5031147e-38
-0.034525711 0.1348457 0.68400002 1.3740408e-38
-0.032980002 0.13386001 0.67900002 1.3562854e-38
-0.031640001 0.13366286 0.67800003 1.7066288e-38
-0.03025905 0.13326858 0.67600006 1.5778053e-38
-0.02897143 0.13326858 0.67600006 1.457951e-38
-0.027683811 0.13326858 0.67600006 1.3662974e-38
-0.026357144 0.13307144 0.67500001 1.4123952e-38
-0.025034286 0.1328743 0.67400002 1.366406e-38
-0.023680001 0.13248 0.67200005 1.4954799e-38
-0.022400003 0.13248 0.67200005 2.0654705e-38
-0.02108857 0.13228285 0.671 2.2867037e-38
-0.019780952 0.13208571 0.67000002 2.1117115e-38
-0.018504761 0.13208571 0.67000002 1.0238031e-38
-0.017177144 0.13169144 0.66800004 3.55098e-39
-0.015880954 0.1314943 0.66700006 6.2246533e-39
-0.014610478 0.1314943 0.66700006 9.0686726e-39
-0.013340001 0.1314943 0.66700006 9.4374551e-39
-0.012069525 0.1314943 0.66700006 9.3452595e-39
-0.010782857 0.13129714 0.66600001 9.3452595e-39
-0.0095142853 0.13129714 0.66600001 9.2530694e-39
-0.008220952 0.13090287 0.66400003 8.3311131e-39
-0.0069561908 0.13090287 0.66400003 1.1085447e-38
-0.0056914287 0.13090287 0.66400003 1.5971815e-38
-0.004426667 0.13090287 0.66400003 2.341804e-38
-0.0031619049 0.13090287 0.66400003 2.341804e-38
-0.001897143 0.13090287 0.66400003 2.341769e-38
-0.00063238095 0.13090287 0.66400003 1.7701561e-38
0.00063238095 0.13090287 0.66400003 1.5307008e-38
0.0019028571 0.13129714 0.66600001 1.632116e-38
0.0031714286 0.13129714 0.66600001 1.6874687e-38
0.0044400003 0.13129714 0.66600001 1.7059078e-38
0.005717143 0.1314943 0.66700006 1.6505914e-38
0.0069876197 0.1314943 0.66700006 1.6505914e-38
0.0082580959 0.1314943 0.66700006 1.6506267e-38
0.0095285727 0.1314943 0.66700006 1.6045289e-38
0.010815239 0.13169144 0.66800004 1.4113494e-38
0.01212381 0.13208571 0.67000002 1.5773016e-38
0.013400001 0.13208571 0.67000002 2.0283767e-38
0.014698096 0.13228285 0.671 2.323402e-38
0.016000001 0.13248 0.67200005 2.3050705e-38
0.017331429 0.1328743 0.67400002 1.8072141e-38
0.018642858 0.13307144 0.67500001 1.3116301e-38
0.019928573 0.13307144 0.67500001 1.3300692e-38
0.021308571 0.13366286 0.67800003 1.4401265e-38
0.022666667 0.13405713 0.68000001 1.6429569e-38
0.024032382 0.13445143 0.68200004 1.9274319e-38
0.025405714 0.1348457 0.68400002 1.5217712e-38
0.026708571 0.1348457 0.68400002 1.355916e-38
0.028011428 0.1348457 0.68400002 1.503429e-38
0.029442858 0.13543716 0.68700004 1.8255814e-38
0.030796193 0.13563429 0.68800002 1.8348009e-38
0.032200001 0.13602859 0.69000006 1.8347296e-38
-0.037348572 0.13694477 0.68800002 1.6317182e-38
-0.035985716 0.13674572 0.68700004 1.2918544e-38
-0.034677144 0.13674572 0.68700004 9.9682838e-39
-0.033222858 0.13614857 0.68400002 1.1725724e-38
-0.031733334 0.13535237 0.68000001 1.6980875e-38
-0.030393332 0.13515334 0.67900002 1.7341083e-38
-0.029100001 0.13515334 0.67900002 1.5036192e-38
-0.027806668 0.13515334 0.67900002 1.3294542e-38
-0.026474288 0.13495429 0.67800003 1.3939911e-38
-0.025108574 0.1345562 0.67600006 1.3203798e-38
-0.023820955 0.1345562 0.67600006 1.5139906e-38
-0.022499999 0.13435714 0.67500001 2.0286651e-38
-0.021182857 0.1341581 0.67400002 2.2683366e-38
-0.019899048 0.1341581 0.67400002 1.9279346e-38
-0.01853238 0.13356096 0.671 9.1378266e-39
-0.017254286 0.13356096 0.671 4.1009112e-39
-0.015976191 0.13356096 0.671 6.5901932e-39
-0.014632382 0.13296382 0.66800004 9.3448993e-39
-0.01336 0.13296382 0.66800004 9.437095e-39
-0.012087619 0.13296382 0.66800004 9.437095e-39
-0.010815239 0.13296382 0.66800004 9.5292906e-39
-0.0095285727 0.13276477 0.66700006 9.2537855e-39
-0.0082580959 0.13276477 0.66700006 8.7928073e-39
-0.0069876197 0.13276477 0.66700006 7.0461084e-39
-0.0057085715 0.13256571 0.66600001 9.3509992e-39
-0.0044400003 0.13256571 0.66600001 2.1116039e-38
-0.0031714286 0.13256571 0.66600001 2.2867037e-38
-0.0019028571 0.13256571 0.66600001 2.341769e-38
-0.00063428574 0.13256571 0.66600001 1.6410822e-38
0.00063428574 0.13256571 0.66600001 1.4296083e-38
0.0019057144 0.13276477 0.66700006 1.6232192e-38
0.0031761907 0.13276477 0.66700006 1.6874331e-38
0.0044533336 0.13296382 0.66800004 1.6874331e-38
0.0057257148 0.13296382 0.66800004 1.6414437e-38
0.0069980957 0.13296382 0.66800004 1.6414437e-38
0.008295238 0.13336191 0.67000002 1.6322242e-38
0.0095714284 0.13336191 0.67000002 1.5400286e-38
0.010863809 0.13356096 0.671 1.3929103e-38
0.012141905 0.13356096 0.671 1.7801319e-38
0.013440001 0.13376001 0.67200005 2.1205721e-38
0.014720001 0.13376001 0.67200005 2.323402e-38
0.016000001 0.13376001 0.67200005 2.3050705e-38
0.017382858 0.1345562 0.67600006 2.0100445e-38
0.018670477 0.1345562 0.67600006 1.477115e-38
0.020017143 0.13495429 0.67800003 1.3572607e-38
0.021340001 0.13515334 0.67900002 1.5043022e-38
0.022666667 0.13535237 0.68000001 1.8177673e-38
0.024032382 0.13575049 0.68200004 2.0747266e-38
0.025405714 0.13614857 0.68400002 1.3002833e-38
0.026708571 0.13614857 0.68400002 1.189531e-38
0.028011428 0.13614857 0.68400002 1.6044114e-38
0.029314285 0.13614857 0.68400002 1.8347293e-38
-0.035723813 0.13704953 0.68200004 1.2272096e-38
-0.031826667 0.13704953 0.68200004 1.6336995e-38
-0.030438095 0.13664761 0.68000001 1.8261244e-38
-0.029142857 0.13664761 0.68000001 1.5864157e-38
-0.027806668 0.13644667 0.67900002 1.3201996e-38
-0.026474288 0.13624573 0.67800003 1.3478583e-38
-0.025182858 0.13624573 0.67800003 1.5501473e-38
-0.023820955 0.13584383 0.67600006 1.9281494e-38
-0.022533335 0.13584383 0.67600006 2.3049989e-38
-0.021214286 0.13564286 0.67500001 2.3234379e-38
-0.019899048 0.13544191 0.67400002 2.3050705e-38
-0.01856 0.13504 0.67200005 1.5490664e-38
-0.017254286 0.13483904 0.671 2.6308566e-39
-0.015976191 0.13483904 0.671 4.3825736e-39
-0.014698096 0.13483904 0.671 8.5173093e-39
-0.013400001 0.1346381 0.67000002 8.9782874e-39
-0.01212381 0.1346381 0.67000002 9.3452595e-39
-0.010815239 0.1342362 0.66800004 9.4374551e-39
-0.0095428573 0.1342362 0.66800004 9.4374579e-39
-0.0082704769 0.1342362 0.66800004 9.160871e-39
-0.0069876197 0.13403524 0.66700006 6.3114413e-39
-0.005717143 0.13403524 0.66700006 7.6943757e-39
-0.0044400003 0.13383429 0.66600001 2.028808e-38
-0.0031714286 0.13383429 0.66600001 2.2499695e-38
-0.0019057144 0.13403524 0.66700006 2.341769e-38
-0.00063523813 0.13403524 0.66700006 1.539667e-38
0.00063523813 0.13403524 0.66700006 1.3469572e-38
0.0019057144 0.13403524 0.66700006 1.5497876e-38
0.0031761907 0.13403524 0.66700006 1.6690659e-38
0.0044666668 0.1346381 0.67000002 1.6598463e-38
0.0057257148 0.1342362 0.66800004 1.6321523e-38
0.0069980957 0.1342362 0.66800004 1.6413719e-38
0.008295238 0.1346381 0.67000002 1.5769075e-38
0.0095857149 0.13483904 0.671 1.4109554e-38
0.010863809 0.13483904 0.671 1.5216598e-38
0.01216 0.13504 0.67200005 2.2499694e-38
0.013440001 0.13504 0.67200005 2.341769e-38
0.01476381 0.13544191 0.67400002 2.341769e-38
0.016071428 0.13564286 0.67500001 2.3234378e-38
0.017434288 0.13624573 0.67800003 2.3142182e-38
0.018725716 0.13624573 0.67800003 2.0567204e-38
0.020017143 0.13624573 0.67800003 1.7248161e-38
0.021340001 0.13644667 0.67900002 1.789496e-38
0.022666667 0.13664761 0.68000001 1.9923264e-38
0.024032382 0.13704953 0.68200004 2.0194783e-38
0.025405714 0.13745143 0.68400002 1.1804981e-38
0.026708571 0.13745143 0.68400002 1.0518596e-38
0.028093336 0.13785335 0.68600005 1.5312769e-38
0.029400002 0.13785335 0.68600005 1.8071788e-38
-0.031733334 0.13794285 0.68000001 1.5873082e-38
-0.030438095 0.13794285 0.68000001 1.8355215e-38
-0.029142857 0.13794285 0.68000001 1.614252e-38
-0.027806668 0.13774 0.67900002 1.3752643e-38
-0.026474288 0.13753714 0.67800003 1.4121426e-38
-0.025182858 0.13753714 0.67800003 1.761659e-38
-0.023820955 0.13713144 0.67600006 2.1304399e-38
-0.022533335 0.13713144 0.67600006 2.3234018e-38
-0.021214286 0.13692857 0.67500001 2.3326213e-38
-0.019899048 0.13672572 0.67400002 2.2683365e-38
-0.018615238 0.13672572 0.67400002 1.9364322e-38
-0.017280001 0.13632001 0.67200005 8.4248082e-39
-0.015976191 0.13611715 0.671 6.8574824e-39
-0.014698096 0.13611715 0.671 6.6780728e-39
-0.013400001 0.1359143 0.67000002 7.9688116e-39
-0.01212381 0.1359143 0.67000002 9.5289234e-39
-0.010847619 0.1359143 0.67000002 9.6211191e-39
-0.0095428573 0.13550858 0.66800004 9.0693942e-39
-0.0082704769 0.13550858 0.66800004 8.3318292e-39
-0.0069980957 0.13550858 0.66800004 3.7375419e-39
-0.005717143 0.13530573 0.66700006 8.2551277e-39
-0.0044466672 0.13530573 0.66700006 2.0564667e-38
-0.0031761907 0.13530573 0.66700006 2.2499695e-38
-0.0019057144 0.13530573 0.66700006 2.3326213e-38
-0.00063523813 0.13530573 0.66700006 1.6964715e-38
0.00063619053 0.13550858 0.66800004 1.4203554e-38
0.0019085716 0.13550858 0.66800004 1.5494293e-38
0.0031809525 0.13550858 0.66800004 1.6322236e-38
0.0044666668 0.1359143 0.67000002 1.6506627e-38
0.0057428572 0.1359143 0.67000002 1.6229327e-38
0.0070190481 0.1359143 0.67000002 1.595274e-38
0.0083076181 0.13611715 0.671 1.4940386e-38
0.0095857149 0.13611715 0.671 1.5124778e-38
0.010863809 0.13611715 0.671 1.6598862e-38
0.01216 0.13632001 0.67200005 2.2407142e-38
0.01348 0.13672572 0.67400002 2.3234378e-38
0.01476381 0.13672572 0.67400002 2.2589008e-38
0.01609524 0.13713144 0.67600006 2.3050693e-38
0.017434288 0.13753714 0.67800003 2.3234367e-38
0.018725716 0.13753714 0.67800003 2.3050705e-38
0.020046666 0.13774 0.67900002 2.1298988e-38
0.021340001 0.13774 0.67900002 1.8723301e-38
0.022666667 0.13794285 0.68000001 1.8170127e-38
0.024032382 0.13834858 0.68200004 1.8808259e-38
0.025405714 0.13875428 0.68400002 1.244676e-38
0.026708571 0.13875428 0.68400002 1.1161802e-38
0.028134288 0.13936286 0.68700004 1.6324757e-38
0.029442858 0.13936286 0.68700004 1.7888476e-38
-0.031733334 0.13923809 0.68000001 1.0715935e-38
-0.030438095 0.13923809 0.68000001 1.5499293e-38
-0.029142857 0.13923809 0.68000001 1.7896379e-38
-0.027847618 0.13923809 0.68000001 1.908989e-38
-0.026513334 0.13903333 0.67900002 2.0657216e-38
-0.025182858 0.13882858 0.67800003 2.27734e-38
-0.023891428 0.13882858 0.67800003 2.3234378e-38
-0.022533335 0.13841906 0.67600006 2.2035837e-38
-0.021245716 0.13841906 0.67600006 2.0560707e-38
-0.019928573 0.13821429 0.67500001 2.0655809e-38
-0.018615238 0.13800952 0.67400002 2.2315307e-38
-0.017280001 0.1376 0.67200005 1.7809628e-38
-0.016000001 0.1376 0.67200005 1.061837e-38
-0.014698096 0.13739523 0.671 3.1865163e-39
-0.01342 0.13739523 0.671 4.753842e-39
-0.012141905 0.13739523 0.671 7.9652089e-39
-0.010847619 0.13719048 0.67000002 8.3339914e-39
-0.0095714284 0.13719048 0.67000002 7.4131197e-39
-0.008295238 0.13719048 0.67000002 6.2145765e-39
-0.0070190481 0.13719048 0.67000002 1.1365646e-38
-0.0057257148 0.13678096 0.66800004 1.8367098e-38
-0.0044533336 0.13678096 0.66800004 2.3326213e-38
-0.0031809525 0.13678096 0.66800004 2.3326213e-38
-0.0019057144 0.13657621 0.66700006 2.341769e-38
-0.00063523813 0.13657621 0.66700006 2.2864516e-38
0.00063619053 0.13678096 0.66800004 1.7799566e-38
0.0019085716 0.13678096 0.66800004 1.4296132e-38
0.0031809525 0.13678096 0.66800004 1.3745806e-38
0.0044733332 0.13739523 0.671 1.4667762e-38
0.0057428572 0.13719048 0.67000002 1.4940399e-38
