# .PCD v0.7 - Point Cloud Data file format
VERSION 0.7
FIELDS x y z rgb
SIZE 4 4 4 4
TYPE F F F F
COUNT 1 1 1 1
WIDTH 988
HEIGHT 1
VIEWPOINT 0 0 0 1 0 0 0
POINTS 988
DATA ascii
-0.093402863 0.06654191 0.64100003 2.3233299e-38
-0.092181914 0.06654191 0.64100003 2.3233299e-38
-0.090960957 0.06654191 0.64100003 2.3233299e-38
-0.089600012 0.066438094 0.64000005 2.3233299e-38
-0.088104762 0.066230476 0.63800001 2.3233299e-38
-0.08688952 0.066230476 0.63800001 2.3233299e-38
-0.085540004 0.066126674 0.63700002 2.3233299e-38
-0.084194295 0.066022858 0.63600004 2.3233299e-38
-0.082852393 0.065919049 0.63500005 2.3325494e-38
-0.081642859 0.065919049 0.63500005 2.3325494e-38
-0.080306664 0.06581524 0.634 2.3325494e-38
-0.078849532 0.065607622 0.63200003 2.3141103e-38
-0.077522859 0.065503813 0.63100004 2.3141103e-38
-0.076320961 0.065503813 0.63100004 2.2772321e-38
-0.075000003 0.065400004 0.63000005 2.2403538e-38
-0.07368286 0.065296195 0.62900001 2.2403541e-38
-0.072369523 0.065192387 0.62800002 2.2034758e-38
-0.070720002 0.064777143 0.62400001 2.1481229e-38
-0.069420002 0.064673334 0.62300003 2.0835859e-38
-0.068123817 0.064569525 0.62200004 2.0559272e-38
-0.066831432 0.064465716 0.62100005 2.0282685e-38
-0.065648578 0.064465716 0.62100005 2.0283039e-38
-0.064465716 0.064465716 0.62100005 2.1204995e-38
-0.14490002 0.065648578 0.62100005 2.1573427e-38
-0.14371715 0.065648578 0.62100005 2.1296837e-38
-0.14299333 0.065859996 0.62300003 2.102025e-38
-0.14180666 0.065859996 0.62300003 2.0836941e-38
-0.14084572 0.065965712 0.62400001 2.1205724e-38
-0.13988096 0.066071428 0.625 2.1389752e-38
-0.13913429 0.066282853 0.62700003 2.2127317e-38
-0.13816001 0.06638857 0.62800002 2.2127314e-38
-0.13718191 0.066494286 0.62900001 2.2403901e-38
-0.13598381 0.066494286 0.62900001 2.2680125e-38
-0.13478573 0.066494286 0.62900001 2.2772321e-38
-0.13422476 0.066811427 0.63200003 2.2864516e-38
-0.13302097 0.066811427 0.63200003 2.3325494e-38
-0.13223429 0.06702286 0.634 2.3325494e-38
-0.13102667 0.06702286 0.634 2.3325494e-38
-0.13002382 0.067128576 0.63500005 2.3233299e-38
-0.12881429 0.067128576 0.63500005 2.3233299e-38
-0.12760478 0.067128576 0.63500005 2.3233299e-38
-0.12639524 0.067128576 0.63500005 2.3233299e-38
-0.12538287 0.067234285 0.63600004 2.3233299e-38
-0.12436667 0.067340001 0.63700002 2.3233299e-38
-0.12334667 0.067445718 0.63800001 2.3233299e-38
-0.12213144 0.067445718 0.63800001 2.3233299e-38
-0.12129524 0.06765715 0.64000005 2.3233299e-38
-0.12026381 0.067762859 0.64100003 2.3141103e-38
-0.11904286 0.067762859 0.64100003 2.3233299e-38
-0.11782191 0.067762859 0.64100003 2.3233299e-38
-0.11678286 0.067868568 0.64200002 2.3233299e-38
-0.11574 0.067974284 0.64300001 2.3233299e-38
-0.11451524 0.067974284 0.64300001 2.3233299e-38
-0.11329047 0.067974284 0.64300001 2.3233299e-38
-0.11258857 0.068291426 0.64600003 2.3233299e-38
-0.1113581 0.068291426 0.64600003 2.3233299e-38
-0.11012762 0.068291426 0.64600003 2.3233299e-38
-0.10889714 0.068291426 0.64600003 2.3233299e-38
-0.10766667 0.068291426 0.64600003 2.3233299e-38
-0.10610668 0.068080008 0.64400005 2.3233299e-38
-0.10488001 0.068080008 0.64400005 2.3233299e-38
-0.10365334 0.068080008 0.64400005 2.3233299e-38
-0.10242668 0.068080008 0.64400005 2.3233299e-38
-0.10120001 0.068080008 0.64400005 2.3233299e-38
-0.099973343 0.068080008 0.64400005 2.3233299e-38
-0.098746672 0.068080008 0.64400005 2.3141103e-38
-0.097217143 0.067868568 0.64200002 2.3233299e-38
-0.095994294 0.067868568 0.64200002 2.3233299e-38
-0.094919048 0.067974284 0.64300001 2.3233299e-38
-0.093548574 0.067868568 0.64200002 2.3233299e-38
-0.092325717 0.067868568 0.64200002 2.3233299e-38
-0.091102861 0.067868568 0.64200002 2.3233299e-38
-0.089600012 0.06765715 0.64000005 2.3233299e-38
-0.088380955 0.06765715 0.64000005 2.3233299e-38
-0.08688952 0.067445718 0.63800001 2.3233299e-38
-0.085674286 0.067445718 0.63800001 2.3233299e-38
-0.084194295 0.067234285 0.63600004 2.3233299e-38
-0.082982861 0.067234285 0.63600004 2.3233299e-38
-0.081642859 0.067128576 0.63500005 2.3325494e-38
-0.080306664 0.06702286 0.634 2.3325494e-38
-0.079099044 0.06702286 0.634 2.3325494e-38
-0.077645719 0.066811427 0.63200003 2.3048907e-38
-0.076320961 0.066705719 0.63100004 2.2772321e-38
-0.075000003 0.06660001 0.63000005 2.2587929e-38
-0.07368286 0.066494286 0.62900001 2.2772321e-38
-0.072369523 0.06638857 0.62800002 2.194256e-38
-0.070720002 0.065965712 0.62400001 2.157378e-38
-0.069420002 0.065859996 0.62300003 2.1297193e-38
-0.068123817 0.065754294 0.62200004 2.0743664e-38
-0.066831432 0.065648578 0.62100005 2.0282685e-38
-0.065648578 0.065648578 0.62100005 2.0098647e-38
-0.064465716 0.065648578 0.62100005 2.0744017e-38
-0.14679144 0.066616185 0.61900002 2.2218796e-38
-0.14561239 0.066616185 0.61900002 2.1942207e-38
-0.14466666 0.066723809 0.62 2.102025e-38
-0.14348571 0.066723809 0.62 2.0835859e-38
-0.14276381 0.066939048 0.62200004 2.1112446e-38
-0.14180666 0.067046665 0.62300003 2.1112446e-38
-0.14084572 0.067154288 0.62400001 2.1573424e-38
-0.13988096 0.067261904 0.625 2.1574143e-38
-0.13913429 0.067477144 0.62700003 2.1942926e-38
-0.13816001 0.067584768 0.62800002 2.2035118e-38
-0.13718191 0.067692384 0.62900001 2.2403901e-38
-0.13598381 0.067692384 0.62900001 2.2772321e-38
-0.13478573 0.067692384 0.62900001 2.2864516e-38
-0.13464953 0.068230473 0.634 2.2956712e-38
-0.1334419 0.068230473 0.634 2.3325494e-38
-0.13223429 0.068230473 0.634 2.3325494e-38
-0.13123335 0.068338096 0.63500005 2.3325494e-38
-0.13022858 0.06844572 0.63600004 2.3233299e-38
-0.12901714 0.06844572 0.63600004 2.3233299e-38
-0.12760478 0.068338096 0.63500005 2.3233299e-38
-0.12639524 0.068338096 0.63500005 2.3233299e-38
-0.12538287 0.06844572 0.63600004 2.3233299e-38
-0.12436667 0.068553336 0.63700002 2.3233299e-38
-0.12334667 0.068660952 0.63800001 2.3233299e-38
-0.12213144 0.068660952 0.63800001 2.3233299e-38
-0.1209162 0.068660952 0.63800001 2.3233299e-38
-0.12026381 0.068983816 0.64100003 2.3141103e-38
-0.11904286 0.068983816 0.64100003 2.3233299e-38
-0.11800572 0.069091432 0.64200002 2.3233299e-38
-0.11678286 0.069091432 0.64200002 2.3233299e-38
-0.11574 0.069199048 0.64300001 2.3233299e-38
-0.11451524 0.069199048 0.64300001 2.3233299e-38
-0.11329047 0.069199048 0.64300001 2.3233299e-38
-0.11258857 0.069521904 0.64600003 2.3233299e-38
-0.1113581 0.069521904 0.64600003 2.3233299e-38
-0.11012762 0.069521904 0.64600003 2.3233299e-38
-0.10889714 0.069521904 0.64600003 2.3233299e-38
-0.10766667 0.069521904 0.64600003 2.3233299e-38
-0.10643619 0.069521904 0.64600003 2.3233299e-38
-0.10488001 0.069306672 0.64400005 2.3233299e-38
-0.10365334 0.069306672 0.64400005 2.3233299e-38
-0.10274477 0.069521904 0.64600003 2.3233299e-38
-0.10151429 0.069521904 0.64600003 2.3233299e-38
-0.099973343 0.069306672 0.64400005 2.3233299e-38
-0.098746672 0.069306672 0.64400005 2.3141103e-38
-0.097520009 0.069306672 0.64400005 2.3233299e-38
-0.096143812 0.069199048 0.64300001 2.3233299e-38
-0.094919048 0.069199048 0.64300001 2.3233299e-38
-0.093694285 0.069199048 0.64300001 2.3233299e-38
-0.092325717 0.069091432 0.64200002 2.3233299e-38
-0.091102861 0.069091432 0.64200002 2.3233299e-38
-0.089740001 0.068983816 0.64100003 2.3233299e-38
-0.088380955 0.068876199 0.64000005 2.3233299e-38
-0.087161906 0.068876199 0.64000005 2.3233299e-38
-0.085674286 0.068660952 0.63800001 2.3233299e-38
-0.084459044 0.068660952 0.63800001 2.3233299e-38
-0.082982861 0.06844572 0.63600004 2.3233299e-38
-0.081642859 0.068338096 0.63500005 2.3325494e-38
-0.080433339 0.068338096 0.63500005 2.3325494e-38
-0.079099044 0.068230473 0.634 2.3325494e-38
-0.077645719 0.06801524 0.63200003 2.3233299e-38
-0.076320961 0.067907616 0.63100004 2.2864516e-38
-0.075000003 0.0678 0.63000005 2.2772321e-38
-0.07368286 0.067692384 0.62900001 2.2772321e-38
-0.072369523 0.067584768 0.62800002 2.2219147e-38
-0.070720002 0.067154288 0.62400001 2.157414e-38
-0.069420002 0.067046665 0.62300003 2.1297553e-38
-0.068123817 0.066939048 0.62200004 2.0652187e-38
-0.066939048 0.066939048 0.62200004 2.0283404e-38
-0.065648578 0.066831432 0.62100005 2.0190843e-38
-0.064465716 0.066831432 0.62100005 2.0375234e-38
-0.14773144 0.067685723 0.61800003 2.1573427e-38
-0.14655429 0.067685723 0.61800003 2.0835862e-38
-0.14561239 0.067795239 0.61900002 2.0651468e-38
-0.14443333 0.067795239 0.61900002 2.0835859e-38
-0.14348571 0.067904763 0.62 2.0928055e-38
-0.14276381 0.068123817 0.62200004 2.1296837e-38
-0.14180666 0.068233334 0.62300003 2.1481945e-38
-0.14084572 0.068342857 0.62400001 2.1666336e-38
-0.13988096 0.068452381 0.625 2.1574143e-38
-0.13913429 0.068671428 0.62700003 2.185073e-38
-0.13816001 0.068780951 0.62800002 2.2035118e-38
-0.13718191 0.068890475 0.62900001 2.2403901e-38
-0.13598381 0.068890475 0.62900001 2.2864516e-38
-0.13478573 0.068890475 0.62900001 2.3048907e-38
-0.13464953 0.0694381 0.634 2.3141103e-38
-0.1334419 0.0694381 0.634 2.3325494e-38
-0.13244288 0.069547623 0.63500005 2.3325494e-38
-0.13123335 0.069547623 0.63500005 2.3325494e-38
-0.13022858 0.069657147 0.63600004 2.3233299e-38
-0.12901714 0.069657147 0.63600004 2.3233299e-38
-0.12780572 0.069657147 0.63600004 2.3233299e-38
-0.12659429 0.069657147 0.63600004 2.3233299e-38
-0.12558001 0.06976667 0.63700002 2.3233299e-38
-0.12436667 0.06976667 0.63700002 2.3233299e-38
-0.12334667 0.069876194 0.63800001 2.3233299e-38
-0.12213144 0.069876194 0.63800001 2.3233299e-38
-0.1209162 0.069876194 0.63800001 2.3233299e-38
-0.12026381 0.070204765 0.64100003 2.3141103e-38
-0.11904286 0.070204765 0.64100003 2.3233299e-38
-0.11800572 0.070314288 0.64200002 2.3233299e-38
-0.11696476 0.070423812 0.64300001 2.3233299e-38
-0.11574 0.070423812 0.64300001 2.3233299e-38
-0.11451524 0.070423812 0.64300001 2.3233299e-38
-0.11329047 0.070423812 0.64300001 2.3233299e-38
-0.11258857 0.070752382 0.64600003 2.3233299e-38
-0.11153048 0.070861906 0.64700001 2.3233299e-38
-0.11012762 0.070752382 0.64600003 2.3233299e-38
-0.10889714 0.070752382 0.64600003 2.3233299e-38
-0.10766667 0.070752382 0.64600003 2.3233299e-38
-0.10643619 0.070752382 0.64600003 2.3233299e-38
-0.10488001 0.070533335 0.64400005 2.3233299e-38
-0.10365334 0.070533335 0.64400005 2.3233299e-38
-0.10274477 0.070752382 0.64600003 2.3233299e-38
-0.10151429 0.070752382 0.64600003 2.3233299e-38
-0.10028381 0.070752382 0.64600003 2.3233299e-38
-0.099053338 0.070752382 0.64600003 2.3141103e-38
-0.097520009 0.070533335 0.64400005 2.3233299e-38
-0.096293338 0.070533335 0.64400005 2.3233299e-38
-0.095066674 0.070533335 0.64400005 2.3233299e-38
-0.093694285 0.070423812 0.64300001 2.3233299e-38
-0.092325717 0.070314288 0.64200002 2.3233299e-38
-0.091102861 0.070314288 0.64200002 2.3233299e-38
-0.089879997 0.070314288 0.64200002 2.3233299e-38
-0.088519052 0.070204765 0.64100003 2.3233299e-38
-0.087161906 0.070095241 0.64000005 2.3233299e-38
-0.085942864 0.070095241 0.64000005 2.3233299e-38
-0.084459044 0.069876194 0.63800001 2.3233299e-38
-0.083113335 0.06976667 0.63700002 2.3233299e-38
-0.081771433 0.069657147 0.63600004 2.3233299e-38
-0.080433339 0.069547623 0.63500005 2.3325494e-38
-0.079099044 0.0694381 0.634 2.3325494e-38
-0.077645719 0.069219045 0.63200003 2.3325494e-38
-0.076320961 0.069109522 0.63100004 2.3233299e-38
-0.075000003 0.069000006 0.63000005 2.2864516e-38
-0.07368286 0.068890475 0.62900001 2.2680125e-38
-0.072369523 0.068780951 0.62800002 2.2311342e-38
-0.071060002 0.068671428 0.62700003 2.1851083e-38
-0.069420002 0.068233334 0.62300003 2.1390105e-38
-0.068123817 0.068123817 0.62200004 2.0835859e-38
-0.066939048 0.068123817 0.62200004 2.0374881e-38
-0.065648578 0.068014294 0.62100005 2.0006815e-38
-0.064465716 0.068014294 0.62100005 1.9453641e-38
-0.14818572 0.06852857 0.61500001 2.12972e-38
-0.14701429 0.06852857 0.61500001 2.1020969e-38
-0.14655429 0.068862855 0.61800003 2.0099013e-38
-0.14561239 0.068974286 0.61900002 2.0006099e-38
-0.14443333 0.068974286 0.61900002 2.0559272e-38
-0.14348571 0.069085717 0.62 2.0928055e-38
-0.1425343 0.069197148 0.62100005 2.1573424e-38
-0.14157905 0.069308572 0.62200004 2.1666339e-38
-0.14061999 0.069420002 0.62300003 2.1758534e-38
-0.13988096 0.069642857 0.625 2.1574143e-38
-0.13913429 0.069865711 0.62700003 2.2035121e-38
-0.13816001 0.069977149 0.62800002 2.2311705e-38
-0.13718191 0.070088573 0.62900001 2.2496097e-38
-0.13598381 0.070088573 0.62900001 2.2773039e-38
-0.13478573 0.070088573 0.62900001 2.3049626e-38
-0.13486192 0.070757151 0.63500005 2.3233299e-38
-0.13365239 0.070757151 0.63500005 2.3325494e-38
-0.13244288 0.070757151 0.63500005 2.3325494e-38
-0.13144001 0.070868574 0.63600004 2.3233299e-38
-0.13022858 0.070868574 0.63600004 2.3233299e-38
-0.12901714 0.070868574 0.63600004 2.3233299e-38
-0.12800667 0.070979998 0.63700002 2.3233299e-38
-0.12679334 0.070979998 0.63700002 2.3233299e-38
-0.12577716 0.071091428 0.63800001 2.3233299e-38
-0.12456191 0.071091428 0.63800001 2.3233299e-38
-0.12373334 0.07131429 0.64000005 2.3233299e-38
-0.1225143 0.07131429 0.64000005 2.3233299e-38
-0.12129524 0.07131429 0.64000005 2.3233299e-38
-0.12045144 0.071537144 0.64200002 2.3141103e-38
-0.11922857 0.071537144 0.64200002 2.3233299e-38
-0.11818952 0.071648575 0.64300001 2.3233299e-38
-0.11696476 0.071648575 0.64300001 2.3233299e-38
-0.11574 0.071648575 0.64300001 2.3233299e-38
-0.11451524 0.071648575 0.64300001 2.3233299e-38
-0.11346667 0.071760006 0.64400005 2.3233299e-38
-0.11224001 0.071760006 0.64400005 2.3233299e-38
-0.11153048 0.072094291 0.64700001 2.3233299e-38
-0.1102981 0.072094291 0.64700001 2.3233299e-38
-0.10906572 0.072094291 0.64700001 2.3233299e-38
-0.10783334 0.072094291 0.64700001 2.3233299e-38
-0.10660095 0.072094291 0.64700001 2.3233299e-38
-0.10536857 0.072094291 0.64700001 2.3233299e-38
-0.10397524 0.071982861 0.64600003 2.3233299e-38
-0.10274477 0.071982861 0.64600003 2.3233299e-38
-0.10167143 0.072094291 0.64700001 2.3233299e-38
-0.10043905 0.072094291 0.64700001 2.3233299e-38
-0.099053338 0.071982861 0.64600003 2.3141103e-38
-0.097520009 0.071760006 0.64400005 2.3233299e-38
-0.096293338 0.071760006 0.64400005 2.3233299e-38
-0.095066674 0.071760006 0.64400005 2.3233299e-38
-0.093694285 0.071648575 0.64300001 2.3233299e-38
-0.092325717 0.071537144 0.64200002 2.3233299e-38
-0.091102861 0.071537144 0.64200002 2.3233299e-38
-0.089879997 0.071537144 0.64200002 2.3233299e-38
-0.088519052 0.071425714 0.64100003 2.3233299e-38
-0.087298095 0.071425714 0.64100003 2.3233299e-38
-0.085942864 0.07131429 0.64000005 2.3233299e-38
-0.084723815 0.07131429 0.64000005 2.3233299e-38
-0.08324381 0.071091428 0.63800001 2.3233299e-38
-0.081771433 0.070868574 0.63600004 2.3233299e-38
-0.080433339 0.070757151 0.63500005 2.3325494e-38
-0.079099044 0.070645712 0.634 2.3325494e-38
-0.077645719 0.070422858 0.63200003 2.3325494e-38
-0.076441906 0.070422858 0.63200003 2.3325494e-38
-0.075000003 0.070200004 0.63000005 2.2864516e-38
-0.07368286 0.070088573 0.62900001 2.2311705e-38
-0.072369523 0.069977149 0.62800002 2.2127314e-38
-0.071060002 0.069865711 0.62700003 2.1942923e-38
-0.069531433 0.069531433 0.62400001 2.157414e-38
-0.068233334 0.069420002 0.62300003 2.1112446e-38
-0.066939048 0.069308572 0.62200004 2.0374881e-38
-0.065754294 0.069308572 0.62200004 2.0006815e-38
-0.1491143 0.069586664 0.61400002 2.0835859e-38
-0.14794476 0.069586664 0.61400002 2.019049e-38
-0.14701429 0.069699995 0.61500001 2.0098294e-38
-0.14608002 0.069813341 0.61600006 2.0006099e-38
-0.14537716 0.07004001 0.61800003 2.0006461e-38
-0.14443333 0.070153333 0.61900002 2.046744e-38
-0.14348571 0.070266664 0.62 2.0928411e-38
-0.14230476 0.070266664 0.62 2.1665976e-38
-0.14157905 0.07049334 0.62200004 2.1666336e-38
-0.14061999 0.070606664 0.62300003 2.1850727e-38
-0.14032857 0.071060002 0.62700003 2.2035118e-38
-0.1393562 0.071173333 0.62800002 2.221951e-38
-0.13816001 0.071173333 0.62800002 2.221951e-38
-0.13718191 0.071286663 0.62900001 2.2588292e-38
-0.13620001 0.071400009 0.63000005 2.2680844e-38
-0.13542858 0.071626663 0.63200003 2.3049626e-38
-0.13507429 0.072080001 0.63600004 2.3141103e-38
-0.13386287 0.072080001 0.63600004 2.3233299e-38
-0.13265143 0.072080001 0.63600004 2.3325494e-38
-0.13144001 0.072080001 0.63600004 2.3233299e-38
-0.13043334 0.072193332 0.63700002 2.3233299e-38
-0.12921999 0.072193332 0.63700002 2.3233299e-38
-0.12820761 0.07230667 0.63800001 2.3233299e-38
-0.12699237 0.07230667 0.63800001 2.3233299e-38
-0.12617144 0.072533339 0.64000005 2.3233299e-38
-0.12495239 0.072533339 0.64000005 2.3233299e-38
-0.12392667 0.07264667 0.64100003 2.3233299e-38
-0.12270571 0.07264667 0.64100003 2.3233299e-38
-0.12148476 0.07264667 0.64100003 2.3233299e-38
-0.12045144 0.072760001 0.64200002 2.3141103e-38
-0.11922857 0.072760001 0.64200002 2.3233299e-38
-0.11818952 0.072873332 0.64300001 2.3233299e-38
-0.11696476 0.072873332 0.64300001 2.3233299e-38
-0.11574 0.072873332 0.64300001 2.3233299e-38
-0.11451524 0.072873332 0.64300001 2.3233299e-38
-0.11346667 0.072986677 0.64400005 2.3233299e-38
-0.11224001 0.072986677 0.64400005 2.3233299e-38
-0.11153048 0.07332667 0.64700001 2.3233299e-38
-0.1102981 0.07332667 0.64700001 2.3233299e-38
-0.10906572 0.07332667 0.64700001 2.3233299e-38
-0.10783334 0.07332667 0.64700001 2.3233299e-38
-0.10660095 0.07332667 0.64700001 2.3233299e-38
-0.10536857 0.07332667 0.64700001 2.3233299e-38
-0.10413619 0.07332667 0.64700001 2.3233299e-38
-0.10290381 0.07332667 0.64700001 2.3233299e-38
-0.10167143 0.07332667 0.64700001 2.3233299e-38
-0.10043905 0.07332667 0.64700001 2.3233299e-38
-0.099206664 0.07332667 0.64700001 2.3141103e-38
-0.097974285 0.07332667 0.64700001 2.3233299e-38
-0.096592382 0.073213331 0.64600003 2.3233299e-38
-0.095066674 0.072986677 0.64400005 2.3233299e-38
-0.093694285 0.072873332 0.64300001 2.3233299e-38
-0.092469528 0.072873332 0.64300001 2.3233299e-38
-0.091102861 0.072760001 0.64200002 2.3233299e-38
-0.089879997 0.072760001 0.64200002 2.3233299e-38
-0.088657148 0.072760001 0.64200002 2.3233299e-38
-0.087298095 0.07264667 0.64100003 2.3233299e-38
-0.086077146 0.07264667 0.64100003 2.3233299e-38
-0.084723815 0.072533339 0.64000005 2.3233299e-38
-0.083504766 0.072533339 0.64000005 2.3233299e-38
-0.081771433 0.072080001 0.63600004 2.3233299e-38
-0.080433339 0.07196667 0.63500005 2.3325494e-38
-0.079099044 0.071853332 0.634 2.3325494e-38
-0.077891432 0.071853332 0.634 2.3325494e-38
-0.076441906 0.071626663 0.63200003 2.3233299e-38
-0.075000003 0.071400009 0.63000005 2.2772321e-38
-0.073800005 0.071400009 0.63000005 2.221951e-38
-0.072369523 0.071173333 0.62800002 2.2035118e-38
-0.071060002 0.071060002 0.62700003 2.1942923e-38
-0.069642857 0.070833333 0.625 2.157414e-38
-0.068233334 0.070606664 0.62300003 2.102025e-38
-0.067046665 0.070606664 0.62300003 2.0651468e-38
-0.065859996 0.070606664 0.62300003 1.9914982e-38
-0.1491143 0.070756197 0.61400002 2.0559272e-38
-0.14794476 0.070756197 0.61400002 1.9729512e-38
-0.14701429 0.070871428 0.61500001 1.954512e-38
-0.14608002 0.070986666 0.61600006 2.0098294e-38
-0.14490667 0.070986666 0.61600006 2.019049e-38
-0.14443333 0.07133238 0.61900002 2.0651468e-38
-0.14348571 0.071447626 0.62 2.1112446e-38
-0.14230476 0.071447626 0.62 2.1481229e-38
-0.14157905 0.071678095 0.62200004 2.1389752e-38
-0.14084572 0.071908571 0.62400001 2.1942926e-38
-0.14032857 0.072254293 0.62700003 2.2311345e-38
-0.1393562 0.072369523 0.62800002 2.221915e-38
-0.13837999 0.072484761 0.62900001 2.2127314e-38
-0.13718191 0.072484761 0.62900001 2.2588292e-38
-0.13620001 0.0726 0.63000005 2.2588648e-38
-0.13542858 0.072830476 0.63200003 2.2957431e-38
-0.13486192 0.073176198 0.63500005 2.3233299e-38
-0.13386287 0.073291428 0.63600004 2.3325494e-38
-0.13265143 0.073291428 0.63600004 2.3325494e-38
-0.13144001 0.073291428 0.63600004 2.3325494e-38
-0.13043334 0.073406667 0.63700002 2.3233299e-38
-0.12921999 0.073406667 0.63700002 2.3233299e-38
-0.12820761 0.073521905 0.63800001 2.3233299e-38
-0.12699237 0.073521905 0.63800001 2.3233299e-38
-0.12617144 0.073752381 0.64000005 2.3233299e-38
-0.12514763 0.073867619 0.64100003 2.3233299e-38
-0.12392667 0.073867619 0.64100003 2.3233299e-38
-0.12270571 0.073867619 0.64100003 2.3233299e-38
-0.12167428 0.073982857 0.64200002 2.3233299e-38
-0.12045144 0.073982857 0.64200002 2.3141103e-38
-0.11922857 0.073982857 0.64200002 2.3233299e-38
-0.11818952 0.074098095 0.64300001 2.3233299e-38
-0.11696476 0.074098095 0.64300001 2.3233299e-38
-0.11574 0.074098095 0.64300001 2.3233299e-38
-0.11451524 0.074098095 0.64300001 2.3233299e-38
-0.11346667 0.074213333 0.64400005 2.3233299e-38
-0.11258857 0.07444381 0.64600003 2.3233299e-38
-0.11153048 0.074559048 0.64700001 2.3233299e-38
-0.1102981 0.074559048 0.64700001 2.3233299e-38
-0.10906572 0.074559048 0.64700001 2.3233299e-38
-0.10783334 0.074559048 0.64700001 2.3233299e-38
-0.10676572 0.074674278 0.648 2.3233299e-38
-0.10553142 0.074674278 0.648 2.3233299e-38
-0.10429715 0.074674278 0.648 2.3233299e-38
-0.10306286 0.074674278 0.648 2.3233299e-38
-0.10182857 0.074674278 0.648 2.3233299e-38
-0.10059428 0.074674278 0.648 2.3233299e-38
-0.099206664 0.074559048 0.64700001 2.3141103e-38
-0.097974285 0.074559048 0.64700001 2.3233299e-38
-0.096592382 0.07444381 0.64600003 2.3233299e-38
-0.095361911 0.07444381 0.64600003 2.3233299e-38
-0.093840003 0.074213333 0.64400005 2.3233299e-38
-0.092469528 0.074098095 0.64300001 2.3233299e-38
-0.091244757 0.074098095 0.64300001 2.3233299e-38
-0.090020001 0.074098095 0.64300001 2.3233299e-38
-0.088657148 0.073982857 0.64200002 2.3233299e-38
-0.087434284 0.073982857 0.64200002 2.3233299e-38
-0.086077146 0.073867619 0.64100003 2.3233299e-38
-0.084856197 0.073867619 0.64100003 2.3233299e-38
-0.083504766 0.073752381 0.64000005 2.3233299e-38
-0.082028575 0.073521905 0.63800001 2.3233299e-38
-0.080433339 0.073176198 0.63500005 2.3233299e-38
-0.079099044 0.073060952 0.634 2.3325494e-38
-0.077891432 0.073060952 0.634 2.341769e-38
-0.076683804 0.073060952 0.634 2.3233299e-38
-0.075119056 0.072715245 0.63100004 2.2864516e-38
-0.073800005 0.0726 0.63000005 2.2496097e-38
-0.072484761 0.072484761 0.62900001 2.2127314e-38
-0.071173333 0.072369523 0.62800002 2.1942923e-38
-0.069865711 0.072254293 0.62700003 2.1481945e-38
-0.068452381 0.072023809 0.625 2.1204642e-38
-0.067261904 0.072023809 0.625 2.0651468e-38
-0.1497943 0.071691439 0.61200005 1.9913903e-38
-0.14862858 0.071691439 0.61200005 1.9453997e-38
-0.14818572 0.07204286 0.61500001 1.9453997e-38
-0.14701429 0.07204286 0.61500001 1.9637316e-38
-0.14608002 0.072160006 0.61600006 2.0282685e-38
-0.14490667 0.072160006 0.61600006 2.0282685e-38
-0.1442 0.072394289 0.61800003 2.0835859e-38
-0.14325429 0.072511427 0.61900002 2.1204642e-38
-0.1425343 0.072745718 0.62100005 2.1481229e-38
-0.14180666 0.072980002 0.62300003 2.1389752e-38
-0.14152287 0.073448576 0.62700003 2.2035121e-38
-0.14032857 0.073448576 0.62700003 2.2219147e-38
-0.1393562 0.073565714 0.62800002 2.2219147e-38
-0.13837999 0.07368286 0.62900001 2.221951e-38
-0.13740002 0.073800005 0.63000005 2.2680488e-38
-0.13620001 0.073800005 0.63000005 2.2680844e-38
-0.13542858 0.074034289 0.63200003 2.3049626e-38
-0.13486192 0.074385718 0.63500005 2.3141103e-38
-0.13386287 0.074502863 0.63600004 2.3325494e-38
-0.13265143 0.074502863 0.63600004 2.3325494e-38
-0.13144001 0.074502863 0.63600004 2.3233299e-38
-0.13043334 0.074620001 0.63700002 2.3233299e-38
-0.12921999 0.074620001 0.63700002 2.3233299e-38
-0.12820761 0.074737139 0.63800001 2.3233299e-38
-0.12739049 0.074971437 0.64000005 2.3233299e-38
-0.12617144 0.074971437 0.64000005 2.3233299e-38
-0.12514763 0.075088575 0.64100003 2.3233299e-38
-0.12412 0.075205714 0.64200002 2.3233299e-38
-0.12289715 0.075205714 0.64200002 2.3233299e-38
-0.12167428 0.075205714 0.64200002 2.3233299e-38
-0.12045144 0.075205714 0.64200002 2.3141103e-38
-0.11941428 0.075322859 0.64300001 2.3233299e-38
-0.11818952 0.075322859 0.64300001 2.3233299e-38
-0.11714668 0.075440004 0.64400005 2.3233299e-38
-0.11574 0.075322859 0.64300001 2.3233299e-38
-0.11451524 0.075322859 0.64300001 2.3233299e-38
-0.11346667 0.075440004 0.64400005 2.3233299e-38
-0.11258857 0.075674288 0.64600003 2.3233299e-38
-0.11153048 0.075791426 0.64700001 2.3233299e-38
-0.1102981 0.075791426 0.64700001 2.3233299e-38
-0.10906572 0.075791426 0.64700001 2.3233299e-38
-0.10783334 0.075791426 0.64700001 2.3233299e-38
-0.10676572 0.075908571 0.648 2.3233299e-38
-0.10553142 0.075908571 0.648 2.3233299e-38
-0.10429715 0.075908571 0.648 2.3233299e-38
-0.10306286 0.075908571 0.648 2.3233299e-38
-0.10182857 0.075908571 0.648 2.3233299e-38
-0.10059428 0.075908571 0.648 2.3233299e-38
-0.099206664 0.075791426 0.64700001 2.3141103e-38
-0.097974285 0.075791426 0.64700001 2.3233299e-38
-0.096592382 0.075674288 0.64600003 2.3233299e-38
-0.095361911 0.075674288 0.64600003 2.3233299e-38
-0.093840003 0.075440004 0.64400005 2.3233299e-38
-0.092469528 0.075322859 0.64300001 2.3233299e-38
-0.091244757 0.075322859 0.64300001 2.3233299e-38
-0.090020001 0.075322859 0.64300001 2.3233299e-38
-0.088795237 0.075322859 0.64300001 2.3233299e-38
-0.087434284 0.075205714 0.64200002 2.3233299e-38
-0.086077146 0.075088575 0.64100003 2.3233299e-38
-0.084856197 0.075088575 0.64100003 2.3233299e-38
-0.083635241 0.075088575 0.64100003 2.3233299e-38
-0.082028575 0.074737139 0.63800001 2.3233299e-38
-0.080560006 0.074502863 0.63600004 2.3233299e-38
-0.079223812 0.074385718 0.63500005 2.3325494e-38
-0.077891432 0.074268572 0.634 2.3325494e-38
-0.076683804 0.074268572 0.634 2.3233299e-38
-0.075238094 0.074034289 0.63200003 2.2956712e-38
-0.073800005 0.073800005 0.63000005 2.2588648e-38
-0.072484761 0.07368286 0.62900001 2.2219866e-38
-0.071173333 0.073565714 0.62800002 2.2035118e-38
-0.069865711 0.073448576 0.62700003 2.1666336e-38
-0.068671428 0.073448576 0.62700003 2.1296837e-38
-0.067477144 0.073448576 0.62700003 2.102025e-38
-0.15071332 0.072738096 0.611 2.046744e-38
-0.14954951 0.072738096 0.611 1.9268896e-38
-0.14862858 0.072857149 0.61200005 1.9084861e-38
-0.14770381 0.072976194 0.61300004 1.9545839e-38
-0.14701429 0.073214285 0.61500001 1.9637316e-38
-0.14608002 0.073333338 0.61600006 2.019049e-38
-0.14490667 0.073333338 0.61600006 2.0282685e-38
-0.1442 0.073571429 0.61800003 2.0835859e-38
-0.14325429 0.073690474 0.61900002 2.1204642e-38
-0.1425343 0.07392858 0.62100005 2.1481229e-38
-0.14180666 0.074166663 0.62300003 2.1389033e-38
-0.14152287 0.074642867 0.62700003 2.1757816e-38
-0.14055239 0.074761905 0.62800002 2.1850367e-38
-0.1393562 0.074761905 0.62800002 2.2311345e-38
-0.13837999 0.07488095 0.62900001 2.2311705e-38
-0.13740002 0.075000003 0.63000005 2.2588292e-38
-0.1364162 0.075119056 0.63100004 2.2680844e-38
-0.13585714 0.075476192 0.634 2.3049626e-38
-0.13486192 0.075595245 0.63500005 2.3141103e-38
-0.13386287 0.07571429 0.63600004 2.3325494e-38
-0.13265143 0.07571429 0.63600004 2.3325494e-38
-0.13164666 0.075833336 0.63700002 2.3233299e-38
-0.13043334 0.075833336 0.63700002 2.3233299e-38
-0.12942286 0.075952381 0.63800001 2.3233299e-38
-0.12860952 0.076190479 0.64000005 2.3233299e-38
-0.12739049 0.076190479 0.64000005 2.3233299e-38
-0.12636858 0.076309532 0.64100003 2.3233299e-38
-0.12514763 0.076309532 0.64100003 2.3233299e-38
-0.12412 0.07642857 0.64200002 2.3233299e-38
-0.12289715 0.07642857 0.64200002 2.3233299e-38
-0.12167428 0.07642857 0.64200002 2.3233299e-38
-0.12045144 0.07642857 0.64200002 2.3141103e-38
-0.11941428 0.076547615 0.64300001 2.3233299e-38
-0.11818952 0.076547615 0.64300001 2.3233299e-38
-0.11714668 0.076666676 0.64400005 2.3233299e-38
-0.11592001 0.076666676 0.64400005 2.3233299e-38
-0.11469334 0.076666676 0.64400005 2.3233299e-38
-0.11346667 0.076666676 0.64400005 2.3233299e-38
-0.11258857 0.076904759 0.64600003 2.3233299e-38
-0.11153048 0.077023812 0.64700001 2.3233299e-38
-0.1102981 0.077023812 0.64700001 2.3233299e-38
-0.10906572 0.077023812 0.64700001 2.3233299e-38
-0.10783334 0.077023812 0.64700001 2.3233299e-38
-0.10676572 0.077142857 0.648 2.3233299e-38
-0.10553142 0.077142857 0.648 2.3233299e-38
-0.10429715 0.077142857 0.648 2.3233299e-38
-0.10306286 0.077142857 0.648 2.3233299e-38
-0.10182857 0.077142857 0.648 2.3233299e-38
-0.10059428 0.077142857 0.648 2.3233299e-38
-0.099360004 0.077142857 0.648 2.3141103e-38
-0.097974285 0.077023812 0.64700001 2.3233299e-38
-0.096741907 0.077023812 0.64700001 2.3233299e-38
-0.095066674 0.076666676 0.64400005 2.3233299e-38
-0.093840003 0.076666676 0.64400005 2.3233299e-38
-0.092469528 0.076547615 0.64300001 2.3233299e-38
-0.091244757 0.076547615 0.64300001 2.3233299e-38
-0.090020001 0.076547615 0.64300001 2.3233299e-38
-0.088795237 0.076547615 0.64300001 2.3233299e-38
-0.087570474 0.076547615 0.64300001 2.3233299e-38
-0.086211428 0.07642857 0.64200002 2.3233299e-38
-0.084988572 0.07642857 0.64200002 2.3233299e-38
-0.083635241 0.076309532 0.64100003 2.3233299e-38
-0.082414292 0.076309532 0.64100003 2.3233299e-38
-0.081066668 0.076190479 0.64000005 2.3233299e-38
-0.079223812 0.075595245 0.63500005 2.3325494e-38
-0.078014292 0.075595245 0.63500005 2.341769e-38
-0.076683804 0.075476192 0.634 2.3233299e-38
-0.075238094 0.075238094 0.63200003 2.2956712e-38
-0.07391715 0.075119056 0.63100004 2.2680844e-38
-0.0726 0.075000003 0.63000005 2.2404257e-38
-0.071286663 0.07488095 0.62900001 2.2034758e-38
-0.069977149 0.074761905 0.62800002 2.157378e-38
-0.068780951 0.074761905 0.62800002 2.1297193e-38
-0.067584768 0.074761905 0.62800002 2.0836215e-38
-0.15071332 0.073901907 0.611 2.0006452e-38
-0.14954951 0.073901907 0.611 1.8900104e-38
-0.14862858 0.074022859 0.61200005 1.8808284e-38
-0.14770381 0.074143812 0.61300004 1.9545849e-38
-0.14701429 0.074385718 0.61500001 1.9637672e-38
-0.14608002 0.074506678 0.61600006 2.0283041e-38
-0.14537716 0.074748576 0.61800003 2.0374881e-38
-0.1442 0.074748576 0.61800003 2.0835859e-38
-0.14325429 0.074869521 0.61900002 2.1020253e-38
-0.1425343 0.075111434 0.62100005 2.1573427e-38
-0.14180666 0.075353332 0.62300003 2.1481229e-38
-0.14152287 0.07583715 0.62700003 2.1757816e-38
-0.14055239 0.075958095 0.62800002 2.2126954e-38
-0.1393562 0.075958095 0.62800002 2.2403541e-38
-0.13837999 0.076079048 0.62900001 2.221951e-38
-0.13761809 0.076320961 0.63100004 2.2588292e-38
-0.1364162 0.076320961 0.63100004 2.2588648e-38
-0.13585714 0.076683804 0.634 2.3141822e-38
-0.13486192 0.076804765 0.63500005 2.3233299e-38
-0.13386287 0.076925717 0.63600004 2.3325494e-38
-0.13265143 0.076925717 0.63600004 2.3325494e-38
-0.13164666 0.07704667 0.63700002 2.3233299e-38
-0.13043334 0.07704667 0.63700002 2.3233299e-38
-0.12942286 0.077167623 0.63800001 2.3233299e-38
-0.12881048 0.077530481 0.64100003 2.3233299e-38
-0.12758954 0.077530481 0.64100003 2.3233299e-38
-0.12636858 0.077530481 0.64100003 2.3233299e-38
-0.12534286 0.077651434 0.64200002 2.3233299e-38
-0.12412 0.077651434 0.64200002 2.3233299e-38
-0.12289715 0.077651434 0.64200002 2.3233299e-38
-0.12167428 0.077651434 0.64200002 2.3233299e-38
-0.12045144 0.077651434 0.64200002 2.3141103e-38
-0.11941428 0.077772386 0.64300001 2.3233299e-38
-0.11837334 0.077893339 0.64400005 2.3233299e-38
-0.11751048 0.078135237 0.64600003 2.3233299e-38
-0.11628 0.078135237 0.64600003 2.3233299e-38
-0.11504953 0.078135237 0.64600003 2.3233299e-38
-0.11381905 0.078135237 0.64600003 2.3233299e-38
-0.11276285 0.07825619 0.64700001 2.3233299e-38
-0.11153048 0.07825619 0.64700001 2.3233299e-38
-0.1102981 0.07825619 0.64700001 2.3233299e-38
-0.10906572 0.07825619 0.64700001 2.3233299e-38
-0.10783334 0.07825619 0.64700001 2.3233299e-38
-0.10676572 0.078377143 0.648 2.3233299e-38
-0.10553142 0.078377143 0.648 2.3233299e-38
-0.10429715 0.078377143 0.648 2.3233299e-38
-0.10322192 0.078498095 0.64900005 2.3233299e-38
-0.10198572 0.078498095 0.64900005 2.3233299e-38
-0.10074953 0.078498095 0.64900005 2.3233299e-38
-0.099360004 0.078377143 0.648 2.3141103e-38
-0.098125711 0.078377143 0.648 2.3233299e-38
-0.096891426 0.078377143 0.648 2.3233299e-38
-0.095066674 0.077893339 0.64400005 2.3233299e-38
-0.093840003 0.077893339 0.64400005 2.3233299e-38
-0.092469528 0.077772386 0.64300001 2.3233299e-38
-0.091244757 0.077772386 0.64300001 2.3233299e-38
-0.090020001 0.077772386 0.64300001 2.3233299e-38
-0.088795237 0.077772386 0.64300001 2.3233299e-38
-0.087570474 0.077772386 0.64300001 2.3233299e-38
-0.086345717 0.077772386 0.64300001 2.3233299e-38
-0.084988572 0.077651434 0.64200002 2.3233299e-38
-0.083765715 0.077651434 0.64200002 2.3233299e-38
-0.082414292 0.077530481 0.64100003 2.3233299e-38
-0.081066668 0.077409528 0.64000005 2.3233299e-38
-0.079473339 0.07704667 0.63700002 2.3325492e-38
-0.078137144 0.076925717 0.63600004 2.3325492e-38
-0.076683804 0.076683804 0.634 2.3325494e-38
-0.075476192 0.076683804 0.634 2.2956712e-38
-0.07391715 0.076320961 0.63100004 2.2496097e-38
-0.0726 0.076200008 0.63000005 2.2403901e-38
-0.071286663 0.076079048 0.62900001 2.2034758e-38
-0.070088573 0.076079048 0.62900001 2.1297193e-38
-0.068671428 0.07583715 0.62700003 2.1112802e-38
-0.067477144 0.07583715 0.62700003 2.074402e-38
-0.15071332 0.075065717 0.611 1.9360729e-38
-0.14954951 0.075065717 0.611 1.8899751e-38
-0.14838572 0.075065717 0.611 1.8900117e-38
-0.14746287 0.075188577 0.61200005 1.9545486e-38
-0.14701429 0.075557142 0.61500001 1.9729868e-38
-0.14608002 0.075680003 0.61600006 2.0375237e-38
-0.14537716 0.075925715 0.61800003 2.0374881e-38
-0.14443333 0.076048575 0.61900002 2.0835859e-38
-0.14325429 0.076048575 0.61900002 2.0928058e-38
-0.1425343 0.076294295 0.62100005 2.1481231e-38
-0.14180666 0.076540001 0.62300003 2.1481229e-38
-0.14084572 0.076662861 0.62400001 2.1942207e-38
-0.14032857 0.077031434 0.62700003 2.2403541e-38
-0.1393562 0.077154286 0.62800002 2.2403541e-38
-0.13837999 0.077277139 0.62900001 2.221951e-38
-0.13761809 0.077522859 0.63100004 2.2588292e-38
-0.1364162 0.077522859 0.63100004 2.2680125e-38
-0.13585714 0.077891432 0.634 2.2956712e-38
-0.13464953 0.077891432 0.634 2.2956712e-38
-0.13365239 0.078014292 0.63500005 2.3325494e-38
-0.13265143 0.078137144 0.63600004 2.3325494e-38
-0.13164666 0.078260005 0.63700002 2.3233299e-38
-0.13063809 0.078382857 0.63800001 2.3233299e-38
-0.12942286 0.078382857 0.63800001 2.3233299e-38
-0.12881048 0.07875143 0.64100003 2.3233299e-38
-0.12758954 0.07875143 0.64100003 2.3233299e-38
-0.12636858 0.07875143 0.64100003 2.3233299e-38
-0.12534286 0.078874283 0.64200002 2.3233299e-38
-0.12412 0.078874283 0.64200002 2.3233299e-38
-0.12289715 0.078874283 0.64200002 2.3233299e-38
-0.12167428 0.078874283 0.64200002 2.3233299e-38
-0.12063904 0.078997143 0.64300001 2.3141103e-38
-0.11941428 0.078997143 0.64300001 2.3233299e-38
-0.11837334 0.079120003 0.64400005 2.3233299e-38
-0.11751048 0.079365723 0.64600003 2.3233299e-38
-0.11628 0.079365723 0.64600003 2.3233299e-38
-0.11504953 0.079365723 0.64600003 2.3233299e-38
-0.11381905 0.079365723 0.64600003 2.3233299e-38
-0.11276285 0.079488575 0.64700001 2.3233299e-38
-0.11153048 0.079488575 0.64700001 2.3233299e-38
-0.1102981 0.079488575 0.64700001 2.3233299e-38
-0.10906572 0.079488575 0.64700001 2.3233299e-38
-0.10783334 0.079488575 0.64700001 2.3233299e-38
-0.10676572 0.079611428 0.648 2.3233299e-38
-0.10553142 0.079611428 0.648 2.3233299e-38
-0.10429715 0.079611428 0.648 2.3233299e-38
-0.10322192 0.079734296 0.64900005 2.3233299e-38
-0.10198572 0.079734296 0.64900005 2.3233299e-38
-0.10074953 0.079734296 0.64900005 2.3233299e-38
-0.099360004 0.079611428 0.648 2.3141103e-38
-0.098125711 0.079611428 0.648 2.3233299e-38
-0.096891426 0.079611428 0.648 2.3233299e-38
-0.095509529 0.079488575 0.64700001 2.3233299e-38
-0.093840003 0.079120003 0.64400005 2.3233299e-38
-0.092613339 0.079120003 0.64400005 2.3233299e-38
-0.091386676 0.079120003 0.64400005 2.3233299e-38
-0.090020001 0.078997143 0.64300001 2.3233299e-38
-0.088795237 0.078997143 0.64300001 2.3233299e-38
-0.087570474 0.078997143 0.64300001 2.3233299e-38
-0.086345717 0.078997143 0.64300001 2.3233299e-38
-0.084988572 0.078874283 0.64200002 2.3233299e-38
-0.083765715 0.078874283 0.64200002 2.3233299e-38
-0.082414292 0.07875143 0.64100003 2.3233299e-38
-0.081066668 0.078628577 0.64000005 2.3233299e-38
-0.079473339 0.078260005 0.63700002 2.3325494e-38
-0.078260005 0.078260005 0.63700002 2.3325494e-38
-0.076804765 0.078014292 0.63500005 2.3325494e-38
-0.075476192 0.077891432 0.634 2.2956712e-38
-0.074034289 0.077645719 0.63200003 2.2311705e-38
-0.067759998 0.072239995 0.588 2.2403901e-38
-0.066639997 0.072239995 0.588 2.2034758e-38
-0.070088573 0.077277139 0.62900001 2.1297193e-38
-0.068671428 0.077031434 0.62700003 2.1112802e-38
-0.067477144 0.077031434 0.62700003 2.1389389e-38
-0.15071332 0.07622952 0.611 1.9268534e-38
-0.14954951 0.07622952 0.611 1.9084142e-38
-0.14838572 0.07622952 0.611 1.9084508e-38
-0.14746287 0.076354288 0.61200005 1.9637682e-38
-0.14701429 0.076728575 0.61500001 1.9822063e-38
-0.14608002 0.076853342 0.61600006 2.0375237e-38
-0.14537716 0.077102862 0.61800003 2.0374881e-38
-0.14443333 0.077227622 0.61900002 2.102025e-38
-0.14325429 0.077227622 0.61900002 2.1020969e-38
-0.14230476 0.077352382 0.62 2.1481947e-38
-0.14157905 0.07760191 0.62200004 2.166562e-38
-0.14084572 0.07785143 0.62400001 2.2126598e-38
-0.14032857 0.078225717 0.62700003 2.2311342e-38
-0.1393562 0.078350477 0.62800002 2.2587929e-38
-0.13860001 0.078600004 0.63000005 2.2496097e-38
-0.13761809 0.078724764 0.63100004 2.2680488e-38
-0.1364162 0.078724764 0.63100004 2.2864516e-38
-0.13585714 0.079099044 0.634 2.3048907e-38
-0.13464953 0.079099044 0.634 2.3048907e-38
-0.13365239 0.079223812 0.63500005 2.3325494e-38
-0.13244288 0.079223812 0.63500005 2.3325494e-38
-0.13164666 0.079473339 0.63700002 2.3233299e-38
-0.13063809 0.079598099 0.63800001 2.3233299e-38
-0.12942286 0.079598099 0.63800001 2.3233299e-38
-0.12881048 0.079972379 0.64100003 2.3233299e-38
-0.12758954 0.079972379 0.64100003 2.3233299e-38
-0.12656571 0.080097146 0.64200002 2.3233299e-38
-0.12534286 0.080097146 0.64200002 2.3233299e-38
-0.12412 0.080097146 0.64200002 2.3233299e-38
-0.12308857 0.080221906 0.64300001 2.3233299e-38
-0.12186381 0.080221906 0.64300001 2.3233299e-38
-0.12063904 0.080221906 0.64300001 2.3141103e-38
-0.11960001 0.080346674 0.64400005 2.3233299e-38
-0.11837334 0.080346674 0.64400005 2.3233299e-38
-0.11751048 0.080596194 0.64600003 2.3233299e-38
-0.11628 0.080596194 0.64600003 2.3233299e-38
-0.11504953 0.080596194 0.64600003 2.3233299e-38
-0.11381905 0.080596194 0.64600003 2.3233299e-38
-0.11276285 0.080720954 0.64700001 2.3233299e-38
-0.11153048 0.080720954 0.64700001 2.3233299e-38
-0.1102981 0.080720954 0.64700001 2.3233299e-38
-0.10906572 0.080720954 0.64700001 2.3233299e-38
-0.10783334 0.080720954 0.64700001 2.3233299e-38
-0.10676572 0.080845714 0.648 2.3233299e-38
-0.10553142 0.080845714 0.648 2.3233299e-38
-0.10429715 0.080845714 0.648 2.3233299e-38
-0.10322192 0.080970481 0.64900005 2.3233299e-38
-0.10198572 0.080970481 0.64900005 2.3233299e-38
-0.10074953 0.080970481 0.64900005 2.3233299e-38
-0.099513337 0.080970481 0.64900005 2.3141103e-38
-0.098277152 0.080970481 0.64900005 2.3233299e-38
-0.096891426 0.080845714 0.648 2.3233299e-38
-0.095657147 0.080845714 0.648 2.3233299e-38
-0.094277143 0.080720954 0.64700001 2.3233299e-38
-0.093044758 0.080720954 0.64700001 2.3233299e-38
-0.091386676 0.080346674 0.64400005 2.3233299e-38
-0.090160005 0.080346674 0.64400005 2.3233299e-38
-0.088933334 0.080346674 0.64400005 2.3233299e-38
-0.087706678 0.080346674 0.64400005 2.3233299e-38
-0.086345717 0.080221906 0.64300001 2.3233299e-38
-0.085120954 0.080221906 0.64300001 2.3233299e-38
-0.08389619 0.080221906 0.64300001 2.3233299e-38
-0.082414292 0.079972379 0.64100003 2.3233299e-38
-0.081066668 0.079847619 0.64000005 2.3233299e-38
-0.079598099 0.079598099 0.63800001 2.3325494e-38
-0.078260005 0.079473339 0.63700002 2.3325494e-38
-0.076925717 0.079348572 0.63600004 2.3325494e-38
-0.075595245 0.079223812 0.63500005 2.2956712e-38
-0.068879999 0.073359996 0.588 2.2495736e-38
-0.067759998 0.073359996 0.588 2.2403541e-38
-0.066639997 0.073359996 0.588 2.1665976e-38
-0.065519996 0.073359996 0.588 2.1020606e-38
-0.064400002 0.073359996 0.588 2.1481585e-38
-0.15071332 0.077393331 0.611 1.8899751e-38
-0.14954951 0.077393331 0.611 1.9084142e-38
-0.14838572 0.077393331 0.611 1.9176341e-38
-0.14746287 0.077520005 0.61200005 1.9729514e-38
-0.14701429 0.0779 0.61500001 1.9822063e-38
-0.14608002 0.078026675 0.61600006 2.0375237e-38
-0.14537716 0.078280002 0.61800003 2.0374881e-38
-0.14443333 0.078406669 0.61900002 2.102025e-38
-0.14325429 0.078406669 0.61900002 2.1020969e-38
-0.14230476 0.078533329 0.62 2.1481947e-38
-0.14157905 0.078786671 0.62200004 2.1758532e-38
-0.14084572 0.079040006 0.62400001 2.1942923e-38
-0.14032857 0.079420008 0.62700003 2.2035118e-38
-0.1393562 0.079546668 0.62800002 2.2403901e-38
-0.13860001 0.07980001 0.63000005 2.2496097e-38
-0.13761809 0.07992667 0.63100004 2.2864879e-38
-0.1364162 0.07992667 0.63100004 2.3141103e-38
-0.13542858 0.080053337 0.63200003 2.3141103e-38
-0.13464953 0.080306664 0.634 2.3048907e-38
-0.13365239 0.080433339 0.63500005 2.3325494e-38
-0.13244288 0.080433339 0.63500005 2.3325494e-38
-0.13144001 0.080560006 0.63600004 2.3233299e-38
-0.13043334 0.080686666 0.63700002 2.3233299e-38
-0.12982857 0.081066668 0.64000005 2.3233299e-38
-0.12881048 0.081193335 0.64100003 2.3233299e-38
-0.12758954 0.081193335 0.64100003 2.3233299e-38
-0.12636858 0.081193335 0.64100003 2.3233299e-38
-0.12534286 0.081320003 0.64200002 2.3233299e-38
-0.12412 0.081320003 0.64200002 2.3233299e-38
-0.12308857 0.081446663 0.64300001 2.3233299e-38
-0.12186381 0.081446663 0.64300001 2.3233299e-38
-0.12063904 0.081446663 0.64300001 2.3141103e-38
-0.11960001 0.081573337 0.64400005 2.3233299e-38
-0.11837334 0.081573337 0.64400005 2.3233299e-38
-0.11751048 0.081826672 0.64600003 2.3233299e-38
-0.11628 0.081826672 0.64600003 2.3233299e-38
-0.11504953 0.081826672 0.64600003 2.3233299e-38
-0.11381905 0.081826672 0.64600003 2.3233299e-38
-0.11276285 0.081953332 0.64700001 2.3233299e-38
-0.11153048 0.081953332 0.64700001 2.3233299e-38
-0.1102981 0.081953332 0.64700001 2.3233299e-38
-0.10906572 0.081953332 0.64700001 2.3233299e-38
-0.108 0.082079999 0.648 2.3233299e-38
-0.10693048 0.082206674 0.64900005 2.3233299e-38
-0.10553142 0.082079999 0.648 2.3233299e-38
-0.10429715 0.082079999 0.648 2.3233299e-38
-0.10322192 0.082206674 0.64900005 2.3233299e-38
-0.10198572 0.082206674 0.64900005 2.3233299e-38
-0.10074953 0.082206674 0.64900005 2.3233299e-38
-0.099513337 0.082206674 0.64900005 2.3141103e-38
-0.098277152 0.082206674 0.64900005 2.3233299e-38
-0.097040959 0.082206674 0.64900005 2.3233299e-38
-0.095657147 0.082079999 0.648 2.3233299e-38
-0.094422854 0.082079999 0.648 2.3233299e-38
-0.093188569 0.082079999 0.648 2.3233299e-38
-0.09181238 0.081953332 0.64700001 2.3233299e-38
-0.090160005 0.081573337 0.64400005 2.3233299e-38
-0.088933334 0.081573337 0.64400005 2.3233299e-38
-0.087706678 0.081573337 0.64400005 2.3233299e-38
-0.086345717 0.081446663 0.64300001 2.3233299e-38
-0.085120954 0.081446663 0.64300001 2.3233299e-38
-0.083765715 0.081320003 0.64200002 2.3233299e-38
-0.082414292 0.081193335 0.64100003 2.3233299e-38
-0.081066668 0.081066668 0.64000005 2.3233299e-38
-0.079598099 0.080813333 0.63800001 2.3325494e-38
-0.078382857 0.080813333 0.63800001 2.3325494e-38
-0.07704667 0.080686666 0.63700002 2.3141103e-38
-0.07571429 0.080560006 0.63600004 2.2956712e-38
-0.068879999 0.074480005 0.588 2.2495736e-38
-0.067759998 0.074480005 0.588 2.2311345e-38
-0.066639997 0.074480005 0.588 2.1758171e-38
-0.065519996 0.074480005 0.588 2.157378e-38
-0.064290479 0.07435333 0.58700001 2.1850367e-38
-0.063172385 0.07435333 0.58700001 2.3417691e-38
-0.14954951 0.078557141 0.611 1.9084142e-38
-0.14838572 0.078557141 0.611 1.9084861e-38
-0.14818572 0.079071432 0.61500001 1.9638035e-38
-0.14773144 0.079457149 0.61800003 1.9638388e-38
-0.14655429 0.079457149 0.61800003 2.0375953e-38
-0.14561239 0.079585716 0.61900002 2.0467077e-38
-0.14466666 0.079714283 0.62 2.102025e-38
-0.14348571 0.079714283 0.62 2.1113165e-38
-0.1425343 0.079842865 0.62100005 2.1481947e-38
-0.14180666 0.0801 0.62300003 2.1666336e-38
-0.14084572 0.080228575 0.62400001 2.1942923e-38
-0.14032857 0.080614291 0.62700003 2.2035118e-38
-0.1393562 0.080742866 0.62800002 2.2403901e-38
-0.13860001 0.081000008 0.63000005 2.2496453e-38
-0.13761809 0.081128575 0.63100004 2.2957431e-38
-0.1364162 0.081128575 0.63100004 2.3048907e-38
-0.13542858 0.08125715 0.63200003 2.3048907e-38
-0.13464953 0.081514291 0.634 2.3048907e-38
-0.13365239 0.081642859 0.63500005 2.3325494e-38
-0.13244288 0.081642859 0.63500005 2.3325494e-38
-0.13144001 0.081771433 0.63600004 2.3233299e-38
-0.13043334 0.081900001 0.63700002 2.3233299e-38
-0.12982857 0.082285725 0.64000005 2.3233299e-38
-0.12881048 0.082414292 0.64100003 2.3233299e-38
-0.12758954 0.082414292 0.64100003 2.3233299e-38
-0.12636858 0.082414292 0.64100003 2.3233299e-38
-0.12534286 0.082542859 0.64200002 2.3233299e-38
-0.12412 0.082542859 0.64200002 2.3233299e-38
-0.12308857 0.082671426 0.64300001 2.3233299e-38
-0.12186381 0.082671426 0.64300001 2.3233299e-38
-0.12063904 0.082671426 0.64300001 2.3141103e-38
-0.11960001 0.082800008 0.64400005 2.3233299e-38
-0.11874096 0.08305715 0.64600003 2.3233299e-38
-0.11769238 0.083185717 0.64700001 2.3233299e-38
-0.11646 0.083185717 0.64700001 2.3233299e-38
-0.11522762 0.083185717 0.64700001 2.3233299e-38
-0.11399524 0.083185717 0.64700001 2.3233299e-38
-0.11293714 0.083314285 0.648 2.3233299e-38
-0.11170286 0.083314285 0.648 2.3233299e-38
-0.11046857 0.083314285 0.648 2.3233299e-38
-0.10923428 0.083314285 0.648 2.3233299e-38
-0.108 0.083314285 0.648 2.3233299e-38
-0.10693048 0.083442859 0.64900005 2.3233299e-38
-0.10569429 0.083442859 0.64900005 2.3233299e-38
-0.1044581 0.083442859 0.64900005 2.3233299e-38
-0.10322192 0.083442859 0.64900005 2.3233299e-38
-0.10198572 0.083442859 0.64900005 2.3233299e-38
-0.10074953 0.083442859 0.64900005 2.3233299e-38
-0.099513337 0.083442859 0.64900005 2.3141103e-38
-0.098277152 0.083442859 0.64900005 2.3233299e-38
-0.097040959 0.083442859 0.64900005 2.3233299e-38
-0.095657147 0.083314285 0.648 2.3233299e-38
-0.094422854 0.083314285 0.648 2.3233299e-38
-0.093188569 0.083314285 0.648 2.3233299e-38
-0.09181238 0.083185717 0.64700001 2.3233299e-38
-0.090160005 0.082800008 0.64400005 2.3233299e-38
-0.088933334 0.082800008 0.64400005 2.3233299e-38
-0.087706678 0.082800008 0.64400005 2.3233299e-38
-0.086345717 0.082671426 0.64300001 2.3233299e-38
-0.085120954 0.082671426 0.64300001 2.3233299e-38
-0.083765715 0.082542859 0.64200002 2.3233299e-38
-0.082414292 0.082414292 0.64100003 2.3233299e-38
-0.081066668 0.082285725 0.64000005 2.3233299e-38
-0.079598099 0.082028575 0.63800001 2.3325492e-38
-0.078382857 0.082028575 0.63800001 2.3325492e-38
-0.07704667 0.081900001 0.63700002 2.3141103e-38
-0.07571429 0.081771433 0.63600004 2.3048907e-38
-0.074502863 0.081771433 0.63600004 2.2495736e-38
-0.06764476 0.075471431 0.58700001 2.2403541e-38
-0.066526674 0.075471431 0.58700001 2.3048907e-38
-0.065408573 0.075471431 0.58700001 2.341769e-38
-0.064180948 0.075342856 0.58600003 2.3417687e-38
-0.063064761 0.075342856 0.58600003 2.3417687e-38
-0.062054284 0.075471431 0.58700001 2.2865232e-38
-0.14862858 0.079851434 0.61200005 1.9085214e-38
-0.14746287 0.079851434 0.61200005 1.9638388e-38
-0.14773144 0.080634288 0.61800003 1.9638032e-38
-0.14679144 0.080764763 0.61900002 2.0283402e-38
-0.14561239 0.080764763 0.61900002 2.0467077e-38
-0.14466666 0.080895238 0.62 2.0928055e-38
-0.14348571 0.080895238 0.62 2.102025e-38
-0.1425343 0.08102572 0.62100005 2.1573424e-38
-0.14180666 0.081286669 0.62300003 2.1574143e-38
-0.14084572 0.081417143 0.62400001 2.1942926e-38
-0.14032857 0.081808574 0.62700003 2.1942923e-38
-0.1395781 0.082069524 0.62900001 2.2403901e-38
-0.13882001 0.08233048 0.63100004 2.2587929e-38
-0.13761809 0.08233048 0.63100004 2.2956712e-38
-0.13663238 0.082460955 0.63200003 2.3048907e-38
-0.13585714 0.082721904 0.634 2.3048907e-38
-0.13464953 0.082721904 0.634 2.3048907e-38
-0.13365239 0.082852393 0.63500005 2.3325494e-38
-0.13244288 0.082852393 0.63500005 2.3325494e-38
-0.13144001 0.082982861 0.63600004 2.3233299e-38
