# .PCD v0.7 - Point Cloud Data file format
VERSION 0.7
FIELDS x y z rgb
SIZE 4 4 4 4
TYPE F F F F
COUNT 1 1 1 1
WIDTH 1007
HEIGHT 1
VIEWPOINT 0 0 0 1 0 0 0
POINTS 1007
DATA ascii
-0.086477146 0.15626572 0.53100002 2.341769e-38
-0.085465722 0.15626572 0.53100002 2.341769e-38
-0.084454283 0.15626572 0.53100002 2.341769e-38
-0.083442859 0.15626572 0.53100002 2.341769e-38
-0.082276195 0.15597144 0.53000003 2.1948323e-38
-0.081266664 0.15597144 0.53000003 1.7522933e-38
-0.080257148 0.15597144 0.53000003 8.5202184e-39
-0.079247624 0.15597144 0.53000003 7.1372839e-39
-0.078238092 0.15597144 0.53000003 8.1496128e-39
-0.077228576 0.15597144 0.53000003 8.7949822e-39
-0.076219052 0.15597144 0.53000003 9.621852e-39
-0.075209521 0.15597144 0.53000003 9.8984388e-39
-0.074340001 0.15626572 0.53100002 1.0449815e-38
-0.073328577 0.15626572 0.53100002 1.0081032e-38
-0.072317146 0.15626572 0.53100002 8.7946122e-39
-0.071305715 0.15626572 0.53100002 7.6882647e-39
-0.070294291 0.15626572 0.53100002 1.0998322e-38
-0.06928286 0.15626572 0.53100002 1.7448743e-38
-0.068271436 0.15626572 0.53100002 2.3326213e-38
-0.067259997 0.15626572 0.53100002 2.3326213e-38
-0.066373333 0.15656 0.53200001 2.341769e-38
-0.065482862 0.1568543 0.53300005 2.2680125e-38
-0.064588577 0.15714858 0.53400004 2.341769e-38
-0.063690476 0.15744285 0.53500003 2.341769e-38
-0.06267143 0.15744285 0.53500003 2.341769e-38
-0.061767623 0.15773715 0.53600001 2.341769e-38
-0.060860001 0.15803142 0.537 2.341769e-38
-0.059948578 0.15832573 0.53800005 2.341769e-38
-0.059033338 0.15862001 0.53900003 2.341769e-38
-0.05800667 0.15862001 0.53900003 2.1758169e-38
-0.057085715 0.15891428 0.54000002 1.8998051e-38
-0.056160953 0.15920858 0.54100001 2.1210746e-38
-0.055232387 0.15950286 0.54200006 2.3326213e-38
-0.054400001 0.16009143 0.54400003 2.3234018e-38
-0.053363811 0.16009143 0.54400003 1.9461925e-38
-0.052519999 0.16068 0.546 1.2270666e-38
-0.05157429 0.16097429 0.54700005 8.5140555e-39
-0.050717145 0.16156286 0.54900002 9.5282074e-39
-0.04967143 0.16156286 0.54900002 1.0537324e-38
-0.048980005 0.16274001 0.55300003 1.0076346e-38
-0.048013333 0.16303429 0.55400002 8.5133436e-39
-0.046958096 0.16303429 0.55400002 7.7757786e-39
-0.045902859 0.16303429 0.55400002 1.4763222e-38
-0.045252379 0.16450572 0.55900002 2.0110537e-38
-0.04418762 0.16450572 0.55900002 2.2681204e-38
-0.043200001 0.16479999 0.56 2.1298269e-38
-0.042133335 0.16479999 0.56 2.0008632e-38
-0.10215334 0.15964667 0.53900003 9.8850831e-39
-0.10112667 0.15964667 0.53900003 1.0622648e-38
-0.099914297 0.15935048 0.53800005 1.6786409e-38
-0.098521911 0.15875809 0.53600001 2.1488386e-38
-0.09750095 0.15875809 0.53600001 2.1485559e-38
-0.096479997 0.15875809 0.53600001 1.9733843e-38
-0.09528096 0.15846191 0.53500003 1.4585327e-38
-0.094261907 0.15846191 0.53500003 1.3386784e-38
-0.093242861 0.15846191 0.53500003 1.5044476e-38
-0.092051432 0.15816572 0.53400004 1.8271316e-38
-0.091034293 0.15816572 0.53400004 2.2867037e-38
-0.090017147 0.15816572 0.53400004 2.2958873e-38
-0.089000002 0.15816572 0.53400004 2.3326213e-38
-0.087818101 0.15786953 0.53300005 2.3326213e-38
-0.08664 0.15757333 0.53200001 2.2865598e-38
-0.085626662 0.15757333 0.53200001 2.0745099e-38
-0.084613331 0.15757333 0.53200001 2.2035484e-38
-0.0836 0.15757333 0.53200001 2.323402e-38
-0.082431428 0.15727715 0.53100002 2.3234378e-38
-0.081420004 0.15727715 0.53100002 2.2957791e-38
-0.080408573 0.15727715 0.53100002 2.0570072e-38
-0.079397149 0.15727715 0.53100002 1.6882247e-38
-0.078385711 0.15727715 0.53100002 9.0712243e-39
-0.077374287 0.15727715 0.53100002 6.4897467e-39
-0.076362856 0.15727715 0.53100002 6.0359502e-39
-0.075351432 0.15727715 0.53100002 7.2344934e-39
-0.074480005 0.15757333 0.53200001 8.5176722e-39
-0.073466666 0.15757333 0.53200001 7.0425421e-39
-0.072453335 0.15757333 0.53200001 8.884633e-39
-0.071440004 0.15757333 0.53200001 1.4508566e-38
-0.070426665 0.15757333 0.53200001 2.2683365e-38
-0.069413334 0.15757333 0.53200001 2.2867037e-38
-0.068528578 0.15786953 0.53300005 2.341769e-38
-0.067513339 0.15786953 0.53300005 2.341769e-38
-0.066622861 0.15816572 0.53400004 2.295851e-38
-0.065605715 0.15816572 0.53400004 2.0100445e-38
-0.064709522 0.15846191 0.53500003 2.0288449e-38
-0.063809521 0.15875809 0.53600001 2.1947965e-38
-0.062788568 0.15875809 0.53600001 2.3326213e-38
-0.061882854 0.15905429 0.537 2.3326213e-38
-0.060973335 0.15935048 0.53800005 2.341769e-38
-0.060060002 0.15964667 0.53900003 2.341769e-38
-0.059142858 0.15994285 0.54000002 2.341769e-38
-0.05811429 0.15994285 0.54000002 2.341769e-38
-0.057191432 0.16023906 0.54100001 2.341769e-38
-0.056264769 0.16053525 0.54200006 2.341769e-38
-0.055232387 0.16053525 0.54200006 2.3234378e-38
-0.054400001 0.16112763 0.54400003 1.9085574e-38
-0.053363811 0.16112763 0.54400003 1.3388895e-38
-0.052519999 0.16171999 0.546 1.0899613e-38
-0.051668573 0.16231239 0.54800004 9.4352929e-39
-0.050717145 0.16260858 0.54900002 9.8040754e-39
-0.049761903 0.16290477 0.55000001 1.0261821e-38
-0.048980005 0.16379334 0.55300003 9.6164513e-39
-0.048013333 0.16408953 0.55400002 9.1558361e-39
-0.046958096 0.16408953 0.55400002 1.1645118e-38
-0.045902859 0.16408953 0.55400002 1.6513522e-38
-0.045414291 0.16616286 0.56100005 1.9463743e-38
-0.044345718 0.16616286 0.56100005 2.0930932e-38
-0.043277148 0.16616286 0.56100005 2.0930932e-38
-0.10131429 0.16097143 0.54000002 7.9536664e-39
-0.1001 0.16067335 0.53900003 1.3563515e-38
-0.099073343 0.16067335 0.53900003 1.8818666e-38
-0.09750095 0.15977906 0.53600001 2.2313863e-38
-0.096479997 0.15977906 0.53600001 2.0930929e-38
-0.095459051 0.15977906 0.53600001 1.7804947e-38
-0.094261907 0.15948096 0.53500003 1.5500057e-38
-0.093242861 0.15948096 0.53500003 1.6331252e-38
-0.092051432 0.15918286 0.53400004 2.0754821e-38
-0.091034293 0.15918286 0.53400004 2.3234378e-38
-0.090017147 0.15918286 0.53400004 2.3234378e-38
-0.089000002 0.15918286 0.53400004 2.3326213e-38
-0.087982863 0.15918286 0.53400004 2.3234018e-38
-0.086802863 0.15888476 0.53300005 2.0195534e-38
-0.085787632 0.15888476 0.53300005 1.8628209e-38
-0.084613331 0.15858667 0.53200001 2.0284471e-38
-0.0836 0.15858667 0.53200001 2.3142535e-38
-0.082431428 0.15828857 0.53100002 2.341769e-38
-0.081420004 0.15828857 0.53100002 2.341769e-38
-0.080408573 0.15828857 0.53100002 2.2867037e-38
-0.079397149 0.15828857 0.53100002 2.111532e-38
-0.078385711 0.15828857 0.53100002 1.348868e-38
-0.077374287 0.15828857 0.53100002 1.0077442e-38
-0.076506667 0.15858667 0.53200001 6.7706594e-39
-0.075493328 0.15858667 0.53200001 6.5862681e-39
-0.074480005 0.15858667 0.53200001 5.7596926e-39
-0.073466666 0.15858667 0.53200001 5.9440839e-39
-0.072453335 0.15858667 0.53200001 1.1918118e-38
-0.071574293 0.15888476 0.53300005 1.8091591e-38
-0.070559055 0.15888476 0.53300005 2.3234378e-38
-0.069543809 0.15888476 0.53300005 2.3234378e-38
-0.068657145 0.15918286 0.53400004 2.341769e-38
-0.067639999 0.15918286 0.53400004 2.341769e-38
-0.066622861 0.15918286 0.53400004 2.1763211e-38
-0.065728575 0.15948096 0.53500003 1.8905146e-38
-0.064830475 0.15977906 0.53600001 1.7348275e-38
-0.063928574 0.16007714 0.537 1.8178036e-38
-0.062905714 0.16007714 0.537 2.1577743e-38
-0.061998103 0.16037525 0.53800005 2.2683366e-38
-0.061086673 0.16067335 0.53900003 2.341769e-38
-0.060171433 0.16097143 0.54000002 2.341769e-38
-0.059142858 0.16097143 0.54000002 2.341769e-38
-0.05811429 0.16097143 0.54000002 2.341769e-38
-0.057191432 0.16126953 0.54100001 2.341769e-38
-0.056264769 0.16156763 0.54200006 2.341769e-38
-0.055334289 0.16186573 0.54300004 2.3234378e-38
-0.054400001 0.16216381 0.54400003 1.5674336e-38
-0.05356 0.16275999 0.546 1.1269838e-38
-0.052712385 0.1633562 0.54800004 1.0993251e-38
-0.051762857 0.16365428 0.54900002 9.8951962e-39
-0.050717145 0.16365428 0.54900002 9.8030006e-39
-0.049852382 0.16425048 0.551 9.9855968e-39
-0.048980005 0.16484667 0.55300003 8.8792492e-39
-0.048013333 0.16514477 0.55400002 8.6033812e-39
-0.046958096 0.16514477 0.55400002 1.4780488e-38
-0.045902859 0.16514477 0.55400002 1.9370472e-38
-0.045252379 0.16663525 0.55900002 1.8356323e-38
-0.044424765 0.16752952 0.56200004 1.8995902e-38
-0.043354288 0.16752952 0.56200004 1.9825663e-38
-0.10987429 0.16560002 0.55200005 1.7246344e-38
-0.10862571 0.1653 0.551 1.6237208e-38
-0.10757619 0.1653 0.551 1.2457187e-38
-0.10652667 0.1653 0.551 8.2299128e-39
-0.10547714 0.1653 0.551 8.3221084e-39
-0.10168953 0.16260001 0.54200006 8.3221084e-39
-0.10047143 0.16230001 0.54100001 1.0620117e-38
-0.099257141 0.162 0.54000002 1.3109399e-38
-0.097682856 0.1611 0.537 1.8628539e-38
-0.096660003 0.1611 0.537 2.1855387e-38
-0.095459051 0.16080001 0.53600001 2.1945812e-38
-0.094261907 0.1605 0.53500003 2.1208247e-38
-0.093242861 0.1605 0.53500003 2.2590813e-38
-0.092051432 0.1602 0.53400004 2.2867037e-38
-0.091034293 0.1602 0.53400004 2.3326213e-38
-0.090017147 0.1602 0.53400004 2.3326213e-38
-0.089000002 0.1602 0.53400004 2.2128399e-38
-0.087982863 0.1602 0.53400004 1.7057639e-38
-0.086965717 0.1602 0.53400004 1.2547662e-38
-0.085948579 0.1602 0.53400004 1.1902293e-38
-0.084931433 0.1602 0.53400004 1.6043837e-38
-0.083914295 0.1602 0.53400004 2.1022401e-38
-0.082586668 0.1596 0.53200001 2.341769e-38
-0.08157333 0.1596 0.53200001 2.341769e-38
-0.080559999 0.1596 0.53200001 2.341769e-38
-0.079546668 0.1596 0.53200001 2.341769e-38
-0.078533329 0.1596 0.53200001 2.2683365e-38
-0.077520005 0.1596 0.53200001 2.1761408e-38
-0.076506667 0.1596 0.53200001 1.505241e-38
-0.075493328 0.1596 0.53200001 8.0455481e-39
-0.074480005 0.1596 0.53200001 6.7709747e-39
-0.073466666 0.1596 0.53200001 1.2948082e-38
-0.072589532 0.15990001 0.53300005 2.2683365e-38
-0.071574293 0.15990001 0.53300005 2.2867037e-38
-0.070559055 0.15990001 0.53300005 2.341769e-38
-0.069543809 0.15990001 0.53300005 2.341769e-38
-0.068657145 0.1602 0.53400004 2.3234378e-38
-0.067639999 0.1602 0.53400004 2.1482661e-38
-0.066747628 0.1605 0.53500003 1.881945e-38
-0.065851435 0.16080001 0.53600001 1.8266276e-38
-0.064951427 0.1611 0.537 1.7993294e-38
-0.064047627 0.16140002 0.53800005 1.7901099e-38
-0.063022859 0.16140002 0.53800005 1.9094955e-38
-0.062113333 0.1617 0.53900003 1.9279346e-38
-0.0612 0.162 0.54000002 2.1116762e-38
-0.060171433 0.162 0.54000002 2.2038718e-38
-0.059142858 0.162 0.54000002 2.2773039e-38
-0.05811429 0.162 0.54000002 2.3326213e-38
-0.057297148 0.16260001 0.54200006 2.341769e-38
-0.056368575 0.16290002 0.54300004 2.341769e-38
-0.055436194 0.16320002 0.54400003 2.2683365e-38
-0.054400001 0.16320002 0.54400003 1.3740389e-38
-0.05356 0.1638 0.546 8.6055392e-39
-0.052712385 0.16440001 0.54800004 9.5274955e-39
-0.051857144 0.16499999 0.55000001 9.9873947e-39
-0.050809525 0.16499999 0.55000001 9.7108078e-39
-0.049942859 0.16560002 0.55200005 9.2509156e-39
-0.049068574 0.16620001 0.55400002 7.2226118e-39
-0.048013333 0.16620001 0.55400002 1.108437e-38
-0.047042858 0.1665 0.55500001 1.8642604e-38
-0.046068575 0.16680001 0.55600005 2.1393364e-38
-0.045252379 0.16770001 0.55900002 1.8166517e-38
-0.044266667 0.168 0.56 1.6510949e-38
-0.10987429 0.16665143 0.55200005 1.6877211e-38
-0.10862571 0.16634952 0.551 1.6145754e-38
-0.10757619 0.16634952 0.551 1.3287689e-38
-0.10652667 0.16634952 0.551 1.0528341e-38
-0.10547714 0.16634952 0.551 9.5141888e-39
-0.10442762 0.16634952 0.551 8.6905308e-39
-0.10187715 0.16393429 0.54300004 9.0593133e-39
-0.10047143 0.16333048 0.54100001 8.7830641e-39
-0.099257141 0.16302858 0.54000002 9.3362379e-39
-0.098046668 0.16272667 0.53900003 1.5312721e-38
-0.097020008 0.16272667 0.53900003 2.0014698e-38
-0.09599334 0.16272667 0.53900003 2.3049989e-38
-0.094790481 0.16242477 0.53800005 2.3142185e-38
-0.093591429 0.16212286 0.537 2.3234378e-38
-0.092396185 0.16182095 0.53600001 2.3234378e-38
-0.09120477 0.16151905 0.53500003 2.3326213e-38
-0.090185717 0.16151905 0.53500003 2.2680844e-38
-0.089333333 0.16182095 0.53600001 1.8537458e-38
-0.088147625 0.16151905 0.53500003 1.4019872e-38
-0.08712858 0.16151905 0.53500003 1.355638e-38
-0.086109526 0.16151905 0.53500003 1.3832967e-38
-0.084931433 0.16121715 0.53400004 1.5306257e-38
-0.083914295 0.16121715 0.53400004 1.8256517e-38
-0.082741909 0.16091526 0.53300005 2.0927679e-38
-0.081726678 0.16091526 0.53300005 2.3509157e-38
-0.080559999 0.16061333 0.53200001 2.3417687e-38
-0.079546668 0.16061333 0.53200001 2.3417687e-38
-0.078533329 0.16061333 0.53200001 2.3326213e-38
-0.077520005 0.16061333 0.53200001 2.3141822e-38
-0.076650485 0.16091526 0.53300005 1.983539e-38
-0.075635247 0.16091526 0.53300005 1.3473891e-38
-0.074620001 0.16091526 0.53300005 1.0171046e-38
-0.07360477 0.16091526 0.53300005 1.7081401e-38
-0.072725721 0.16121715 0.53400004 2.3326213e-38
-0.071708575 0.16121715 0.53400004 2.3326213e-38
-0.070691437 0.16121715 0.53400004 2.341769e-38
-0.069674291 0.16121715 0.53400004 2.341769e-38
-0.068914287 0.16182095 0.53600001 2.2039434e-38
-0.067893334 0.16182095 0.53600001 1.9457957e-38
-0.066997141 0.16212286 0.537 1.6981661e-38
-0.066097148 0.16242477 0.53800005 1.7534834e-38
-0.065072387 0.16242477 0.53800005 1.7993655e-38
-0.064166673 0.16272667 0.53900003 1.7809263e-38
-0.063140005 0.16272667 0.53900003 1.7257531e-38
-0.062228575 0.16302858 0.54000002 1.6980945e-38
-0.0612 0.16302858 0.54000002 1.808368e-38
-0.060171433 0.16302858 0.54000002 1.808368e-38
-0.059142858 0.16302858 0.54000002 2.1300074e-38
-0.05811429 0.16302858 0.54000002 2.2867037e-38
-0.057297148 0.16363239 0.54200006 2.3326213e-38
-0.056368575 0.16393429 0.54300004 2.3326213e-38
-0.055436194 0.1642362 0.54400003 2.1026734e-38
-0.054400001 0.1642362 0.54400003 1.2452541e-38
-0.05356 0.16484 0.546 8.4225871e-39
-0.052712385 0.16544382 0.54800004 9.5289347e-39
-0.051762857 0.16574572 0.54900002 1.0354379e-38
-0.050809525 0.16604762 0.55000001 9.8934012e-39
-0.049942859 0.16665143 0.55200005 9.5260536e-39
-0.049068574 0.16725525 0.55400002 8.2353148e-39
-0.048013333 0.16725525 0.55400002 1.3015821e-38
-0.047042858 0.16755714 0.55500001 1.9469124e-38
-0.046068575 0.16785906 0.55600005 2.0748722e-38
-0.04533333 0.16906667 0.56 1.6507725e-38
-0.044266667 0.16906667 0.56 1.5316006e-38
-0.043200001 0.16906667 0.56 1.5961375e-38
-0.11092572 0.16770287 0.55200005 1.5124059e-38
-0.10987429 0.16770287 0.55200005 1.5677233e-38
-0.10862571 0.16739905 0.551 1.5128012e-38
-0.10757619 0.16739905 0.551 1.558899e-38
-0.10652667 0.16739905 0.551 1.2829644e-38
-0.10490286 0.16648763 0.54800004 9.9715796e-39
-0.10348 0.16587999 0.546 8.2306428e-39
-0.10244 0.16587999 0.546 8.9682079e-39
-0.10121429 0.1655762 0.54500002 9.0596734e-39
-0.099440955 0.16436096 0.54100001 8.5064997e-39
-0.098046668 0.16375335 0.53900003 1.0619411e-38
-0.097020008 0.16375335 0.53900003 1.5782366e-38
-0.09599334 0.16375335 0.53900003 2.2405676e-38
-0.094790481 0.16344953 0.53800005 2.3234361e-38
-0.093765721 0.16344953 0.53800005 2.3326213e-38
-0.092396185 0.16284192 0.53600001 2.1666692e-38
-0.091375239 0.16284192 0.53600001 1.7335703e-38
-0.090522863 0.16314571 0.537 1.4201052e-38
-0.089499995 0.16314571 0.537 1.3375582e-38
-0.088477142 0.16314571 0.537 1.3928755e-38
-0.087454289 0.16314571 0.537 1.4664165e-38
-0.086431429 0.16314571 0.537 1.4940752e-38
-0.085090473 0.1625381 0.53500003 1.5215175e-38
-0.084071428 0.1625381 0.53500003 1.4662002e-38
-0.082897149 0.16223429 0.53400004 1.6502993e-38
-0.081880003 0.16223429 0.53400004 1.8900079e-38
-0.080862865 0.16223429 0.53400004 2.2217332e-38
-0.079845719 0.16223429 0.53400004 2.3509511e-38
-0.078828573 0.16223429 0.53400004 2.341769e-38
-0.077811427 0.16223429 0.53400004 2.341769e-38
-0.076794289 0.16223429 0.53400004 2.3050705e-38
-0.075777151 0.16223429 0.53400004 2.2405336e-38
-0.074760005 0.16223429 0.53400004 2.2774842e-38
-0.073742867 0.16223429 0.53400004 2.2958873e-38
-0.072725721 0.16223429 0.53400004 2.341769e-38
-0.071708575 0.16223429 0.53400004 2.341769e-38
-0.070691437 0.16223429 0.53400004 2.3050705e-38
-0.069804765 0.1625381 0.53500003 2.0930206e-38
-0.069042861 0.16314571 0.537 1.8819806e-38
-0.068019994 0.16314571 0.537 1.8358827e-38
-0.067121908 0.16344953 0.53800005 1.7625954e-38
-0.066097148 0.16344953 0.53800005 1.7810345e-38
-0.065072387 0.16344953 0.53800005 1.7902178e-38
-0.06428571 0.16405715 0.54000002 1.7902178e-38
-0.06325715 0.16405715 0.54000002 1.7626314e-38
-0.062228575 0.16405715 0.54000002 1.7257531e-38
-0.0612 0.16405715 0.54000002 1.7440847e-38
-0.060171433 0.16405715 0.54000002 1.6795477e-38
-0.059252381 0.16436096 0.54100001 1.8540347e-38
-0.058221903 0.16436096 0.54100001 2.158134e-38
-0.057402864 0.16496858 0.54300004 2.3234378e-38
-0.056472383 0.16527238 0.54400003 2.3234378e-38
-0.055436194 0.16527238 0.54400003 2.1304756e-38
-0.0546 0.16587999 0.546 1.0794454e-38
-0.05356 0.16587999 0.546 4.2878318e-39
-0.052808572 0.16679144 0.54900002 6.3161356e-39
-0.051762857 0.16679144 0.54900002 9.3434672e-39
-0.050809525 0.16709523 0.55000001 8.4215109e-39
-0.049761903 0.16709523 0.55000001 8.1470708e-39
-0.049068574 0.16831049 0.55400002 1.026757e-38
-0.048013333 0.16831049 0.55400002 1.6421686e-38
-0.047042858 0.16861428 0.55500001 2.0109461e-38
-0.046068575 0.1689181 0.55600005 2.0104075e-38
-0.042891432 0.1689181 0.55600005 1.5687675e-38
-0.11092572 0.16875429 0.55200005 1.5675791e-38
-0.10987429 0.16875429 0.55200005 1.5491399e-38
-0.10862571 0.16844857 0.551 1.4940721e-38
-0.10757619 0.16844857 0.551 1.6139264e-38
-0.10652667 0.16844857 0.551 1.4486638e-38
-0.10490286 0.16753143 0.54800004 1.0706617e-38
-0.10348 0.16692001 0.546 7.9551265e-39
-0.10244 0.16692001 0.546 8.6926916e-39
-0.10121429 0.16661429 0.54500002 8.5079458e-39
-0.099624768 0.16569717 0.54200006 7.8625764e-39
-0.09841048 0.16539142 0.54100001 9.1493131e-39
-0.097200006 0.16508572 0.54000002 1.2283965e-38
-0.096171431 0.16508572 0.54000002 1.9732739e-38
-0.094790481 0.16447429 0.53800005 2.2958868e-38
-0.093765721 0.16447429 0.53800005 2.3326213e-38
-0.092913337 0.16478001 0.53900003 1.8993019e-38
-0.0917162 0.16447429 0.53800005 1.6228601e-38
-0.090691432 0.16447429 0.53800005 1.3831515e-38
-0.089666672 0.16447429 0.53800005 1.4018074e-38
-0.088641912 0.16447429 0.53800005 1.494003e-38
-0.087617151 0.16447429 0.53800005 1.521662e-38
-0.086592384 0.16447429 0.53800005 1.5308816e-38
-0.085408568 0.16416857 0.537 1.5032948e-38
-0.084385715 0.16416857 0.537 1.4295383e-38
-0.083362855 0.16416857 0.537 1.5030039e-38
-0.081880003 0.16325144 0.53400004 1.5583212e-38
-0.080862865 0.16325144 0.53400004 1.8528422e-38
-0.079845719 0.16325144 0.53400004 2.258503e-38
-0.078828573 0.16325144 0.53400004 2.341804e-38
-0.077811427 0.16325144 0.53400004 2.341804e-38
-0.076794289 0.16325144 0.53400004 2.341769e-38
-0.075777151 0.16325144 0.53400004 2.341769e-38
-0.074760005 0.16325144 0.53400004 2.341769e-38
-0.073742867 0.16325144 0.53400004 2.341769e-38
-0.072725721 0.16325144 0.53400004 2.341769e-38
-0.071708575 0.16325144 0.53400004 2.3325494e-38
-0.070823811 0.16355716 0.53500003 2.1579541e-38
-0.06993524 0.16386285 0.53600001 1.9182455e-38
-0.069042861 0.16416857 0.537 1.7350083e-38
-0.068019994 0.16416857 0.537 1.762667e-38
-0.067121908 0.16447429 0.53800005 1.771815e-38
-0.066097148 0.16447429 0.53800005 1.7810345e-38
-0.065072387 0.16447429 0.53800005 1.7718147e-38
-0.06428571 0.16508572 0.54000002 1.7718147e-38
-0.06325715 0.16508572 0.54000002 1.7810704e-38
-0.062228575 0.16508572 0.54000002 1.7534118e-38
-0.061313331 0.16539142 0.54100001 1.7533755e-38
-0.060282856 0.16539142 0.54100001 1.6611799e-38
-0.059252381 0.16539142 0.54100001 1.6886581e-38
-0.05832953 0.16569717 0.54200006 2.0020137e-38
-0.057402864 0.16600287 0.54300004 2.2774839e-38
-0.056472383 0.16630858 0.54400003 2.2958871e-38
-0.055538096 0.16661429 0.54500002 2.1305475e-38
-0.0546 0.16692001 0.546 1.2915673e-38
-0.05356 0.16692001 0.546 6.9500088e-39
-0.052808572 0.16783714 0.54900002 7.5953782e-39
-0.051762857 0.16783714 0.54900002 8.606984e-39
-0.050809525 0.16814286 0.55000001 7.592832e-39
-0.049761903 0.16814286 0.55000001 7.6864458e-39
-0.049068574 0.16936572 0.55400002 1.3310379e-38
-0.048013333 0.16936572 0.55400002 1.9370472e-38
-0.047042858 0.16967143 0.55500001 2.0108026e-38
-0.046068575 0.16997716 0.55600005 1.9919311e-38
-0.11112667 0.17011334 0.55300003 1.5859819e-38
-0.10987429 0.16980574 0.55200005 1.4661276e-38
-0.10882286 0.16980574 0.55200005 1.4018055e-38
-0.10777144 0.16980574 0.55200005 1.5861967e-38
-0.10652667 0.1694981 0.551 1.540498e-38
-0.10490286 0.16857524 0.54800004 1.3653263e-38
-0.10385905 0.16857524 0.54800004 9.702875e-39
-0.10244 0.16796 0.546 9.2418969e-39
-0.10121429 0.16765238 0.54500002 8.5086717e-39
-0.099992387 0.16734476 0.54400003 8.5086717e-39
-0.098774292 0.16703714 0.54300004 9.0596636e-39
-0.097379997 0.16642191 0.54100001 9.705033e-39
-0.096349522 0.16642191 0.54100001 1.8167543e-38
-0.095142856 0.1661143 0.54000002 2.2775172e-38
-0.094114289 0.1661143 0.54000002 2.3326213e-38
-0.092913337 0.16580668 0.53900003 1.5120802e-38
-0.091886669 0.16580668 0.53900003 1.2178127e-38
-0.090860009 0.16580668 0.53900003 1.3284475e-38
-0.089666672 0.16549906 0.53800005 1.4480497e-38
-0.088641912 0.16549906 0.53800005 1.4941475e-38
-0.087617151 0.16549906 0.53800005 1.5125143e-38
-0.086592384 0.16549906 0.53800005 1.5217339e-38
-0.085408568 0.16519143 0.537 1.5308816e-38
-0.084385715 0.16519143 0.537 1.521662e-38
-0.083362855 0.16519143 0.537 1.5492125e-38
-0.082033336 0.1645762 0.53500003 1.4938951e-38
-0.08101429 0.1645762 0.53500003 1.6043469e-38
-0.079995237 0.1645762 0.53500003 1.6688838e-38
-0.078828573 0.16426858 0.53400004 2.0467392e-38
-0.077811427 0.16426858 0.53400004 2.3509851e-38
-0.076794289 0.16426858 0.53400004 2.341769e-38
-0.075777151 0.16426858 0.53400004 2.341769e-38
-0.074760005 0.16426858 0.53400004 2.341769e-38
-0.073742867 0.16426858 0.53400004 2.341769e-38
-0.07286191 0.1645762 0.53500003 2.3049986e-38
-0.071842864 0.1645762 0.53500003 2.0929487e-38
-0.071088567 0.16519143 0.537 1.8360269e-38
-0.070065714 0.16519143 0.537 1.7899291e-38
-0.069171436 0.16549906 0.53800005 1.7166778e-38
-0.068146676 0.16549906 0.53800005 1.7166778e-38
-0.067121908 0.16549906 0.53800005 1.7534121e-38
-0.066220008 0.16580668 0.53900003 1.771851e-38
-0.065193333 0.16580668 0.53900003 1.7626314e-38
-0.06428571 0.1661143 0.54000002 1.7534118e-38
-0.06325715 0.1661143 0.54000002 1.7442644e-38
-0.062228575 0.1661143 0.54000002 1.7442644e-38
-0.061313331 0.16642191 0.54100001 1.735008e-38
-0.060394291 0.16672954 0.54200006 1.652032e-38
-0.059361909 0.16672954 0.54200006 1.826556e-38
-0.05832953 0.16672954 0.54200006 2.1213998e-38
-0.057508573 0.16734476 0.54400003 2.3326213e-38
-0.056472383 0.16734476 0.54400003 2.3326213e-38
-0.055538096 0.16765238 0.54500002 2.2774842e-38
-0.0546 0.16796 0.546 2.0654342e-38
-0.05356 0.16796 0.546 1.2931943e-38
-0.052808572 0.16888286 0.54900002 1.0719259e-38
-0.051762857 0.16888286 0.54900002 4.2860689e-39
-0.050809525 0.16919048 0.55000001 2.8109389e-39
-0.050033335 0.17011334 0.55300003 8.2356777e-39
-0.049068574 0.17042094 0.55400002 1.6346717e-38
-0.048013333 0.17042094 0.55400002 2.1486276e-38
-0.047042858 0.17072856 0.55500001 2.0287733e-38
-0.046068575 0.1710362 0.55600005 1.8263367e-38
-0.045009527 0.1710362 0.55600005 1.5681889e-38
-0.044345718 0.1725743 0.56100005 1.5409656e-38
-0.11092572 0.17085715 0.55200005 1.6227525e-38
-0.10987429 0.17085715 0.55200005 1.5305569e-38
-0.10882286 0.17085715 0.55200005 1.4199569e-38
-0.10777144 0.17085715 0.55200005 1.4937134e-38
-0.10652667 0.17054762 0.551 1.6139646e-38
-0.10528572 0.17023809 0.55000001 1.5770863e-38
-0.10404858 0.16992857 0.54900002 1.1175167e-38
-0.10300286 0.16992857 0.54900002 9.792233e-39
-0.10177144 0.16961905 0.54800004 9.0611084e-39
-0.099992387 0.16838096 0.54400003 8.8767171e-39
-0.098774292 0.16807145 0.54300004 7.6824871e-39
-0.097560011 0.16776192 0.54200006 7.959074e-39
-0.096349522 0.16745238 0.54100001 1.5039404e-38
-0.095142856 0.16714285 0.54000002 2.1397669e-38
-0.094114289 0.16714285 0.54000002 2.2865961e-38
-0.093085721 0.16714285 0.54000002 1.5582506e-38
-0.091886669 0.16683336 0.53900003 1.2271395e-38
-0.090860009 0.16683336 0.53900003 1.3469938e-38
-0.089833334 0.16683336 0.53900003 1.4940386e-38
-0.088641912 0.16652383 0.53800005 1.5124778e-38
-0.087617151 0.16652383 0.53800005 1.4941828e-38
-0.086592384 0.16652383 0.53800005 1.5034024e-38
-0.085567623 0.16652383 0.53800005 1.5217339e-38
-0.084542863 0.16652383 0.53800005 1.5217339e-38
-0.083362855 0.16621427 0.537 1.5217339e-38
-0.082340002 0.16621427 0.537 1.4940752e-38
-0.081165716 0.16590476 0.53600001 1.5124765e-38
-0.080144763 0.16590476 0.53600001 1.4755983e-38
-0.078976192 0.16559525 0.53500003 1.6595894e-38
-0.077957146 0.16559525 0.53500003 2.111348e-38
-0.077081911 0.16590476 0.53600001 2.3417687e-38
-0.075919047 0.16559525 0.53500003 2.3417687e-38
-0.074900001 0.16559525 0.53500003 2.341769e-38
-0.073880956 0.16559525 0.53500003 2.341769e-38
-0.07286191 0.16559525 0.53500003 2.259045e-38
-0.071977146 0.16590476 0.53600001 1.9455799e-38
-0.071088567 0.16621427 0.537 1.6429932e-38
-0.070196196 0.16652383 0.53800005 1.7075301e-38
-0.069171436 0.16652383 0.53800005 1.7534837e-38
-0.068146676 0.16652383 0.53800005 1.7534837e-38
-0.067246668 0.16683336 0.53900003 1.7626314e-38
-0.066220008 0.16683336 0.53900003 1.771851e-38
-0.065193333 0.16683336 0.53900003 1.7534839e-38
-0.06428571 0.16714285 0.54000002 1.7534839e-38
-0.06325715 0.16714285 0.54000002 1.7258973e-38
-0.062343806 0.16745238 0.54100001 1.7166778e-38
-0.061426673 0.16776192 0.54200006 1.7074932e-38
-0.060394291 0.16776192 0.54200006 1.6429563e-38
-0.059471432 0.16807145 0.54300004 1.9276828e-38
-0.058437146 0.16807145 0.54300004 2.1856847e-38
-0.057508573 0.16838096 0.54400003 2.341769e-38
-0.056576192 0.16869047 0.54500002 2.341769e-38
-0.055640001 0.169 0.546 2.3326213e-38
-0.0546 0.169 0.546 2.2496453e-38
-0.053658098 0.16930953 0.54700005 2.0567201e-38
-0.052904766 0.17023809 0.55000001 1.7248158e-38
-0.051857144 0.17023809 0.55000001 1.0725342e-38
-0.050901905 0.17054762 0.551 6.4843433e-39
-0.050033335 0.17116667 0.55300003 9.5235284e-39
-0.049068574 0.17147619 0.55400002 1.7999756e-38
-0.048100002 0.17178571 0.55500001 2.2223829e-38
-0.047127623 0.17209525 0.55600005 1.8443808e-38
-0.046151433 0.17240477 0.55700004 1.6330518e-38
-0.045414291 0.17364287 0.56100005 1.5131975e-38
-0.10987429 0.17190859 0.55200005 1.5675075e-38
-0.10882286 0.17190859 0.55200005 1.4200673e-38
-0.10777144 0.17190859 0.55200005 1.3186521e-38
-0.10652667 0.17159714 0.551 1.3560339e-38
-0.10528572 0.17128572 0.55000001 1.6971577e-38
-0.10404858 0.1709743 0.54900002 1.5225265e-38
-0.10300286 0.1709743 0.54900002 1.0246701e-38
-0.10177144 0.17066287 0.54800004 6.4864705e-39
-0.10036 0.17004001 0.546 6.9474486e-39
-0.098774292 0.16910574 0.54300004 6.4853859e-39
-0.097560011 0.1687943 0.54200006 8.4214941e-39
-0.096349522 0.16848285 0.54100001 1.5130212e-38
-0.095319048 0.16848285 0.54100001 2.1305834e-38
-0.094288565 0.16848285 0.54100001 2.3050705e-38
-0.093085721 0.16817144 0.54000002 1.6504816e-38
-0.092057146 0.16817144 0.54000002 1.1812245e-38
-0.090860009 0.16786 0.53900003 1.2365419e-38
-0.089833334 0.16786 0.53900003 1.4112428e-38
-0.088806674 0.16786 0.53900003 1.4757797e-38
-0.087780006 0.16786 0.53900003 1.4941826e-38
-0.086592384 0.16754858 0.53800005 1.4941826e-38
-0.085567623 0.16754858 0.53800005 1.4941828e-38
-0.084542863 0.16754858 0.53800005 1.5034024e-38
-0.083362855 0.16723713 0.537 1.5125141e-38
-0.082340002 0.16723713 0.537 1.5309532e-38
-0.081317142 0.16723713 0.537 1.5401727e-38
-0.080294281 0.16723713 0.537 1.4756358e-38
-0.07912381 0.16692571 0.53600001 1.4477257e-38
-0.078102857 0.16692571 0.53600001 1.6505561e-38
-0.077081911 0.16692571 0.53600001 2.1665963e-38
-0.076060951 0.16692571 0.53600001 2.3509876e-38
-0.075039998 0.16692571 0.53600001 2.341769e-38
-0.074019045 0.16692571 0.53600001 2.341769e-38
-0.072998099 0.16692571 0.53600001 2.2223466e-38
-0.072111428 0.16723713 0.537 1.918101e-38
-0.071220957 0.16754858 0.53800005 1.7074582e-38
-0.070196196 0.16754858 0.53800005 1.7351168e-38
-0.069300003 0.16786 0.53900003 1.771851e-38
-0.068273336 0.16786 0.53900003 1.771851e-38
-0.067246668 0.16786 0.53900003 1.771851e-38
-0.066220008 0.16786 0.53900003 1.771851e-38
-0.065193333 0.16786 0.53900003 1.771851e-38
-0.06428571 0.16817144 0.54000002 1.7626314e-38
-0.063374281 0.16848285 0.54100001 1.7442644e-38
-0.062459055 0.1687943 0.54200006 1.7258253e-38
-0.061426673 0.1687943 0.54200006 1.7257524e-38
-0.060394291 0.1687943 0.54200006 1.7810698e-38
-0.059471432 0.16910574 0.54300004 2.1762134e-38
-0.058544766 0.16941716 0.54400003 2.2683366e-38
-0.057614289 0.16972858 0.54500002 2.341769e-38
-0.056679998 0.17004001 0.546 2.341769e-38
-0.055640001 0.17004001 0.546 2.341769e-38
-0.0546 0.17004001 0.546 2.341769e-38
-0.053658098 0.17035145 0.54700005 2.3142182e-38
-0.052808572 0.1709743 0.54900002 2.3142182e-38
-0.051857144 0.17128572 0.55000001 2.1856128e-38
-0.050901905 0.17159714 0.551 1.844489e-38
-0.050123811 0.17253143 0.55400002 1.7989336e-38
-0.049157143 0.17284286 0.55500001 2.1122163e-38
-0.048273336 0.17346571 0.55700004 2.2407501e-38
-0.047212381 0.17346571 0.55700004 1.7521133e-38
-0.046151433 0.17346571 0.55700004 1.504375e-38
-0.045414291 0.17471145 0.56100005 1.4767163e-38
-0.10987429 0.17296001 0.55200005 1.5859463e-38
-0.10882286 0.17296001 0.55200005 1.5398485e-38
-0.10777144 0.17296001 0.55200005 1.3370181e-38
-0.10672001 0.17296001 0.55200005 1.3741803e-38
-0.10547714 0.17264667 0.551 1.779841e-38
-0.10404858 0.17202 0.54900002 1.6513504e-38
-0.10300286 0.17202 0.54900002 1.088957e-38
-0.10177144 0.17170668 0.54800004 6.7601553e-39
-0.10036 0.17108001 0.546 6.8523509e-39
-0.099138096 0.17076667 0.54500002 6.3006457e-39
-0.097740002 0.17014001 0.54300004 9.9884709e-39
-0.096527629 0.16982669 0.54200006 1.8444186e-38
-0.095495246 0.16982669 0.54200006 2.2316024e-38
-0.094288565 0.16951333 0.54100001 2.2774842e-38
-0.093258098 0.16951333 0.54100001 1.816506e-38
-0.092057146 0.1692 0.54000002 1.4390842e-38
-0.091028571 0.1692 0.54000002 1.2915712e-38
-0.089999996 0.1692 0.54000002 1.3836197e-38
-0.088806674 0.16888668 0.53900003 1.4665957e-38
-0.087780006 0.16888668 0.53900003 1.4941828e-38
-0.086753339 0.16888668 0.53900003 1.4941828e-38
-0.085567623 0.16857335 0.53800005 1.5125141e-38
-0.084542863 0.16857335 0.53800005 1.5217336e-38
-0.083518103 0.16857335 0.53800005 1.5217336e-38
-0.082493335 0.16857335 0.53800005 1.5401727e-38
-0.081317142 0.16826001 0.537 1.540173e-38
-0.080294281 0.16826001 0.537 1.5032948e-38
-0.079271428 0.16826001 0.537 1.4020582e-38
-0.078248575 0.16826001 0.537 1.5403517e-38
-0.077225715 0.16826001 0.537 1.9638022e-38
-0.076202855 0.16826001 0.537 2.3418043e-38
-0.075320005 0.16857335 0.53800005 2.341769e-38
-0.074295245 0.16857335 0.53800005 2.3141103e-38
-0.073270477 0.16857335 0.53800005 2.1487345e-38
-0.072380006 0.16888668 0.53900003 1.9366846e-38
-0.071353339 0.16888668 0.53900003 1.762667e-38
-0.070326671 0.16888668 0.53900003 1.762667e-38
-0.069300003 0.16888668 0.53900003 1.7626314e-38
-0.068399996 0.1692 0.54000002 1.771851e-38
-0.067371435 0.1692 0.54000002 1.7901822e-38
-0.06634286 0.1692 0.54000002 1.7901822e-38
-0.065314285 0.1692 0.54000002 1.771851e-38
-0.06428571 0.1692 0.54000002 1.7626314e-38
-0.063374281 0.16951333 0.54100001 1.7626314e-38
-0.062459055 0.16982669 0.54200006 1.7165336e-38
-0.061426673 0.16982669 0.54200006 1.7532316e-38
-0.060505718 0.17014001 0.54300004 1.9284018e-38
-0.059471432 0.17014001 0.54300004 2.3234378e-38
-0.058544766 0.17045334 0.54400003 2.3234378e-38
-0.057719998 0.17108001 0.546 2.341769e-38
-0.056679998 0.17108001 0.546 2.3048907e-38
-0.055640001 0.17108001 0.546 2.3417687e-38
-0.0546 0.17108001 0.546 2.3417687e-38
-0.053756192 0.17170668 0.54800004 2.341769e-38
-0.052808572 0.17202 0.54900002 2.341769e-38
-0.051857144 0.17233333 0.55000001 2.3050705e-38
-0.050901905 0.17264667 0.551 2.2128749e-38
-0.050214287 0.17389999 0.55500001 2.1119646e-38
-0.049245719 0.17421333 0.55600005 2.1580623e-38
-0.048273336 0.17452668 0.55700004 2.0840904e-38
-0.047212381 0.17452668 0.55700004 1.6876492e-38
-0.046151433 0.17452668 0.55700004 1.495335e-38
-0.045090482 0.17452668 0.55700004 1.4676763e-38
-0.10902001 0.17432667 0.55300003 1.5675075e-38
-0.10777144 0.17401145 0.55200005 1.3462379e-38
-0.10672001 0.17401145 0.55200005 1.3096093e-38
-0.10547714 0.17369619 0.551 1.6968309e-38
-0.10442762 0.17369619 0.551 1.6879028e-38
-0.10319048 0.17338096 0.55000001 1.4389746e-38
-0.10195715 0.17306572 0.54900002 1.1177251e-38
-0.10036 0.17211999 0.546 1.1822621e-38
-0.099138096 0.17180477 0.54500002 1.6145048e-38
-0.097740002 0.1711743 0.54300004 1.9925068e-38
-0.09670572 0.1711743 0.54300004 2.2590453e-38
-0.095495246 0.17085907 0.54200006 2.2958873e-38
-0.094462864 0.17085907 0.54200006 2.3050705e-38
-0.093258098 0.1705438 0.54100001 2.1944358e-38
-0.092057146 0.17022857 0.54000002 1.7707746e-38
-0.091028571 0.17022857 0.54000002 1.3374552e-38
-0.089999996 0.17022857 0.54000002 1.2181001e-38
-0.088971436 0.17022857 0.54000002 1.3379544e-38
-0.087780006 0.16991334 0.53900003 1.4573053e-38
-0.086753339 0.16991334 0.53900003 1.4757444e-38
-0.085726671 0.16991334 0.53900003 1.484928e-38
-0.084542863 0.16959812 0.53800005 1.5033671e-38
-0.083518103 0.16959812 0.53800005 1.5309529e-38
-0.082493335 0.16959812 0.53800005 1.5401725e-38
-0.081468575 0.16959812 0.53800005 1.5218062e-38
-0.080443822 0.16959812 0.53800005 1.4757084e-38
-0.079271428 0.16928285 0.537 1.3652178e-38
-0.078248575 0.16928285 0.537 1.5680482e-38
-0.077369526 0.16959812 0.53800005 1.9914997e-38
-0.076344773 0.16959812 0.53800005 2.3141826e-38
-0.075320005 0.16959812 0.53800005 2.341769e-38
-0.074433342 0.16991334 0.53900003 2.341769e-38
-0.073406667 0.16991334 0.53900003 2.2314942e-38
-0.072380006 0.16991334 0.53900003 1.982566e-38
-0.071353339 0.16991334 0.53900003 1.7442279e-38
-0.070326671 0.16991334 0.53900003 1.7257887e-38
-0.069300003 0.16991334 0.53900003 1.7166778e-38
-0.068399996 0.17022857 0.54000002 1.7443362e-38
-0.067371435 0.17022857 0.54000002 1.7902538e-38
-0.06634286 0.17022857 0.54000002 1.7902538e-38
-0.065314285 0.17022857 0.54000002 1.7627033e-38
-0.064404763 0.1705438 0.54100001 1.725825e-38
-0.063374281 0.1705438 0.54100001 1.7166058e-38
-0.06257429 0.1711743 0.54300004 1.7258253e-38
-0.061540004 0.1711743 0.54300004 2.0290254e-38
-0.060505718 0.1711743 0.54300004 2.2040518e-38
-0.059471432 0.1711743 0.54300004 2.3326213e-38
-0.058544766 0.17148954 0.54400003 2.3326213e-38
-0.057719998 0.17211999 0.546 2.0929502e-38
-0.056679998 0.17211999 0.546 1.6688503e-38
-0.055640001 0.17211999 0.546 1.7979965e-38
-0.054800004 0.17275049 0.54800004 2.2313154e-38
-0.053854287 0.17306572 0.54900002 2.341769e-38
-0.052904766 0.17338096 0.55000001 2.341769e-38
-0.051857144 0.17338096 0.55000001 2.3326213e-38
-0.050901905 0.17369619 0.551 2.3234018e-38
-0.050214287 0.17495714 0.55500001 2.3142182e-38
-0.049245719 0.17527239 0.55600005 2.1667052e-38
-0.048273336 0.17558764 0.55700004 1.9092424e-38
-0.047297146 0.17590287 0.55800003 1.6418751e-38
-0.046482861 0.17684858 0.56100005 1.5137025e-38
-0.045414291 0.17684858 0.56100005 1.4860438e-38
-0.11007334 0.17538002 0.55300003 1.604457e-38
-0.10902001 0.17538002 0.55300003 1.6043857e-38
-0.10777144 0.17506287 0.55200005 1.3923358e-38
-0.10672001 0.17506287 0.55200005 1.3186499e-38
-0.10547714 0.17474571 0.551 1.549139e-38
-0.10442762 0.17474571 0.551 1.6968322e-38
-0.10337809 0.17474571 0.551 1.5861974e-38
-0.10214286 0.17442858 0.55000001 1.328986e-38
-0.10054381 0.17347716 0.54700005 1.5318164e-38
-0.099320002 0.17316 0.546 1.9457607e-38
-0.098100007 0.17284286 0.54500002 2.2223471e-38
-0.096883811 0.17252572 0.54400003 2.2865958e-38
-0.095671438 0.17220858 0.54300004 2.2773763e-38
-0.094462864 0.17189145 0.54200006 2.27734e-38
-0.093258098 0.17157428 0.54100001 2.2220226e-38
-0.092057146 0.17125715 0.54000002 2.1116422e-38
-0.091028571 0.17125715 0.54000002 1.7059814e-38
-0.089999996 0.17125715 0.54000002 1.2734567e-38
-0.088971436 0.17125715 0.54000002 1.2826763e-38
-0.087942861 0.17125715 0.54000002 1.3835488e-38
-0.086753339 0.17094001 0.53900003 1.4573053e-38
-0.085726671 0.17094001 0.53900003 1.5125143e-38
-0.084700003 0.17094001 0.53900003 1.5309535e-38
-0.083673336 0.17094001 0.53900003 1.5309532e-38
-0.082646675 0.17094001 0.53900003 1.5309532e-38
-0.081468575 0.17062287 0.53800005 1.5217339e-38
-0.080443822 0.17062287 0.53800005 1.4479774e-38
-0.079419054 0.17062287 0.53800005 1.2733812e-38
-0.078394294 0.17062287 0.53800005 1.6974811e-38
-0.077369526 0.17062287 0.53800005 2.1758888e-38
-0.076344773 0.17062287 0.53800005 2.3326213e-38
-0.075460002 0.17094001 0.53900003 2.341769e-38
-0.074433342 0.17094001 0.53900003 2.341769e-38
-0.073406667 0.17094001 0.53900003 2.2682643e-38
-0.072380006 0.17094001 0.53900003 2.0746535e-38
-0.071353339 0.17094001 0.53900003 1.7809614e-38
-0.070326671 0.17094001 0.53900003 1.725644e-38
-0.069428571 0.17125715 0.54000002 1.7257534e-38
-0.068399996 0.17125715 0.54000002 1.771851e-38
-0.067371435 0.17125715 0.54000002 1.7902178e-38
-0.06634286 0.17125715 0.54000002 1.7902178e-38
-0.065314285 0.17125715 0.54000002 1.7442644e-38
-0.064523816 0.17189145 0.54200006 1.6981666e-38
-0.063491434 0.17189145 0.54200006 1.6889471e-38
-0.06257429 0.17220858 0.54300004 1.799581e-38
-0.061540004 0.17220858 0.54300004 2.2498973e-38
-0.060505718 0.17220858 0.54300004 2.2867037e-38
-0.059580956 0.17252572 0.54400003 2.341769e-38
-0.058760002 0.17316 0.546 2.1481582e-38
-0.057825722 0.17347716 0.54700005 1.9085937e-38
-0.056783814 0.17347716 0.54700005 1.5766895e-38
-0.055843815 0.1737943 0.54800004 1.6044561e-38
-0.054900002 0.17411143 0.54900002 1.9179212e-38
-0.053952381 0.17442858 0.55000001 2.1573777e-38
-0.052904766 0.17442858 0.55000001 2.341769e-38
-0.051857144 0.17442858 0.55000001 2.332621e-38
-0.050994292 0.17506287 0.55200005 2.332621e-38
-0.050214287 0.17601429 0.55500001 2.3234378e-38
-0.049245719 0.17633145 0.55600005 2.1113878e-38
-0.04844667 0.17728285 0.55900002 1.7068451e-38
-0.047551431 0.17791715 0.56100005 1.5685517e-38
-0.046482861 0.17791715 0.56100005 1.495336e-38
-0.11007334 0.17643334 0.55300003 1.6136759e-38
-0.10796667 0.17643334 0.55300003 1.4568727e-38
-0.10672001 0.17611429 0.55200005 1.31876e-38
-0.10566858 0.17611429 0.55200005 1.2542231e-38
-0.10442762 0.17579524 0.551 1.2820976e-38
-0.10337809 0.17579524 0.551 1.779954e-38
-0.10214286 0.17547619 0.55000001 2.0286276e-38
-0.10072763 0.17483811 0.54800004 2.1300427e-38
-0.099320002 0.1742 0.546 2.176069e-38
-0.098279998 0.1742 0.546 2.2498255e-38
-0.097061902 0.17388096 0.54500002 2.2129482e-38
-0.095847622 0.1735619 0.54400003 2.0285569e-38
-0.094637156 0.17324287 0.54300004 1.9918575e-38
-0.093430489 0.17292383 0.54200006 2.0932727e-38
-0.092227623 0.17260475 0.54100001 2.1577035e-38
-0.091197148 0.17260475 0.54100001 2.1484841e-38
-0.089999996 0.17228572 0.54000002 1.7708465e-38
-0.088971436 0.17228572 0.54000002 1.3467466e-38
-0.087942861 0.17228572 0.54000002 1.1904424e-38
-0.086753339 0.17196669 0.53900003 1.3102967e-38
-0.085726671 0.17196669 0.53900003 1.4756728e-38
-0.084700003 0.17196669 0.53900003 1.4941119e-38
-0.083673336 0.17196669 0.53900003 1.4849277e-38
-0.082646675 0.17196669 0.53900003 1.457269e-38
-0.08162 0.17196669 0.53900003 1.3836207e-38
-0.08059334 0.17196669 0.53900003 1.4204989e-38
-0.079419054 0.17164762 0.53800005 1.5309212e-38
-0.078394294 0.17164762 0.53800005 2.2131636e-38
-0.077513337 0.17196669 0.53900003 2.341769e-38
-0.076486669 0.17196669 0.53900003 2.341769e-38
-0.075460002 0.17196669 0.53900003 2.341769e-38
-0.074433342 0.17196669 0.53900003 2.341769e-38
-0.073542856 0.17228572 0.54000002 2.3326213e-38
-0.072380006 0.17196669 0.53900003 2.3234018e-38
-0.071353339 0.17196669 0.53900003 2.1671737e-38
-0.070326671 0.17196669 0.53900003 2.0565389e-38
-0.069428571 0.17228572 0.54000002 1.8086566e-38
-0.068399996 0.17228572 0.54000002 1.7625588e-38
-0.067371435 0.17228572 0.54000002 1.7074582e-38
-0.06634286 0.17228572 0.54000002 1.6890191e-38
-0.065314285 0.17228572 0.54000002 1.7166058e-38
-0.064523816 0.17292383 0.54200006 1.6797275e-38
-0.063491434 0.17292383 0.54200006 1.9002765e-38
-0.06257429 0.17324287 0.54300004 2.1305834e-38
-0.061540004 0.17324287 0.54300004 2.3326213e-38
-0.060505718 0.17324287 0.54300004 2.3326213e-38
-0.059690479 0.17388096 0.54500002 2.341769e-38
-0.058867622 0.17451906 0.54700005 1.7332778e-38
-0.057931431 0.17483811 0.54800004 1.4112431e-38
-0.056887619 0.17483811 0.54800004 1.4481213e-38
-0.055945717 0.17515714 0.54900002 1.5123706e-38
-0.055 0.17547619 0.55000001 1.4847119e-38
-0.053952381 0.17547619 0.55000001 1.4937507e-38
-0.053000953 0.17579524 0.551 1.7150202e-38
-0.051951427 0.17579524 0.551 1.8994823e-38
-0.051179051 0.17675239 0.55400002 2.2958873e-38
-0.050304763 0.1773905 0.55600005 2.3142182e-38
-0.049334288 0.17770953 0.55700004 2.0007531e-38
-0.048533332 0.17866667 0.56 1.5779892e-38
-0.047551431 0.17898573 0.56100005 1.5042327e-38
-0.046814285 0.1802619 0.565 1.4861164e-38
-0.045738097 0.1802619 0.565 1.5045555e-38
-0.10835715 0.17812857 0.55500001 1.5214096e-38
-0.10710667 0.17780763 0.55400002 1.374149e-38
-0.10586 0.17748667 0.55300003 1.1989773e-38
-0.10461715 0.17716573 0.55200005 1.2636527e-38
-0.10356572 0.17716573 0.55200005 1.7707287e-38
-0.10232857 0.17684476 0.551 2.1205721e-38
-0.10072763 0.17588191 0.54800004 2.2404264e-38
-0.099501915 0.17556097 0.54700005 2.231279e-38
-0.098279998 0.17524 0.546 2.231279e-38
-0.097239994 0.17524 0.546 2.1761781e-38
-0.096023813 0.17491905 0.54500002 1.9180304e-38
-0.094811432 0.1745981 0.54400003 1.7618726e-38
-0.093430489 0.17395622 0.54200006 1.8540682e-38
-0.092398107 0.17395622 0.54200006 2.2036923e-38
-0.091365725 0.17395622 0.54200006 2.268229e-38
-0.090333335 0.17395622 0.54200006 2.1670304e-38
-0.089136191 0.17363524 0.54100001 1.7798088e-38
-0.088105716 0.17363524 0.54100001 1.2643824e-38
-0.086914286 0.17331429 0.54000002 1.2736019e-38
-0.085885711 0.17331429 0.54000002 1.3929121e-38
-0.084857151 0.17331429 0.54000002 1.4205708e-38
-0.083828576 0.17331429 0.54000002 1.4571964e-38
-0.082800001 0.17331429 0.54000002 1.4295377e-38
-0.08162 0.17299333 0.53900003 1.3560339e-38
-0.08059334 0.17299333 0.53900003 1.5312056e-38
-0.079566672 0.17299333 0.53900003 2.0283039e-38
-0.078540005 0.17299333 0.53900003 2.341769e-38
-0.077513337 0.17299333 0.53900003 2.341769e-38
-0.076486669 0.17299333 0.53900003 2.341769e-38
-0.075460002 0.17299333 0.53900003 2.341769e-38
-0.074433342 0.17299333 0.53900003 2.341769e-38
-0.073542856 0.17331429 0.54000002 2.341769e-38
-0.072514281 0.17331429 0.54000002 2.341769e-38
-0.071485721 0.17331429 0.54000002 2.3234378e-38
-0.070457146 0.17331429 0.54000002 2.2220226e-38
-0.069428571 0.17331429 0.54000002 1.9742112e-38
-0.068399996 0.17331429 0.54000002 1.872796e-38
-0.067496195 0.17363524 0.54100001 1.6707235e-38
-0.066465713 0.17363524 0.54100001 1.6522843e-38
-0.065435238 0.17363524 0.54100001 1.6889818e-38
-0.064523816 0.17395622 0.54200006 1.6889818e-38
-0.063608572 0.17427716 0.54300004 2.1761415e-38
-0.06257429 0.17427716 0.54300004 2.2775202e-38
-0.061540004 0.17427716 0.54300004 2.3417687e-38
-0.060505718 0.17427716 0.54300004 2.3417687e-38
-0.059690479 0.17491905 0.54500002 2.3141822e-38
-0.058975242 0.17588191 0.54800004 1.6134954e-38
-0.058037147 0.17620286 0.54900002 1.4481563e-38
-0.056991432 0.17620286 0.54900002 1.5219128e-38
-0.055945717 0.17620286 0.54900002 1.5676879e-38
-0.055 0.17652382 0.55000001 1.5123706e-38
-0.054050475 0.17684476 0.551 1.4387553e-38
-0.053193338 0.17748667 0.55300003 1.3926575e-38
-0.052234285 0.17780763 0.55400002 1.696685e-38
-0.051271427 0.17812857 0.55500001 2.3142523e-38
-0.050395243 0.17877048 0.55700004 2.3050705e-38
-0.049511429 0.17941239 0.55900002 1.9916054e-38
-0.048533332 0.17973334 0.56 1.5872079e-38
-0.047551431 0.18005431 0.56100005 1.5134514e-38
-0.046814285 0.18133809 0.565 1.4860445e-38
-0.045738097 0.18133809 0.565 1.5782401e-38
-0.044899046 0.18230096 0.56800002 1.8262316e-38
-0.10710667 0.17886285 0.55400002 1.4479055e-38
-0.10605143 0.17886285 0.55400002 1.1897577e-38
-0.10499619 0.17886285 0.55400002 1.2082672e-38
-0.10375334 0.17854001 0.55300003 1.613928e-38
-0.10251429 0.17821716 0.55200005 2.0468484e-38
-0.10091144 0.17724858 0.54900002 2.2496787e-38
-0.099683814 0.17692573 0.54800004 2.148375e-38
-0.098279998 0.17627999 0.546 1.8994468e-38
-0.097239994 0.17627999 0.546 1.6422366e-38
-0.096200004 0.17627999 0.546 1.5131627e-38
-0.094985716 0.17595714 0.54500002 1.4767514e-38
-0.093602858 0.17531143 0.54300004 1.5505079e-38
-0.092398107 0.1749886 0.54200006 1.9275001e-38
-0.091365725 0.1749886 0.54200006 2.2040511e-38
-0.090333335 0.1749886 0.54200006 2.2774842e-38
-0.08930096 0.1749886 0.54200006 2.2406059e-38
-0.088105716 0.17466572 0.54100001 1.9089944e-38
-0.087075241 0.17466572 0.54100001 1.4756755e-38
-0.086044759 0.17466572 0.54100001 1.1535305e-38
-0.085014284 0.17466572 0.54100001 1.1535305e-38
-0.083828576 0.17434287 0.54000002 1.2454717e-38
-0.082800001 0.17434287 0.54000002 1.5312781e-38
-0.081771426 0.17434287 0.54000002 1.9640909e-38
-0.080742866 0.17434287 0.54000002 2.2867037e-38
-0.079566672 0.17402001 0.53900003 2.341769e-38
-0.078540005 0.17402001 0.53900003 2.341769e-38
-0.077513337 0.17402001 0.53900003 2.341769e-38
-0.076486669 0.17402001 0.53900003 2.341769e-38
-0.075460002 0.17402001 0.53900003 2.1208242e-38
-0.074433342 0.17402001 0.53900003 1.9272133e-38
-0.073542856 0.17434287 0.54000002 2.1943286e-38
-0.072514281 0.17434287 0.54000002 2.323402e-38
-0.071485721 0.17434287 0.54000002 2.341769e-38
-0.070457146 0.17434287 0.54000002 2.341769e-38
-0.069557145 0.17466572 0.54100001 2.2682643e-38
-0.06852667 0.17466572 0.54100001 2.2682643e-38
-0.067496195 0.17466572 0.54100001 2.1029248e-38
-0.066465713 0.17466572 0.54100001 1.9000944e-38
-0.065435238 0.17466572 0.54100001 1.9095671e-38
-0.064642861 0.17531143 0.54300004 2.0754821e-38
-0.063608572 0.17531143 0.54300004 2.3326213e-38
-0.062804759 0.17595714 0.54500002 2.3326213e-38
-0.061766669 0.17595714 0.54500002 2.341769e-38
-0.060728572 0.17595714 0.54500002 1.9729865e-38
-0.059799999 0.17627999 0.546 1.6321175e-38
-0.058975242 0.17692573 0.54800004 1.5122632e-38
-0.058037147 0.17724858 0.54900002 1.5401727e-38
-0.056991432 0.17724858 0.54900002 1.577051e-38
-0.056047622 0.17757143 0.55000001 1.5769791e-38
-0.055 0.17757143 0.55000001 1.5769791e-38
-0.054148573 0.17821716 0.55200005 1.5217333e-38
-0.053289525 0.17886285 0.55400002 1.3742203e-38
-0.052234285 0.17886285 0.55400002 1.4666295e-38
-0.051271427 0.17918572 0.55500001 2.2040511e-38
-0.050395243 0.17983145 0.55700004 2.2867037e-38
-0.049511429 0.18047714 0.55900002 2.0562146e-38
-0.048533332 0.18079999 0.56 1.5137422e-38
-0.047551431 0.18112287 0.56100005 1.3662291e-38
-0.046814285 0.18241429 0.565 1.4676061e-38
-0.045738097 0.18241429 0.565 1.6612169e-38
-0.044899046 0.18338285 0.56800002 1.7894249e-38
-0.043817144 0.18338285 0.56800002 1.2731294e-38
-0.10710667 0.1799181 0.55400002 1.4940033e-38
-0.10605143 0.1799181 0.55400002 1.2358556e-38
-0.10499619 0.1799181 0.55400002 1.2448561e-38
-0.10375334 0.17959334 0.55300003 1.5030039e-38
-0.10251429 0.17926858 0.55200005 1.8623517e-38
-0.10109524 0.17861904 0.55000001 2.2126951e-38
-0.099683814 0.17796953 0.54800004 2.1116415e-38
-0.098460011 0.17764479 0.54700005 1.7244198e-38
-0.0974181 0.17764479 0.54700005 1.4674965e-38
-0.096200004 0.17732 0.546 1.4674965e-38
-0.09516 0.17732 0.546 1.42183e-38
-0.093775243 0.17667049 0.54400003 1.3941713e-38
-0.092398107 0.17602096 0.54200006 1.7250299e-38
-0.091365725 0.17602096 0.54200006 1.9647386e-38
-0.090333335 0.17602096 0.54200006 2.2773765e-38
-0.08930096 0.17602096 0.54200006 2.3050349e-38
-0.088105716 0.17569619 0.54100001 2.2774842e-38
-0.087075241 0.17569619 0.54100001 1.9087016e-38
-0.086044759 0.17569619 0.54100001 1.2920761e-38
-0.085014284 0.17569619 0.54100001 1.0892457e-38
-0.083983809 0.17569619 0.54100001 1.1903686e-38
