# .PCD v0.7 - Point Cloud Data file format
VERSION 0.7
FIELDS x y z rgb
SIZE 4 4 4 4
TYPE F F F F
COUNT 1 1 1 1
WIDTH 1004
HEIGHT 1
VIEWPOINT 0 0 0 1 0 0 0
POINTS 1004
DATA ascii
-0.074022859 0.092674293 0.61200005 2.341769e-38
-0.072857149 0.092674293 0.61200005 2.341769e-38
-0.071808569 0.092825718 0.61300004 2.341769e-38
-0.070525721 0.092674293 0.61200005 2.3325494e-38
-0.069360003 0.092674293 0.61200005 2.0476065e-38
-0.068417147 0.092977151 0.61400002 1.3653588e-38
-0.067357138 0.093128577 0.61500001 8.6102154e-39
-0.066185713 0.093128577 0.61500001 9.1633891e-39
-0.065120004 0.09328001 0.61600006 9.3485091e-39
-0.063946672 0.09328001 0.61600006 9.4407047e-39
-0.062773332 0.09328001 0.61600006 9.2559533e-39
-0.061799999 0.093582861 0.61800003 9.071562e-39
-0.06062286 0.093582861 0.61800003 9.0697572e-39
-0.059541903 0.093734287 0.61900002 7.1336489e-39
-0.058551431 0.094037145 0.62100005 1.0991456e-38
-0.057368573 0.094037145 0.62100005 1.7998321e-38
-0.056276195 0.094188571 0.62200004 2.3417687e-38
-0.055180002 0.094340004 0.62300003 2.3417687e-38
-0.054079998 0.09449143 0.62400001 2.2772323e-38
-0.052976191 0.094642855 0.625 1.4382521e-38
-0.051785715 0.094642855 0.625 1.3374512e-38
-0.050757144 0.094945721 0.62700003 1.4757447e-38
-0.049641903 0.095097147 0.62800002 1.4663446e-38
-0.048600003 0.095400006 0.63000005 1.4294664e-38
-0.047400005 0.095400006 0.63000005 1.4201389e-38
-0.046273336 0.095551439 0.63100004 1.5492128e-38
-0.045285713 0.096005715 0.634 1.7426814e-38
-0.044078097 0.096005715 0.634 2.0284878e-38
-0.043005716 0.096308582 0.63600004 1.6879013e-38
-0.042057145 0.096914291 0.64000005 1.2361427e-38
-0.0408381 0.096914291 0.64000005 1.3654346e-38
-0.039619051 0.096914291 0.64000005 1.7065584e-38
-0.1142362 0.096293338 0.62800002 1.3464515e-38
-0.11304 0.096293338 0.62800002 1.7060145e-38
-0.11130952 0.095833331 0.625 1.7242763e-38
-0.11011904 0.095833331 0.625 1.1987612e-38
-0.10892857 0.095833331 0.625 1.0698659e-38
-0.10756572 0.095680006 0.62400001 1.2081593e-38
-0.10603619 0.09537334 0.62200004 1.2634054e-38
-0.10468286 0.095220007 0.62100005 1.2634054e-38
-0.10333333 0.095066667 0.62 1.2542569e-38
-0.10198762 0.094913334 0.61900002 1.1528417e-38
-0.10064572 0.094760001 0.61800003 1.3828221e-38
-0.099468574 0.094760001 0.61800003 2.037411e-38
-0.097973339 0.094453342 0.61600006 2.341769e-38
-0.096800007 0.094453342 0.61600006 2.341769e-38
-0.095626675 0.094453342 0.61600006 2.341769e-38
-0.094453342 0.094453342 0.61600006 2.341769e-38
-0.093128577 0.094300002 0.61500001 2.3142182e-38
-0.091957144 0.094300002 0.61500001 2.1298269e-38
-0.090785719 0.094300002 0.61500001 1.7072414e-38
-0.089468569 0.094146669 0.61400002 1.6242654e-38
-0.08815524 0.093993343 0.61300004 1.624554e-38
-0.086987622 0.093993343 0.61300004 1.6706519e-38
-0.085820004 0.093993343 0.61300004 1.6797995e-38
-0.084652379 0.093993343 0.61300004 1.6613604e-38
-0.08334858 0.093840003 0.61200005 1.6981285e-38
-0.082182862 0.093840003 0.61200005 1.7442263e-38
-0.081017151 0.093840003 0.61200005 2.1945081e-38
-0.079851434 0.093840003 0.61200005 2.2958873e-38
-0.078685716 0.093840003 0.61200005 2.341769e-38
-0.077520005 0.093840003 0.61200005 2.341769e-38
-0.076354288 0.093840003 0.61200005 2.341769e-38
-0.075188577 0.093840003 0.61200005 2.341769e-38
-0.074022859 0.093840003 0.61200005 2.3417687e-38
-0.072857149 0.093840003 0.61200005 2.3417687e-38
-0.071808569 0.093993343 0.61300004 2.3142182e-38
-0.070756197 0.094146669 0.61400002 2.0745096e-38
-0.069586664 0.094146669 0.61400002 1.2843287e-38
-0.068417147 0.094146669 0.61400002 9.3398532e-39
-0.067466669 0.094453342 0.61600006 7.7847735e-39
-0.066293344 0.094453342 0.61600006 8.9833167e-39
-0.065120004 0.094453342 0.61600006 9.624733e-39
-0.063946672 0.094453342 0.61600006 9.4403418e-39
-0.06297715 0.094760001 0.61800003 9.3481461e-39
-0.061799999 0.094760001 0.61800003 9.1637549e-39
-0.06072095 0.094913334 0.61900002 8.7960514e-39
-0.059638094 0.095066667 0.62 6.5833562e-39
-0.058551431 0.095220007 0.62100005 5.7578751e-39
-0.057460956 0.09537334 0.62200004 1.2948776e-38
-0.056366667 0.095526665 0.62300003 2.2407141e-38
-0.055268571 0.095680006 0.62400001 2.2775202e-38
-0.054166667 0.095833331 0.625 2.1115333e-38
-0.052976191 0.095833331 0.625 1.4385052e-38
-0.051951431 0.096140005 0.62700003 1.3099721e-38
-0.050757144 0.096140005 0.62700003 1.4482655e-38
-0.049641903 0.096293338 0.62800002 1.4662728e-38
-0.048600003 0.096600004 0.63000005 1.4109554e-38
-0.047400005 0.096600004 0.63000005 1.3833323e-38
-0.046493333 0.097213328 0.634 1.8258713e-38
-0.045357145 0.097366676 0.63500005 1.9364723e-38
-0.044147622 0.097366676 0.63500005 1.8534962e-38
-0.042938098 0.097366676 0.63500005 1.4489463e-38
-0.041728575 0.097366676 0.63500005 9.9718767e-39
-0.11304 0.097489528 0.62800002 1.8071438e-38
-0.11166572 0.097334288 0.62700003 1.7703376e-38
-0.11047143 0.097334288 0.62700003 1.4753115e-38
-0.10892857 0.097023807 0.625 1.153059e-38
-0.10756572 0.096868575 0.62400001 1.1438394e-38
-0.10603619 0.096558101 0.62200004 1.2266363e-38
-0.10468286 0.096402861 0.62100005 1.2727341e-38
-0.10333333 0.096247613 0.62 1.291172e-38
-0.10215238 0.096247613 0.62 1.226635e-38
-0.10080858 0.096092381 0.61900002 1.235459e-38
-0.099468574 0.095937148 0.61800003 1.5673633e-38
-0.098291434 0.095937148 0.61800003 1.9729852e-38
-0.097114287 0.095937148 0.61800003 2.3509873e-38
-0.095626675 0.095626675 0.61600006 2.3326213e-38
-0.094453342 0.095626675 0.61600006 2.2496453e-38
-0.09328001 0.095626675 0.61600006 1.9000609e-38
-0.091957144 0.095471427 0.61500001 1.7156697e-38
-0.090785719 0.095471427 0.61500001 1.5508335e-38
-0.089614287 0.095471427 0.61500001 1.5969314e-38
-0.088299051 0.095316187 0.61400002 1.6245908e-38
-0.086987622 0.095160954 0.61300004 1.661469e-38
-0.085820004 0.095160954 0.61300004 1.6706519e-38
-0.084790483 0.095316187 0.61400002 1.689091e-38
-0.083484761 0.095160954 0.61300004 1.7350083e-38
-0.082182862 0.095005721 0.61200005 1.7165692e-38
-0.081017151 0.095005721 0.61200005 1.9185704e-38
-0.079851434 0.095005721 0.61200005 1.9923269e-38
-0.078685716 0.095005721 0.61200005 2.2220229e-38
-0.077520005 0.095005721 0.61200005 2.3234379e-38
-0.076354288 0.095005721 0.61200005 2.341769e-38
-0.075188577 0.095005721 0.61200005 2.341769e-38
-0.074022859 0.095005721 0.61200005 2.3417687e-38
-0.072976194 0.095160954 0.61300004 2.3417687e-38
-0.071925715 0.095316187 0.61400002 2.1763576e-38
-0.070871428 0.095471427 0.61500001 1.3926948e-38
-0.069699995 0.095471427 0.61500001 7.5074705e-39
-0.06852857 0.095471427 0.61500001 8.7060137e-39
-0.067466669 0.095626675 0.61600006 9.7169188e-39
-0.066293344 0.095626675 0.61600006 9.8091145e-39
-0.065331437 0.095937148 0.61800003 9.6247302e-39
-0.064154282 0.095937148 0.61800003 9.440339e-39
-0.06297715 0.095937148 0.61800003 8.9800895e-39
-0.061900001 0.096092381 0.61900002 8.9800895e-39
-0.060819048 0.096247613 0.62 8.9800825e-39
-0.059734289 0.096402861 0.62100005 7.5049524e-39
-0.058551431 0.096402861 0.62100005 6.9525045e-39
-0.057460956 0.096558101 0.62200004 1.3406187e-38
-0.056366667 0.096713334 0.62300003 2.3050705e-38
-0.055180002 0.096713334 0.62300003 2.3142542e-38
-0.054166667 0.097023807 0.625 2.3326213e-38
-0.052976191 0.097023807 0.625 1.475202e-38
-0.051951431 0.097334288 0.62700003 1.0248522e-38
-0.050838094 0.097489528 0.62800002 1.2092435e-38
-0.049720954 0.097644761 0.62900001 1.3650736e-38
-0.048600003 0.097800009 0.63000005 1.3097563e-38
-0.047475241 0.097955242 0.63100004 1.5027537e-38
-0.046493333 0.098420955 0.634 2.1850014e-38
-0.045428574 0.098731436 0.63600004 2.0836951e-38
-0.044217143 0.098731436 0.63600004 1.6872539e-38
-0.043005716 0.098731436 0.63600004 1.0345368e-38
-0.041925713 0.099041909 0.63800001 7.1185205e-39
-0.11304 0.098685719 0.62800002 1.7884883e-38
-0.11130952 0.098214284 0.625 1.7520054e-38
-0.11011904 0.098214284 0.625 1.6413706e-38
-0.10927714 0.098528571 0.62700003 1.3190134e-38
-0.10773809 0.098214284 0.625 1.116183e-38
-0.10637714 0.098057143 0.62400001 1.1620988e-38
-0.10502 0.097900003 0.62300003 1.2727335e-38
-0.10350001 0.097585723 0.62100005 1.3187588e-38
-0.10215238 0.097428575 0.62 1.2911001e-38
-0.10080858 0.097271428 0.61900002 1.2357814e-38
-0.099629521 0.097271428 0.61900002 1.2542206e-38
-0.098291434 0.097114287 0.61800003 1.7518579e-38
-0.097114287 0.097114287 0.61800003 2.3418023e-38
-0.095937148 0.097114287 0.61800003 2.3142182e-38
-0.094453342 0.096800007 0.61600006 2.1298269e-38
-0.09328001 0.096800007 0.61600006 1.7162079e-38
-0.09210667 0.096800007 0.61600006 1.6332319e-38
-0.090933345 0.096800007 0.61600006 1.569308e-38
-0.089614287 0.096642852 0.61500001 1.6246254e-38
-0.088299051 0.096485719 0.61400002 1.6521764e-38
-0.087129526 0.096485719 0.61400002 1.6798351e-38
-0.085960001 0.096485719 0.61400002 1.661432e-38
-0.084790483 0.096485719 0.61400002 1.7075298e-38
-0.083484761 0.096328571 0.61300004 1.7350443e-38
-0.082317151 0.096328571 0.61300004 1.7350443e-38
-0.081149533 0.096328571 0.61300004 1.7166408e-38
-0.079981908 0.096328571 0.61300004 1.6336647e-38
-0.07881429 0.096328571 0.61300004 2.0288093e-38
-0.077646673 0.096328571 0.61300004 2.240786e-38
-0.076479048 0.096328571 0.61300004 2.341769e-38
-0.075434282 0.096485719 0.61400002 2.341769e-38
-0.074264765 0.096485719 0.61400002 2.341769e-38
-0.07309524 0.096485719 0.61400002 2.3141103e-38
-0.07204286 0.096642852 0.61500001 1.7441903e-38
-0.070871428 0.096642852 0.61500001 1.0803818e-38
-0.069699995 0.096642852 0.61500001 7.6929436e-39
-0.06852857 0.096642852 0.61500001 8.9836824e-39
-0.067685723 0.097114287 0.61800003 9.9931498e-39
-0.066508569 0.097114287 0.61800003 9.9009542e-39
-0.065331437 0.097114287 0.61800003 9.5325374e-39
-0.064258099 0.097271428 0.61900002 9.3481461e-39
-0.063079052 0.097271428 0.61900002 9.2559505e-39
-0.061900001 0.097271428 0.61900002 9.0715592e-39
-0.060819048 0.097428575 0.62 8.7038557e-39
-0.059734289 0.097585723 0.62100005 6.9521388e-39
-0.058645718 0.097742863 0.62200004 5.8497597e-39
-0.057460956 0.097742863 0.62200004 1.3958994e-38
-0.056366667 0.097900003 0.62300003 2.2774842e-38
-0.055180002 0.097900003 0.62300003 2.2958873e-38
-0.054166667 0.098214284 0.625 2.3326213e-38
-0.052976191 0.098214284 0.625 1.7978867e-38
-0.051951431 0.098528571 0.62700003 1.3193395e-38
-0.050919048 0.098842859 0.62900001 1.2548025e-38
-0.049800005 0.099000007 0.63000005 1.3004291e-38
-0.048754286 0.099314287 0.63200003 1.2727704e-38
-0.047550477 0.099314287 0.63200003 1.4936433e-38
-0.046493333 0.099628568 0.634 2.1851106e-38
-0.045428574 0.099942856 0.63600004 1.9917884e-38
-0.044217143 0.099942856 0.63600004 1.2818821e-38
-0.043140952 0.10025714 0.63800001 9.3308331e-39
-0.11304 0.09988191 0.62800002 1.5674702e-38
-0.11130952 0.09940476 0.625 1.6045993e-38
-0.11011904 0.09940476 0.625 1.7336731e-38
-0.10927714 0.099722862 0.62700003 1.6322252e-38
-0.10773809 0.09940476 0.625 1.2265644e-38
-0.10637714 0.099245712 0.62400001 1.1345104e-38
-0.10502 0.099086672 0.62300003 1.2359256e-38
-0.10366667 0.098927625 0.62200004 1.300248e-38
-0.10231715 0.098768577 0.62100005 1.3279067e-38
-0.10097143 0.098609522 0.62 1.2267073e-38
-0.099629521 0.098450474 0.61900002 1.1160726e-38
-0.098450474 0.098450474 0.61900002 1.51251e-38
-0.097271428 0.098450474 0.61900002 2.2683348e-38
-0.095937148 0.098291434 0.61800003 2.3050705e-38
-0.094760001 0.098291434 0.61800003 2.0469228e-38
-0.093582861 0.098291434 0.61800003 1.6150448e-38
-0.09210667 0.097973339 0.61600006 1.5966057e-38
-0.090933345 0.097973339 0.61600006 1.5694162e-38
-0.089614287 0.097814284 0.61500001 1.6247335e-38
-0.088299051 0.097655237 0.61400002 1.6522124e-38
-0.087129526 0.097655237 0.61400002 1.6798711e-38
-0.085960001 0.097655237 0.61400002 1.6798711e-38
-0.084928572 0.097814284 0.61500001 1.7167494e-38
-0.083620951 0.097655237 0.61400002 1.7259327e-38
-0.082317151 0.097496189 0.61300004 1.7443718e-38
-0.081149533 0.097496189 0.61300004 1.7534834e-38
-0.079981908 0.097496189 0.61300004 1.7073856e-38
-0.078942858 0.097655237 0.61400002 1.8727607e-38
-0.077773333 0.097655237 0.61400002 2.0018343e-38
-0.076603815 0.097655237 0.61400002 2.3326213e-38
-0.075557142 0.097814284 0.61500001 2.3326213e-38
-0.074385718 0.097814284 0.61500001 2.3326213e-38
-0.073214285 0.097814284 0.61500001 2.1297909e-38
-0.072160006 0.097973339 0.61600006 1.2474139e-38
-0.070986666 0.097973339 0.61600006 9.3394875e-39
-0.069813341 0.097973339 0.61600006 9.1641178e-39
-0.068640009 0.097973339 0.61600006 9.7172916e-39
-0.067685723 0.098291434 0.61800003 9.9931498e-39
-0.066508569 0.098291434 0.61800003 9.8087585e-39
-0.065437146 0.098450474 0.61900002 9.3485091e-39
-0.064361908 0.098609522 0.62 9.2563134e-39
-0.063180953 0.098609522 0.62 9.2559533e-39
-0.061999999 0.098609522 0.62 9.2559533e-39
-0.060917147 0.098768577 0.62100005 8.4276318e-39
-0.059734289 0.098768577 0.62100005 6.0305454e-39
-0.058645718 0.098927625 0.62200004 1.301977e-38
-0.057460956 0.098927625 0.62200004 1.9652795e-38
-0.056366667 0.099086672 0.62300003 2.341769e-38
-0.055357143 0.09940476 0.625 2.341769e-38
-0.054340001 0.099722862 0.62700003 2.3417687e-38
-0.053145714 0.099722862 0.62700003 2.3417687e-38
-0.052034285 0.09988191 0.62800002 2.2129483e-38
-0.050919048 0.10004095 0.62900001 1.8349464e-38
-0.049879052 0.10035905 0.63100004 1.3838401e-38
-0.048754286 0.1005181 0.63200003 1.2547662e-38
-0.047700949 0.10083619 0.634 1.5767322e-38
-0.046566669 0.10099524 0.63500005 2.2497543e-38
-0.045500003 0.10131334 0.63700002 1.9733493e-38
-0.044286668 0.10131334 0.63700002 1.1159299e-38
-0.043140952 0.10147239 0.63800001 5.6552763e-39
-0.041925713 0.10147239 0.63800001 6.4850369e-39
-0.041922856 0.10449429 0.65700001 1.3195153e-38
-0.040671431 0.10449429 0.65700001 1.706737e-38
-0.039419997 0.10449429 0.65700001 1.8992665e-38
-0.11358001 0.10156096 0.63100004 1.3926222e-38
-0.11166572 0.10091715 0.62700003 1.4019484e-38
-0.11047143 0.10091715 0.62700003 1.5955592e-38
-0.10927714 0.10091715 0.62700003 1.7336757e-38
-0.10808286 0.10091715 0.62700003 1.4663083e-38
-0.10654762 0.10059524 0.625 1.1346584e-38
-0.10518858 0.10043429 0.62400001 1.1623171e-38
-0.10383333 0.10027333 0.62300003 1.2632616e-38
-0.10231715 0.099951431 0.62100005 1.318579e-38
-0.10113429 0.099951431 0.62100005 1.1532017e-38
-0.099790476 0.099790476 0.62 1.1071038e-38
-0.098450474 0.099629521 0.61900002 1.4847462e-38
-0.097271428 0.099629521 0.61900002 2.2683366e-38
-0.096092381 0.099629521 0.61900002 2.3050705e-38
-0.094760001 0.099468574 0.61800003 2.1298988e-38
-0.093582861 0.099468574 0.61800003 1.6058995e-38
-0.092405714 0.099468574 0.61800003 1.5690213e-38
-0.090933345 0.099146679 0.61600006 1.5509773e-38
-0.089760005 0.099146679 0.61600006 1.6062947e-38
-0.088442855 0.098985717 0.61500001 1.6338096e-38
-0.08727143 0.098985717 0.61500001 1.6614683e-38
-0.086099997 0.098985717 0.61500001 1.6707235e-38
-0.084928572 0.098985717 0.61500001 1.6983821e-38
-0.083620951 0.098824769 0.61400002 1.716785e-38
-0.082451433 0.098824769 0.61400002 1.716785e-38
-0.081281908 0.098824769 0.61400002 1.6983105e-38
-0.080112383 0.098824769 0.61400002 1.6983105e-38
-0.078942858 0.098824769 0.61400002 1.679943e-38
-0.0779 0.098985717 0.61500001 1.7352603e-38
-0.076728575 0.098985717 0.61500001 2.2498252e-38
-0.075557142 0.098985717 0.61500001 2.2958871e-38
-0.074506678 0.099146679 0.61600006 2.2682643e-38
-0.073333338 0.099146679 0.61600006 2.0746535e-38
-0.072160006 0.099146679 0.61600006 9.6258274e-39
-0.071217142 0.099468574 0.61800003 7.4131323e-39
-0.07004001 0.099468574 0.61800003 8.7964143e-39
-0.068862855 0.099468574 0.61800003 9.5339793e-39
-0.067795239 0.099629521 0.61900002 9.8091215e-39
-0.066616185 0.099629521 0.61900002 9.7169259e-39
-0.065542854 0.099790476 0.62 9.4403418e-39
-0.064361908 0.099790476 0.62 9.3481461e-39
-0.063180953 0.099790476 0.62 9.3474301e-39
-0.062100001 0.099951431 0.62100005 8.8864519e-39
-0.060917147 0.099951431 0.62100005 6.8649808e-39
-0.059830479 0.10011239 0.62200004 6.8649808e-39
-0.058645718 0.10011239 0.62200004 1.7617297e-38
-0.057553336 0.10027333 0.62300003 2.1948682e-38
-0.056457143 0.10043429 0.62400001 2.3417687e-38
-0.055534288 0.10091715 0.62700003 2.3325492e-38
-0.05442667 0.1010781 0.62800002 2.3417687e-38
-0.053230479 0.1010781 0.62800002 2.3417687e-38
-0.052117143 0.10123905 0.62900001 2.3326213e-38
-0.051000003 0.10140001 0.63000005 2.1851083e-38
-0.049958095 0.10172191 0.63200003 1.7525467e-38
-0.048908573 0.10204381 0.634 1.6787902e-38
-0.047700949 0.10204381 0.634 1.8258372e-38
-0.046566669 0.10220477 0.63500005 2.0102285e-38
-0.045500003 0.10252667 0.63700002 1.881224e-38
-0.044286668 0.10252667 0.63700002 1.0883416e-38
-0.043073334 0.10252667 0.63700002 5.2886405e-39
-0.042977147 0.10526286 0.65400004 6.7637706e-39
-0.041731432 0.10526286 0.65400004 1.4299336e-38
-0.040547621 0.10542382 0.65500003 1.7526183e-38
-0.11358001 0.10276286 0.63100004 1.3555995e-38
-0.11202191 0.10243714 0.62900001 1.2363228e-38
-0.1108238 0.10243714 0.62900001 1.3838358e-38
-0.10962571 0.10243714 0.62900001 1.6876835e-38
-0.10808286 0.10211143 0.62700003 1.7798791e-38
-0.10654762 0.10178571 0.625 1.4754602e-38
-0.10535714 0.10178571 0.625 1.1251168e-38
-0.104 0.10162286 0.62400001 1.0332776e-38
-0.10264667 0.10146 0.62300003 1.0701558e-38
-0.10113429 0.10113429 0.62100005 1.1162508e-38
-0.099951431 0.10113429 0.62100005 1.5495703e-38
-0.098609522 0.10097143 0.62 1.7425411e-38
-0.097428575 0.10097143 0.62 2.2772691e-38
-0.096247613 0.10097143 0.62 2.3326213e-38
-0.094913334 0.10080858 0.61900002 2.3234018e-38
-0.093734287 0.10080858 0.61900002 1.9831083e-38
-0.09255524 0.10080858 0.61900002 1.7065214e-38
-0.091228582 0.10064572 0.61800003 1.4865134e-38
-0.090051427 0.10064572 0.61800003 1.5602699e-38
-0.088586673 0.10032 0.61600006 1.6522124e-38
-0.087413341 0.10032 0.61600006 1.6706516e-38
-0.086240008 0.10032 0.61600006 1.6890547e-38
-0.084928572 0.10015714 0.61500001 1.7074938e-38
-0.08375714 0.10015714 0.61500001 1.7442639e-38
-0.082585715 0.10015714 0.61500001 1.7350443e-38
-0.081414282 0.10015714 0.61500001 1.7166778e-38
-0.080242857 0.10015714 0.61500001 1.6982387e-38
-0.079071432 0.10015714 0.61500001 1.7533395e-38
-0.0779 0.10015714 0.61500001 1.9008511e-38
-0.076728575 0.10015714 0.61500001 2.3142182e-38
-0.075680003 0.10032 0.61600006 2.3234378e-38
-0.074506678 0.10032 0.61600006 2.3326213e-38
-0.073333338 0.10032 0.61600006 2.3234018e-38
-0.072160006 0.10032 0.61600006 1.7627033e-38
-0.071217142 0.10064572 0.61800003 9.7904071e-39
-0.07004001 0.10064572 0.61800003 2.3629017e-39
-0.068862855 0.10064572 0.61800003 5.1287706e-39
-0.067795239 0.10080858 0.61900002 9.4407047e-39
-0.066723809 0.10097143 0.62 9.7172916e-39
-0.065542854 0.10097143 0.62 9.7165685e-39
-0.064465716 0.10113429 0.62100005 9.8087641e-39
-0.063282862 0.10113429 0.62100005 8.7957038e-39
-0.062100001 0.10113429 0.62100005 5.9376393e-39
-0.061015241 0.10129715 0.62200004 1.0723135e-38
-0.059830479 0.10129715 0.62200004 1.7724249e-38
-0.058740001 0.10146 0.62300003 2.3234378e-38
-0.057553336 0.10146 0.62300003 2.3234378e-38
-0.056547619 0.10178571 0.625 2.332621e-38
-0.055622861 0.10227428 0.62800002 2.102132e-38
-0.054513335 0.10243714 0.62900001 2.240462e-38
-0.053315237 0.10243714 0.62900001 2.3234379e-38
-0.052200004 0.10260001 0.63000005 2.3417687e-38
-0.051080953 0.10276286 0.63100004 2.3417687e-38
-0.049958095 0.10292572 0.63200003 2.3326213e-38
-0.048908573 0.10325143 0.634 2.3049626e-38
-0.047700949 0.10325143 0.634 2.3142182e-38
-0.046566669 0.10341429 0.63500005 1.8993379e-38
-0.045500003 0.10374 0.63700002 1.4028116e-38
-0.044286668 0.10374 0.63700002 9.3261387e-39
-0.043073334 0.10374 0.63700002 7.404824e-39
-0.042845711 0.10618286 0.65200001 9.156541e-39
-0.041603811 0.10618286 0.65200001 1.4759595e-38
-0.040423814 0.10634572 0.65300006 1.7433268e-38
-0.039180003 0.10634572 0.65300006 1.8716429e-38
-0.037878092 0.10618286 0.65200001 1.8439842e-38
-0.11220001 0.10380001 0.63000005 1.1628168e-38
-0.11100001 0.10380001 0.63000005 1.1996951e-38
-0.10962571 0.10363524 0.62900001 1.5677583e-38
-0.10825524 0.10347048 0.62800002 1.8074669e-38
-0.10654762 0.10297619 0.625 1.7334632e-38
-0.10535714 0.10297619 0.625 1.1618503e-38
-0.104 0.10281143 0.62400001 1.0056488e-38
-0.10264667 0.10264667 0.62300003 1.1347227e-38
-0.10113429 0.10231715 0.62100005 1.2727688e-38
-0.099951431 0.10231715 0.62100005 1.8075035e-38
-0.098609522 0.10215238 0.62 2.2125885e-38
-0.097428575 0.10215238 0.62 2.3508809e-38
-0.096247613 0.10215238 0.62 2.341769e-38
-0.095066667 0.10215238 0.62 2.341769e-38
-0.093885712 0.10215238 0.62 2.2131993e-38
-0.09255524 0.10198762 0.61900002 1.9366124e-38
-0.091376193 0.10198762 0.61900002 1.4405973e-38
-0.090197146 0.10198762 0.61900002 1.5051334e-38
-0.088874295 0.10182286 0.61800003 1.6888749e-38
-0.087697141 0.10182286 0.61800003 1.6888749e-38
-0.086240008 0.10149334 0.61600006 1.6890547e-38
-0.085066676 0.10149334 0.61600006 1.7167134e-38
-0.083893336 0.10149334 0.61600006 1.7442639e-38
-0.082585715 0.10132857 0.61500001 1.7442639e-38
-0.081414282 0.10132857 0.61500001 1.7350446e-38
-0.080242857 0.10132857 0.61500001 1.6981663e-38
-0.079071432 0.10132857 0.61500001 1.7807819e-38
-0.0779 0.10132857 0.61500001 1.9743913e-38
-0.076728575 0.10132857 0.61500001 2.3049986e-38
-0.075680003 0.10149334 0.61600006 2.3234378e-38
-0.074506678 0.10149334 0.61600006 2.3417687e-38
-0.073333338 0.10149334 0.61600006 2.3417687e-38
-0.072160006 0.10149334 0.61600006 2.2223829e-38
-0.071217142 0.10182286 0.61800003 1.5585743e-38
-0.070153333 0.10198762 0.61900002 2.5469651e-39
-0.068974286 0.10198762 0.61900002 4.298682e-39
-0.067904763 0.10215238 0.62 8.51984e-39
-0.066831432 0.10231715 0.62100005 9.1652094e-39
-0.065648578 0.10231715 0.62100005 9.9917135e-39
-0.064465716 0.10231715 0.62100005 9.7151266e-39
-0.063282862 0.10231715 0.62100005 7.0490189e-39
-0.062200006 0.10248192 0.62200004 6.1270626e-39
-0.061015241 0.10248192 0.62200004 1.4401612e-38
-0.05992667 0.10264667 0.62300003 1.9928301e-38
-0.058740001 0.10264667 0.62300003 2.341769e-38
-0.057645712 0.10281143 0.62400001 2.341769e-38
-0.056728572 0.10330572 0.62700003 2.3050705e-38
-0.055622861 0.10347048 0.62800002 1.8717511e-38
-0.054513335 0.10363524 0.62900001 1.8722565e-38
-0.053400002 0.10380001 0.63000005 2.1580623e-38
-0.052200004 0.10380001 0.63000005 2.3417687e-38
-0.051080953 0.10396477 0.63100004 2.3417687e-38
-0.050116193 0.10445905 0.634 2.341769e-38
-0.048908573 0.10445905 0.634 2.3325494e-38
-0.047776196 0.10462382 0.63500005 2.2867037e-38
-0.046566669 0.10462382 0.63500005 1.4753822e-38
-0.045500003 0.10495333 0.63700002 1.0803439e-38
-0.044286668 0.10495333 0.63700002 9.420505e-39
-0.043952383 0.10709524 0.65000004 8.5075688e-39
-0.042714287 0.10709524 0.65000004 1.0904655e-38
-0.041476194 0.10709524 0.65000004 1.5403523e-38
-0.040361904 0.10742477 0.65200001 1.7431826e-38
-0.03912 0.10742477 0.65200001 1.8255814e-38
-0.037878092 0.10742477 0.65200001 1.8163618e-38
-0.1111762 0.10516667 0.63100004 1.2088074e-38
-0.10962571 0.10483333 0.62900001 1.3284831e-38
-0.10842761 0.10483333 0.62900001 1.7433634e-38
-0.10688858 0.1045 0.62700003 1.7797034e-38
-0.10569429 0.1045 0.62700003 1.4017013e-38
-0.10416666 0.10416666 0.625 1.2455398e-38
-0.10281143 0.104 0.62400001 1.6972984e-38
-0.10146 0.10383333 0.62300003 2.1390815e-38
-0.10011239 0.10366667 0.62200004 2.3234369e-38
-0.098768577 0.10350001 0.62100005 2.341769e-38
-0.097585723 0.10350001 0.62100005 2.341769e-38
-0.096402861 0.10350001 0.62100005 2.2404973e-38
-0.095066667 0.10333333 0.62 2.2497169e-38
-0.093885712 0.10333333 0.62 2.2499336e-38
-0.092704765 0.10333333 0.62 2.2407141e-38
-0.091376193 0.10316667 0.61900002 1.9464819e-38
-0.090197146 0.10316667 0.61900002 1.7159928e-38
-0.089018099 0.10316667 0.61900002 1.5509773e-38
-0.087839052 0.10316667 0.61900002 1.6155143e-38
-0.086520009 0.10300001 0.61800003 1.6706519e-38
-0.085066676 0.10266668 0.61600006 1.6983105e-38
-0.083893336 0.10266668 0.61600006 1.7074938e-38
-0.082720011 0.10266668 0.61600006 1.6982742e-38
-0.081546672 0.10266668 0.61600006 1.744156e-38
-0.080242857 0.1025 0.61500001 1.8086928e-38
-0.079071432 0.1025 0.61500001 2.1578822e-38
-0.0779 0.1025 0.61500001 2.2499695e-38
-0.076728575 0.1025 0.61500001 2.341769e-38
-0.075680003 0.10266668 0.61600006 2.341769e-38
-0.074748576 0.10300001 0.61800003 2.3325492e-38
-0.073571429 0.10300001 0.61800003 2.3417687e-38
-0.072394289 0.10300001 0.61800003 2.3234378e-38
-0.07133238 0.10316667 0.61900002 2.2957791e-38
-0.070153333 0.10316667 0.61900002 1.9191824e-38
-0.068974286 0.10316667 0.61900002 1.4950826e-38
-0.067904763 0.10333333 0.62 6.9583003e-39
-0.066831432 0.10350001 0.62100005 5.4831702e-39
-0.065648578 0.10350001 0.62100005 5.2112272e-39
-0.064569525 0.10366667 0.62200004 4.1048796e-39
-0.063384764 0.10366667 0.62200004 9.0679453e-39
-0.062200006 0.10366667 0.62200004 1.5887539e-38
-0.061015241 0.10366667 0.62200004 2.3142182e-38
-0.05992667 0.10383333 0.62300003 2.3234378e-38
-0.058834285 0.104 0.62400001 2.332621e-38
-0.057738096 0.10416666 0.625 2.2680841e-38
-0.056728572 0.1045 0.62700003 2.0198421e-38
-0.05571143 0.10483333 0.62900001 1.7524748e-38
-0.054513335 0.10483333 0.62900001 1.6701471e-38
-0.053400002 0.105 0.63000005 1.7070254e-38
-0.052282859 0.10516667 0.63100004 1.9550871e-38
-0.051080953 0.10516667 0.63100004 2.1302588e-38
-0.050116193 0.10566666 0.634 2.3326213e-38
-0.04898572 0.10583334 0.63500005 2.3326213e-38
-0.047776196 0.10583334 0.63500005 2.2682646e-38
-0.046640005 0.106 0.63600004 1.2633322e-38
-0.045714289 0.10666667 0.64000005 6.6687037e-39
-0.044634286 0.10700001 0.64200002 7.3140731e-39
-0.043681905 0.10766667 0.64600003 9.3355372e-39
-0.042648572 0.10816668 0.64900005 1.2101406e-38
-0.041412383 0.10816668 0.64900005 1.567904e-38
-0.04017619 0.10816668 0.64900005 1.6785388e-38
-0.03912 0.10866667 0.65200001 1.8255085e-38
-0.037878092 0.10866667 0.65200001 1.8255085e-38
-0.11309049 0.10704286 0.63500005 1.2916749e-38
-0.11135238 0.10653715 0.63200003 1.2179184e-38
-0.1098 0.10620001 0.63000005 1.2456862e-38
-0.10842761 0.10603143 0.62900001 1.5591514e-38
-0.10722952 0.10603143 0.62900001 1.8075038e-38
-0.10569429 0.10569429 0.62700003 1.5401365e-38
-0.10416666 0.10535714 0.625 1.4940011e-38
-0.10281143 0.10518858 0.62400001 2.0379553e-38
-0.10146 0.10502 0.62300003 2.2588655e-38
-0.10011239 0.10485144 0.62200004 2.323402e-38
-0.098768577 0.10468286 0.62100005 2.3326213e-38
-0.097585723 0.10468286 0.62100005 2.1943279e-38
-0.096402861 0.10468286 0.62100005 1.8905852e-38
-0.095220007 0.10468286 0.62100005 1.9643417e-38
-0.093885712 0.10451429 0.62 2.2590801e-38
-0.092704765 0.10451429 0.62 2.2958866e-38
-0.091523804 0.10451429 0.62 2.2315305e-38
-0.090342857 0.10451429 0.62 1.9733828e-38
-0.089018099 0.10434572 0.61900002 1.4866936e-38
-0.087839052 0.10434572 0.61900002 1.542011e-38
-0.086660005 0.10434572 0.61900002 1.7164973e-38
-0.085066676 0.10384001 0.61600006 1.7164973e-38
-0.083893336 0.10384001 0.61600006 1.6430292e-38
-0.082720011 0.10384001 0.61600006 1.6522487e-38
-0.081546672 0.10384001 0.61600006 1.7349001e-38
-0.080373339 0.10384001 0.61600006 1.8731929e-38
-0.079200007 0.10384001 0.61600006 2.3234378e-38
-0.078026675 0.10384001 0.61600006 2.3234378e-38
-0.076853342 0.10384001 0.61600006 2.341769e-38
-0.075680003 0.10384001 0.61600006 2.3325494e-38
-0.074869521 0.10434572 0.61900002 2.3418028e-38
-0.073690474 0.10434572 0.61900002 2.3509865e-38
-0.072511427 0.10434572 0.61900002 2.341769e-38
-0.071447626 0.10451429 0.62 2.341769e-38
-0.070266664 0.10451429 0.62 2.3050705e-38
-0.069085717 0.10451429 0.62 2.0469228e-38
-0.068014294 0.10468286 0.62100005 1.1651968e-38
-0.066831432 0.10468286 0.62100005 7.59536e-39
-0.065754294 0.10485144 0.62200004 3.8304536e-39
-0.064569525 0.10485144 0.62200004 3.0006929e-39
-0.063384764 0.10485144 0.62200004 1.2284005e-38
-0.062200006 0.10485144 0.62200004 1.9285453e-38
-0.061113339 0.10502 0.62300003 2.341769e-38
-0.060022857 0.10518858 0.62400001 2.341769e-38
-0.058928572 0.10535714 0.625 2.3234378e-38
-0.057922859 0.10569429 0.62700003 2.0191922e-38
-0.056819052 0.10586286 0.62800002 1.7438683e-38
-0.05571143 0.10603143 0.62900001 1.6793314e-38
-0.054513335 0.10603143 0.62900001 1.5509773e-38
-0.053400002 0.10620001 0.63000005 1.4864404e-38
-0.052282859 0.10636857 0.63100004 1.5413962e-38
-0.051080953 0.10636857 0.63100004 1.6059332e-38
-0.050116193 0.10687429 0.634 2.2220229e-38
-0.04898572 0.10704286 0.63500005 2.3234379e-38
-0.047776196 0.10704286 0.63500005 2.1578825e-38
-0.046713337 0.10738 0.63700002 1.0791936e-38
-0.045714289 0.10788572 0.64000005 5.7510676e-39
-0.044634286 0.10822286 0.64200002 6.9496108e-39
-0.043681905 0.10889714 0.64600003 9.2426228e-39
-0.042648572 0.10940287 0.64900005 1.2561665e-38
-0.041348573 0.10923428 0.648 1.6600271e-38
-0.040114284 0.10923428 0.648 1.7061249e-38
-0.038880002 0.10923428 0.648 1.7978148e-38
-0.037645712 0.10923428 0.648 1.8070343e-38
-0.11309049 0.10825239 0.63500005 1.3193336e-38
-0.11170476 0.10808191 0.634 1.2547966e-38
-0.1098 0.10740001 0.63000005 1.1723263e-38
-0.10860001 0.10740001 0.63000005 1.2553024e-38
-0.10722952 0.10722952 0.62900001 1.5035469e-38
-0.10586286 0.10705905 0.62800002 1.8723294e-38
-0.1045 0.10688858 0.62700003 2.0930206e-38
-0.10297619 0.10654762 0.625 2.2220945e-38
-0.10162286 0.10637714 0.62400001 2.2404267e-38
-0.10027333 0.10620667 0.62300003 2.2312071e-38
-0.098927625 0.10603619 0.62200004 2.0286654e-38
-0.097742863 0.10603619 0.62200004 1.5031503e-38
-0.096713334 0.10620667 0.62300003 1.0256024e-38
-0.09537334 0.10603619 0.62200004 9.4262629e-39
-0.094037145 0.10586572 0.62100005 1.6511993e-38
-0.092704765 0.10569524 0.62 2.2040502e-38
-0.091523804 0.10569524 0.62 2.3234378e-38
-0.090342857 0.10569524 0.62 2.3049986e-38
-0.08916191 0.10569524 0.62 2.1488429e-38
-0.087839052 0.10552476 0.61900002 1.9367929e-38
-0.086660005 0.10552476 0.61900002 1.6521764e-38
-0.085480958 0.10552476 0.61900002 1.6152982e-38
-0.084301911 0.10552476 0.61900002 1.725609e-38
-0.083122857 0.10552476 0.61900002 1.8823405e-38
-0.08194381 0.10552476 0.61900002 2.2315661e-38
-0.080764763 0.10552476 0.61900002 2.2591531e-38
-0.079585716 0.10552476 0.61900002 2.341769e-38
-0.078533329 0.10569524 0.62 2.341769e-38
-0.077352382 0.10569524 0.62 2.341769e-38
-0.076048575 0.10552476 0.61900002 1.9545474e-38
-0.074869521 0.10552476 0.61900002 1.9823452e-38
-0.073809519 0.10569524 0.62 2.2773712e-38
-0.072628573 0.10569524 0.62 2.341769e-38
-0.071447626 0.10569524 0.62 2.341769e-38
-0.070266664 0.10569524 0.62 2.341769e-38
-0.069085717 0.10569524 0.62 2.3325494e-38
-0.068014294 0.10586572 0.62100005 2.2683365e-38
-0.066939048 0.10603619 0.62200004 2.1853604e-38
-0.065754294 0.10603619 0.62200004 1.661574e-38
-0.064569525 0.10603619 0.62200004 1.4218653e-38
-0.063486665 0.10620667 0.62300003 1.927684e-38
-0.0623 0.10620667 0.62300003 2.1765011e-38
-0.061113339 0.10620667 0.62300003 2.3326213e-38
-0.060119048 0.10654762 0.625 2.3326213e-38
-0.059117146 0.10688858 0.62700003 2.2315661e-38
-0.058015238 0.10705905 0.62800002 1.9273205e-38
-0.056909524 0.10722952 0.62900001 1.6521762e-38
-0.055800002 0.10740001 0.63000005 1.6245175e-38
-0.054600004 0.10740001 0.63000005 1.6338096e-38
-0.053484764 0.10757048 0.63100004 1.5969314e-38
-0.052282859 0.10757048 0.63100004 1.5599819e-38
-0.051080953 0.10757048 0.63100004 1.430908e-38
-0.050195243 0.10825239 0.63500005 2.047067e-38
-0.049062859 0.10842287 0.63600004 2.2867037e-38
-0.047926668 0.10859334 0.63700002 2.1669936e-38
-0.046933334 0.10910477 0.64000005 9.9610909e-39
-0.045857143 0.10944572 0.64200002 2.1669764e-39
-0.044773336 0.10978667 0.64400005 4.010889e-39
-0.043749522 0.1102981 0.64700001 9.7014359e-39
-0.042648572 0.11063905 0.64900005 1.3665848e-38
-0.041348573 0.11046857 0.648 1.7705171e-38
-0.040114284 0.11046857 0.648 1.7428584e-38
-0.038880002 0.11046857 0.648 1.7702643e-38
-0.11678286 0.11066858 0.64200002 1.4936408e-38
-0.11556 0.11066858 0.64200002 1.5120799e-38
-0.11362476 0.10997905 0.63800001 1.3285531e-38
-0.11188096 0.10946192 0.63500005 1.2640162e-38
-0.11067144 0.10946192 0.63500005 1.1264443e-38
-0.10928952 0.10928952 0.634 1.1172247e-38
-0.10808191 0.10928952 0.634 1.4023096e-38
-0.10636857 0.10877238 0.63100004 1.8264095e-38
-0.10483333 0.10842761 0.62900001 2.1390831e-38
-0.10347048 0.10825524 0.62800002 2.2589374e-38
-0.10178571 0.10773809 0.625 2.2129475e-38
-0.10059524 0.10773809 0.625 2.0562149e-38
-0.099245712 0.10756572 0.62400001 1.5964259e-38
-0.098057143 0.10756572 0.62400001 9.8793476e-39
-0.096713334 0.10739334 0.62300003 4.8323441e-39
-0.095526665 0.10739334 0.62300003 4.9245398e-39
-0.094188571 0.10722096 0.62200004 1.3656777e-38
-0.092854291 0.10704858 0.62100005 1.9649493e-38
-0.09167143 0.10704858 0.62100005 2.341804e-38
-0.090342857 0.10687619 0.62 2.341804e-38
-0.08916191 0.10687619 0.62 2.3050705e-38
-0.087980948 0.10687619 0.62 2.148338e-38
-0.086800002 0.10687619 0.62 1.6798346e-38
-0.085619047 0.10687619 0.62 1.5691998e-38
-0.0844381 0.10687619 0.62 1.7898209e-38
-0.083257139 0.10687619 0.62 2.0479314e-38
-0.082076192 0.10687619 0.62 2.3326213e-38
-0.080895238 0.10687619 0.62 2.3326213e-38
-0.079714283 0.10687619 0.62 2.341769e-38
-0.078533329 0.10687619 0.62 2.341769e-38
-0.077352382 0.10687619 0.62 2.341769e-38
-0.076171428 0.10687619 0.62 1.6503018e-38
-0.074990474 0.10687619 0.62 1.5857611e-38
-0.073809519 0.10687619 0.62 1.945324e-38
-0.072628573 0.10687619 0.62 2.2955267e-38
-0.071447626 0.10687619 0.62 2.3509161e-38
-0.07038001 0.10704858 0.62100005 2.341769e-38
-0.069197148 0.10704858 0.62100005 2.341769e-38
-0.068123817 0.10722096 0.62200004 2.341769e-38
-0.066939048 0.10722096 0.62200004 2.3325494e-38
-0.065754294 0.10722096 0.62200004 2.0477146e-38
-0.064673334 0.10739334 0.62300003 1.9370799e-38
-0.063486665 0.10739334 0.62300003 2.2867037e-38
-0.062400002 0.10756572 0.62400001 2.2958873e-38
-0.06121143 0.10756572 0.62400001 2.3326213e-38
-0.060311433 0.10808286 0.62700003 2.1851083e-38
-0.059117146 0.10808286 0.62700003 1.8636856e-38
-0.058015238 0.10825524 0.62800002 1.7346117e-38
-0.056909524 0.10842761 0.62900001 1.6338819e-38
-0.055800002 0.10860001 0.63000005 1.6246624e-38
-0.054600004 0.10860001 0.63000005 1.6522127e-38
-0.053484764 0.10877238 0.63100004 1.6061149e-38
-0.052282859 0.10877238 0.63100004 1.5416507e-38
-0.051161904 0.10894477 0.63200003 1.4217964e-38
-0.050116193 0.10928952 0.634 1.8446341e-38
-0.049062859 0.10963429 0.63600004 2.2040518e-38
-0.047926668 0.10980667 0.63700002 2.0568997e-38
-0.046933334 0.11032382 0.64000005 9.9665013e-39
-0.045785714 0.11049619 0.64100003 4.3699605e-39
-0.044703808 0.11084095 0.64300001 5.1075255e-39
-0.04381714 0.11170286 0.648 1.0160274e-38
-0.042582858 0.11170286 0.648 1.4862251e-38
-0.041348573 0.11170286 0.648 1.7614413e-38
-0.040114284 0.11170286 0.648 1.724563e-38
-0.038880002 0.11170286 0.648 1.7887034e-38
-0.11678286 0.11189143 0.64200002 1.4936045e-38
-0.11556 0.11189143 0.64200002 1.4936045e-38
-0.11362476 0.11119429 0.63800001 1.3467765e-38
-0.11205714 0.11084572 0.63600004 1.3375569e-38
-0.11084572 0.11084572 0.63600004 1.1724339e-38
-0.10946192 0.11067144 0.63500005 1.1816535e-38
-0.10825239 0.11067144 0.63500005 1.3195504e-38
-0.10653715 0.11014858 0.63200003 1.6145764e-38
-0.10483333 0.10962571 0.62900001 2.0654322e-38
-0.10347048 0.10945143 0.62800002 2.1945061e-38
-0.10178571 0.10892857 0.625 2.0102235e-38
-0.10059524 0.10892857 0.625 1.2265606e-38
-0.09940476 0.10892857 0.625 6.6687009e-39
-0.098214284 0.10892857 0.625 7.1296791e-39
-0.096868575 0.10875428 0.62400001 7.5006308e-39
-0.095526665 0.10858 0.62300003 7.6850221e-39
-0.094188571 0.10840572 0.62200004 1.0625878e-38
-0.092854291 0.10823144 0.62100005 1.0994661e-38
-0.09167143 0.10823144 0.62100005 1.8354056e-38
-0.090342857 0.10805714 0.62 2.2683304e-38
-0.08916191 0.10805714 0.62 2.3326213e-38
-0.087980948 0.10805714 0.62 2.3326213e-38
-0.086800002 0.10805714 0.62 2.1855406e-38
-0.085757144 0.10823144 0.62100005 2.0472472e-38
-0.0844381 0.10805714 0.62 2.1669939e-38
-0.083257139 0.10805714 0.62 2.2683366e-38
-0.082076192 0.10805714 0.62 2.341769e-38
-0.08102572 0.10823144 0.62100005 2.341769e-38
-0.079842865 0.10823144 0.62100005 2.341769e-38
-0.078533329 0.10805714 0.62 2.0190843e-38
-0.077352382 0.10805714 0.62 1.6597406e-38
-0.076171428 0.10805714 0.62 1.5491059e-38
-0.074990474 0.10805714 0.62 1.5308084e-38
-0.073809519 0.10805714 0.62 1.5308084e-38
-0.072628573 0.10805714 0.62 1.7148737e-38
-0.071562864 0.10823144 0.62100005 1.9638019e-38
-0.07038001 0.10823144 0.62100005 2.2495008e-38
-0.069197148 0.10823144 0.62100005 2.350952e-38
-0.068123817 0.10840572 0.62200004 2.341769e-38
-0.066939048 0.10840572 0.62200004 2.341769e-38
-0.065859996 0.10858 0.62300003 2.3234378e-38
-0.064673334 0.10858 0.62300003 2.27734e-38
-0.063588567 0.10875428 0.62400001 2.3234378e-38
-0.062400002 0.10875428 0.62400001 2.3234378e-38
-0.061309524 0.10892857 0.625 2.2591169e-38
-0.060311433 0.10927714 0.62700003 1.9733105e-38
-0.059211429 0.10945143 0.62800002 1.6797272e-38
-0.058107618 0.10962571 0.62900001 1.6705077e-38
-0.056909524 0.10962571 0.62900001 1.6522492e-38
-0.055800002 0.1098 0.63000005 1.6522492e-38
-0.054686669 0.10997429 0.63100004 1.6797269e-38
-0.053484764 0.10997429 0.63100004 1.5967509e-38
-0.052365717 0.11014858 0.63200003 1.4865128e-38
-0.051161904 0.11014858 0.63200003 1.4035368e-38
-0.050116193 0.11049715 0.634 1.8354168e-38
-0.049139999 0.11102001 0.63700002 2.1856847e-38
-0.048001904 0.11119429 0.63800001 2.3050705e-38
-0.047006667 0.11171715 0.64100003 1.7979946e-38
-0.045785714 0.11171715 0.64100003 5.29307e-39
-0.044634286 0.11189143 0.64200002 3.4491574e-39
-0.04381714 0.11293714 0.648 1.0437268e-38
-0.042582858 0.11293714 0.648 1.5323612e-38
-0.041348573 0.11293714 0.648 1.76126e-38
-0.040114284 0.11293714 0.648 1.7059426e-38
-0.038880002 0.11293714 0.648 1.7702287e-38
-0.11678286 0.11311429 0.64200002 1.4935326e-38
-0.11556 0.11311429 0.64200002 1.4935326e-38
-0.11415905 0.1129381 0.64100003 1.33752e-38
-0.11276191 0.11276191 0.64000005 1.3559592e-38
-0.11084572 0.11205714 0.63600004 1.2367551e-38
-0.10946192 0.11188096 0.63500005 1.2367551e-38
-0.10825239 0.11188096 0.63500005 1.2368627e-38
-0.10653715 0.11135238 0.63200003 1.4857909e-38
-0.10483333 0.1108238 0.62900001 1.8719313e-38
-0.10347048 0.11064762 0.62800002 2.0010052e-38
-0.10227428 0.11064762 0.62800002 1.7248867e-38
-0.10091715 0.11047143 0.62700003 8.8590649e-39
-0.099722862 0.11047143 0.62700003 3.636689e-39
-0.098214284 0.11011904 0.625 6.2181666e-39
-0.096868575 0.10994286 0.62400001 8.604449e-39
-0.095680006 0.10994286 0.62400001 8.8810359e-39
-0.094340004 0.10976667 0.62300003 6.5836982e-39
-0.093153335 0.10976667 0.62300003 5.0163724e-39
-0.09167143 0.10941429 0.62100005 1.108466e-38
-0.090488575 0.10941429 0.62100005 1.6892985e-38
-0.089305721 0.10941429 0.62100005 2.3326201e-38
-0.08812286 0.10941429 0.62100005 2.3418038e-38
-0.086940005 0.10941429 0.62100005 2.3326213e-38
-0.085757144 0.10941429 0.62100005 2.2496453e-38
-0.084574297 0.10941429 0.62100005 2.3326213e-38
-0.083391435 0.10941429 0.62100005 2.3326213e-38
-0.082208581 0.10941429 0.62100005 2.341769e-38
-0.08102572 0.10941429 0.62100005 2.341769e-38
-0.079842865 0.10941429 0.62100005 2.341769e-38
-0.078660011 0.10941429 0.62100005 1.7240583e-38
-0.07747715 0.10941429 0.62100005 1.5031503e-38
-0.076171428 0.1092381 0.62 1.5953459e-38
-0.074990474 0.1092381 0.62 1.6230762e-38
-0.07392858 0.10941429 0.62100005 1.5769784e-38
-0.072745718 0.10941429 0.62100005 1.5769406e-38
-0.071562864 0.10941429 0.62100005 1.6045993e-38
-0.07038001 0.10941429 0.62100005 1.9081977e-38
-0.069197148 0.10941429 0.62100005 2.2769802e-38
-0.068123817 0.10959049 0.62200004 2.341804e-38
-0.067046665 0.10976667 0.62300003 2.341804e-38
-0.065859996 0.10976667 0.62300003 2.341769e-38
-0.064777143 0.10994286 0.62400001 2.341769e-38
-0.063588567 0.10994286 0.62400001 2.341769e-38
-0.0625 0.11011904 0.625 2.3325494e-38
-0.061505716 0.11047143 0.62700003 2.1212558e-38
-0.06040762 0.11064762 0.62800002 1.8538884e-38
-0.059211429 0.11064762 0.62800002 1.6338815e-38
-0.058107618 0.1108238 0.62900001 1.6523206e-38
-0.057000004 0.11100001 0.63000005 1.6522492e-38
-0.055800002 0.11100001 0.63000005 1.6245905e-38
-0.054686669 0.1111762 0.63100004 1.6520334e-38
-0.053484764 0.1111762 0.63100004 1.6059355e-38
-0.052365717 0.11135238 0.63200003 1.4956599e-38
-0.051323809 0.11170476 0.634 1.4956599e-38
-0.050274286 0.11205714 0.63600004 2.0379573e-38
-0.049217142 0.11240952 0.63800001 2.2499695e-38
-0.048152387 0.11276191 0.64000005 2.3234378e-38
-0.047006667 0.1129381 0.64100003 2.0837291e-38
-0.045857143 0.11311429 0.64200002 1.5045945e-38
-0.044634286 0.11311429 0.64200002 1.1634706e-38
-0.04381714 0.11417142 0.648 1.2558811e-38
-0.042648572 0.11434763 0.64900005 1.4033941e-38
-0.041412383 0.11434763 0.64900005 1.6966517e-38
-0.04017619 0.11434763 0.64900005 1.7150908e-38
-0.038940005 0.11434763 0.64900005 1.7610447e-38
-0.11678286 0.11433714 0.64200002 1.4567263e-38
-0.11556 0.11433714 0.64200002 1.4567263e-38
-0.11415905 0.11415905 0.64100003 1.3190086e-38
-0.11276191 0.11398096 0.64000005 1.4112042e-38
-0.11119429 0.11362476 0.63800001 1.3379898e-38
-0.10963429 0.11326858 0.63600004 1.3011115e-38
-0.10842287 0.11326858 0.63600004 1.2000926e-38
-0.10687429 0.11291238 0.634 1.3476056e-38
-0.10516667 0.11237811 0.63100004 1.8167208e-38
-0.10363524 0.11202191 0.62900001 1.9918925e-38
-0.10227428 0.11184381 0.62800002 1.7064473e-38
-0.10091715 0.11166572 0.62700003 9.4122359e-39
-0.099722862 0.11166572 0.62700003 5.2922517e-39
-0.098528571 0.11166572 0.62700003 7.1361643e-39
-0.097023807 0.11130952 0.625 8.3293013e-39
-0.095833331 0.11130952 0.625 8.7902794e-39
-0.09449143 0.11113143 0.62400001 8.6062511e-39
-0.093302861 0.11113143 0.62400001 7.9608817e-39
-0.092114285 0.11113143 0.62400001 9.8919256e-39
-0.090634294 0.11077525 0.62200004 9.7075343e-39
-0.089449525 0.11077525 0.62200004 1.7157301e-38
-0.088264771 0.11077525 0.62200004 2.2407788e-38
-0.087080002 0.11077525 0.62200004 2.341769e-38
-0.08589524 0.11077525 0.62200004 2.341769e-38
-0.084574297 0.11059715 0.62100005 2.341769e-38
-0.083391435 0.11059715 0.62100005 2.341769e-38
-0.082208581 0.11059715 0.62100005 2.341769e-38
-0.08102572 0.11059715 0.62100005 1.7978148e-38
-0.079842865 0.11059715 0.62100005 1.5860885e-38
-0.078660011 0.11059715 0.62100005 1.5584298e-38
-0.07747715 0.11059715 0.62100005 1.5769794e-38
-0.076294295 0.11059715 0.62100005 1.6507359e-38
-0.075111434 0.11059715 0.62100005 1.6875413e-38
-0.07392858 0.11059715 0.62100005 1.6783217e-38
-0.072745718 0.11059715 0.62100005 1.6690661e-38
-0.071678095 0.11077525 0.62200004 1.6321879e-38
-0.07049334 0.11077525 0.62200004 1.6595945e-38
-0.069308572 0.11077525 0.62200004 1.5950575e-38
-0.068233334 0.11095334 0.62300003 1.8899373e-38
-0.067046665 0.11095334 0.62300003 2.3509514e-38
-0.065965712 0.11113143 0.62400001 2.341769e-38
-0.064880952 0.11130952 0.625 2.341769e-38
-0.063690476 0.11130952 0.625 2.3142182e-38
-0.062700003 0.11166572 0.62700003 2.1574856e-38
-0.061603814 0.11184381 0.62800002 1.8912364e-38
-0.060503807 0.11202191 0.62900001 1.7990408e-38
-0.059305713 0.11202191 0.62900001 1.6523206e-38
-0.058200005 0.11220001 0.63000005 1.6707598e-38
-0.057000004 0.11220001 0.63000005 1.6338466e-38
-0.055800002 0.11220001 0.63000005 1.5877488e-38
-0.054686669 0.11237811 0.63100004 1.6245189e-38
-0.053484764 0.11237811 0.63100004 1.5599819e-38
-0.052365717 0.1125562 0.63200003 1.6701474e-38
-0.051404767 0.11309049 0.63500005 1.946733e-38
-0.050353333 0.11344667 0.63700002 2.2867037e-38
-0.049371433 0.11398096 0.64000005 2.2867037e-38
-0.048227623 0.11415905 0.64100003 2.2957794e-38
-0.047080003 0.11433714 0.64200002 2.3234379e-38
-0.046142858 0.11504953 0.64600003 2.17625e-38
-0.044981908 0.11522762 0.64700001 1.9642001e-38
-0.043884765 0.11558381 0.64900005 1.85396e-38
-0.042648572 0.11558381 0.64900005 1.5312753e-38
-0.041412383 0.11558381 0.64900005 1.6230397e-38
-0.040238097 0.11576191 0.65000004 1.6967962e-38
-0.11678286 0.11556 0.64200002 1.4750935e-38
-0.11556 0.11556 0.64200002 1.4566544e-38
-0.11415905 0.11538001 0.64100003 1.3189004e-38
-0.1129381 0.11538001 0.64100003 1.4203156e-38
-0.11119429 0.11484 0.63800001 1.3656119e-38
-0.10997905 0.11484 0.63800001 1.2918554e-38
-0.10842287 0.11448001 0.63600004 1.1357354e-38
-0.10687429 0.11412 0.634 1.3662245e-38
-0.10533334 0.11376 0.63200003 1.7064123e-38
-0.10396477 0.11358001 0.63100004 1.9184622e-38
-0.10243714 0.11322001 0.62900001 1.596247e-38
-0.10123905 0.11322001 0.62900001 9.2321887e-39
-0.09988191 0.11304 0.62800002 4.5572076e-39
-0.098528571 0.11286 0.62700003 6.6777071e-39
-0.097023807 0.1125 0.625 7.9616005e-39
-0.095833331 0.1125 0.625 8.5147743e-39
-0.094642855 0.1125 0.625 8.882475e-39
-0.093302861 0.11232001 0.62400001 8.9746707e-39
-0.092114285 0.11232001 0.62400001 7.5960522e-39
-0.090925716 0.11232001 0.62400001 5.7521396e-39
-0.089593336 0.11214 0.62300003 9.7975187e-39
-0.088406667 0.11214 0.62300003 1.5513648e-38
-0.087219998 0.11214 0.62300003 2.3418043e-38
-0.08589524 0.11196 0.62200004 2.3418043e-38
-0.084574297 0.11178001 0.62100005 2.341769e-38
-0.083391435 0.11178001 0.62100005 2.341769e-38
-0.082208581 0.11178001 0.62100005 2.2496453e-38
-0.081156194 0.11196 0.62200004 1.558178e-38
-0.079842865 0.11178001 0.62100005 1.3834755e-38
-0.078660011 0.11178001 0.62100005 1.5586472e-38
-0.07747715 0.11178001 0.62100005 1.6229693e-38
-0.076294295 0.11178001 0.62100005 1.6782867e-38
-0.075111434 0.11178001 0.62100005 1.6875416e-38
-0.074047625 0.11196 0.62200004 1.6875416e-38
-0.072862864 0.11196 0.62200004 1.6874697e-38
-0.071678095 0.11196 0.62200004 1.6782501e-38
-0.070606664 0.11214 0.62300003 1.659811e-38
-0.069420002 0.11214 0.62300003 1.4754197e-38
-0.068233334 0.11214 0.62300003 1.48485e-38
-0.067046665 0.11214 0.62300003 2.2407825e-38
-0.065965712 0.11232001 0.62400001 2.341769e-38
-0.064880952 0.1125 0.625 2.341769e-38
-0.063894287 0.11286 0.62700003 2.2682643e-38
-0.062700003 0.11286 0.62700003 2.0193361e-38
-0.061701905 0.11322001 0.62900001 1.6797995e-38
-0.060503807 0.11322001 0.62900001 1.6890191e-38
-0.059305713 0.11322001 0.62900001 1.6706883e-38
-0.058200005 0.1134 0.63000005 1.6706883e-38
-0.05709048 0.11358001 0.63100004 1.6337747e-38
-0.055888575 0.11358001 0.63100004 1.606116e-38
-0.054773334 0.11376 0.63200003 1.5969321e-38
-0.053569525 0.11376 0.63200003 1.5231756e-38
-0.052531429 0.11412 0.634 1.7161027e-38
-0.051485714 0.11448001 0.63600004 2.0662985e-38
-0.050432384 0.11484 0.63800001 2.2774842e-38
-0.049371433 0.11520001 0.64000005 2.1299711e-38
-0.048302859 0.11556 0.64200002 2.1300045e-38
-0.047226671 0.11592001 0.64400005 2.3142523e-38
-0.046142858 0.11628 0.64600003 2.3326213e-38
-0.044981908 0.11646 0.64700001 2.2588648e-38
-0.043952383 0.11700001 0.65000004 1.9090995e-38
-0.042714287 0.11700001 0.65000004 1.4481213e-38
-0.041476194 0.11700001 0.65000004 1.5034727e-38
-0.040238097 0.11700001 0.65000004 1.6602053e-38
-0.11941428 0.11696476 0.64300001 1.4842415e-38
-0.11818952 0.11696476 0.64300001 1.4842415e-38
-0.11678286 0.11678286 0.64200002 1.4659095e-38
-0.11556 0.11678286 0.64200002 1.45669e-38
-0.11415905 0.11660096 0.64100003 1.3373035e-38
-0.1129381 0.11660096 0.64100003 1.4202796e-38
-0.11154287 0.11641905 0.64000005 1.3471718e-38
-0.11032382 0.11641905 0.64000005 1.2457566e-38
-0.10859334 0.11587334 0.63700002 1.2368627e-38
-0.10704286 0.11550953 0.63500005 1.5687669e-38
-0.10566666 0.11532762 0.634 1.98253e-38
-0.10412953 0.11496381 0.63200003 2.1669213e-38
-0.10260001 0.11460001 0.63000005 1.9829616e-38
-0.10123905 0.1144181 0.62900001 1.088664e-38
-0.10004095 0.1144181 0.62900001 3.4551788e-39
-0.098685719 0.1142362 0.62800002 5.6678739e-39
-0.097334288 0.11405428 0.62700003 8.1449212e-39
-0.096140005 0.11405428 0.62700003 8.5137037e-39
-0.094642855 0.11369047 0.625 8.882475e-39
-0.093452379 0.11369047 0.625 9.0668663e-39
