# .PCD v0.7 - Point Cloud Data file format
VERSION 0.7
FIELDS x y z rgb
SIZE 4 4 4 4
TYPE F F F F
COUNT 1 1 1 1
WIDTH 989
HEIGHT 1
VIEWPOINT 0 0 0 1 0 0 0
POINTS 989
DATA ascii
-0.047895238 -0.096809521 1.0700001 1.7056182e-38
-0.045857143 -0.096809521 1.0700001 1.7240573e-38
-0.043532383 -0.0961762 1.0630001 1.7332047e-38
-0.041390479 -0.095904768 1.0600001 1.6871069e-38
-0.039371431 -0.095904768 1.0600001 1.6595198e-38
-0.037352383 -0.095904768 1.0600001 1.6503002e-38
-0.035233337 -0.095633335 1.057 1.6226771e-38
-0.033220001 -0.095633335 1.057 1.604238e-38
-0.031118095 -0.095361911 1.054 1.5764711e-38
-0.029110476 -0.095361911 1.054 1.6133494e-38
-0.027180001 -0.095633335 1.057 1.640938e-38
-0.025166668 -0.095633335 1.057 1.6593771e-38
-0.023087619 -0.095361911 1.054 1.7330598e-38
-0.02108 -0.095361911 1.054 1.7054011e-38
-0.018547621 -0.092738099 1.0250001 1.5397361e-38
-0.016595239 -0.092738099 1.0250001 1.4198818e-38
-0.014642859 -0.092738099 1.0250001 1.4475042e-38
-0.012727619 -0.093009517 1.028 1.5765781e-38
-0.010769524 -0.093009517 1.028 1.622425e-38
-0.0088114282 -0.093009517 1.028 1.6316446e-38
-0.101 -0.089457139 1.01 1.2724076e-38
-0.099076189 -0.089457139 1.01 1.3553772e-38
-0.097152382 -0.089457139 1.01 1.5028902e-38
-0.098717146 -0.092734285 1.0470001 1.5947301e-38
-0.096722864 -0.092734285 1.0470001 1.6777061e-38
-0.094728574 -0.092734285 1.0470001 1.6684162e-38
-0.093620002 -0.093620002 1.057 1.7052945e-38
-0.091866672 -0.09388572 1.0600001 1.6778493e-38
-0.089847624 -0.09388572 1.0600001 1.6686298e-38
-0.087828577 -0.09388572 1.0600001 1.6226055e-38
-0.086052381 -0.094151437 1.0630001 1.6594838e-38
-0.084027618 -0.094151437 1.0630001 1.6594482e-38
-0.082002863 -0.094151437 1.0630001 1.6871069e-38
-0.079978101 -0.094151437 1.0630001 1.6871074e-38
-0.078246668 -0.094505712 1.067 1.7239857e-38
-0.076214284 -0.094505712 1.067 1.7056179e-38
-0.074181899 -0.094505712 1.067 1.724057e-38
-0.07235238 -0.09477143 1.0700001 1.7148377e-38
-0.070314288 -0.09477143 1.0700001 1.7332769e-38
-0.068276189 -0.09477143 1.0700001 1.7424608e-38
-0.066423811 -0.095037147 1.0730001 1.7793391e-38
-0.064380005 -0.095037147 1.0730001 1.7608637e-38
-0.062336192 -0.095037147 1.0730001 1.7516441e-38
-0.060292382 -0.095037147 1.0730001 1.7608637e-38
-0.058248572 -0.095037147 1.0730001 1.7516441e-38
-0.056204766 -0.095037147 1.0730001 1.7516438e-38
-0.054009527 -0.09477143 1.0700001 1.7608634e-38
-0.051971432 -0.09477143 1.0700001 1.7608634e-38
-0.049933337 -0.09477143 1.0700001 1.7700829e-38
-0.047895238 -0.09477143 1.0700001 1.6962914e-38
-0.045857143 -0.09477143 1.0700001 1.6962914e-38
-0.043532383 -0.094151437 1.0630001 1.7239488e-38
-0.041390479 -0.09388572 1.0600001 1.742388e-38
-0.039371431 -0.09388572 1.0600001 1.7517861e-38
-0.037352383 -0.09388572 1.0600001 1.7702252e-38
-0.035233337 -0.093620002 1.057 1.8070684e-38
-0.033125717 -0.093354285 1.054 1.8531662e-38
-0.031118095 -0.093354285 1.054 1.844018e-38
-0.029110476 -0.093354285 1.054 1.8255788e-38
-0.027180001 -0.093620002 1.057 1.7332075e-38
-0.025166668 -0.093620002 1.057 1.7516466e-38
-0.023087619 -0.093354285 1.054 1.6595185e-38
-0.02108 -0.093354285 1.054 1.3829316e-38
-0.018547621 -0.090785727 1.0250001 1.2355624e-38
-0.016595239 -0.090785727 1.0250001 1.2540015e-38
-0.014642859 -0.090785727 1.0250001 1.4566874e-38
-0.012690477 -0.090785727 1.0250001 1.6318591e-38
-0.010769524 -0.091051422 1.028 1.6684513e-38
-0.0088114282 -0.091051422 1.028 1.631573e-38
-0.101 -0.087533325 1.01 1.4013029e-38
-0.099076189 -0.087533325 1.01 1.1432939e-38
-0.096863814 -0.087273337 1.0070001 1.3276852e-38
-0.094945721 -0.087273337 1.0070001 1.5117525e-38
-0.097369522 -0.091346666 1.054 1.6869241e-38
-0.095361911 -0.091346666 1.054 1.6685226e-38
-0.093620002 -0.091606669 1.057 1.6961813e-38
-0.091866672 -0.091866672 1.0600001 1.7146217e-38
-0.089847624 -0.091866672 1.0600001 1.6961825e-38
-0.08807715 -0.092126675 1.0630001 1.650122e-38
-0.086052381 -0.092126675 1.0630001 1.6777807e-38
-0.084027618 -0.092126675 1.0630001 1.6685961e-38
-0.082002863 -0.092126675 1.0630001 1.7054744e-38
-0.079978101 -0.092126675 1.0630001 1.6778873e-38
-0.078246668 -0.092473336 1.067 1.705546e-38
-0.076214284 -0.092473336 1.067 1.6780311e-38
-0.074181899 -0.092473336 1.067 1.6964702e-38
-0.07235238 -0.092733338 1.0700001 1.6964699e-38
-0.070314288 -0.092733338 1.0700001 1.7149091e-38
-0.068276189 -0.092733338 1.0700001 1.724057e-38
-0.066423811 -0.092993334 1.0730001 1.7424961e-38
-0.064380005 -0.092993334 1.0730001 1.733205e-38
-0.062336192 -0.092993334 1.0730001 1.7424245e-38
-0.060292382 -0.092993334 1.0730001 1.7608274e-38
-0.058248572 -0.092993334 1.0730001 1.7516078e-38
-0.056204766 -0.092993334 1.0730001 1.7331684e-38
-0.054160956 -0.092993334 1.0730001 1.7884858e-38
-0.052117147 -0.092993334 1.0730001 1.7885224e-38
-0.049933337 -0.092733338 1.0700001 1.7885224e-38
-0.047895238 -0.092733338 1.0700001 1.7792315e-38
-0.045857143 -0.092733338 1.0700001 1.8068902e-38
-0.043532383 -0.092126675 1.0630001 1.8252937e-38
-0.041390479 -0.091866672 1.0600001 1.8252937e-38
-0.039260004 -0.091606669 1.057 1.8438394e-38
-0.037246667 -0.091606669 1.057 1.8991568e-38
-0.035233337 -0.091606669 1.057 1.9177044e-38
-0.033125717 -0.091346666 1.054 1.8900457e-38
-0.031118095 -0.091346666 1.054 1.8533457e-38
-0.02756381 -0.086493336 0.99800003 1.7242718e-38
-0.025662858 -0.086493336 0.99800003 1.5861967e-38
-0.025166668 -0.091606669 1.057 1.6322945e-38
-0.022189524 -0.087793328 1.013 1.4938191e-38
-0.020260001 -0.087793328 1.013 1.1434757e-38
-0.018493334 -0.088573337 1.0220001 1.1801708e-38
-0.016595239 -0.08883334 1.0250001 1.3276838e-38
-0.014642859 -0.08883334 1.0250001 1.5026776e-38
-0.012690477 -0.08883334 1.0250001 1.6317515e-38
-0.010769524 -0.089093328 1.028 1.6224611e-38
-0.0088114282 -0.089093328 1.028 1.5948024e-38
-0.101 -0.085609525 1.01 1.5211926e-38
-0.099076189 -0.085609525 1.01 1.0881605e-38
-0.096863814 -0.085355245 1.0070001 7.1937801e-39
-0.094945721 -0.085355245 1.0070001 8.6685696e-39
-0.097369522 -0.089339048 1.054 1.2079808e-38
-0.095361911 -0.089339048 1.054 1.3184316e-38
-0.093620002 -0.089593336 1.057 1.5028228e-38
-0.091866672 -0.089847624 1.0600001 1.6224996e-38
-0.089847624 -0.089847624 1.0600001 1.7792322e-38
-0.08807715 -0.090101913 1.0630001 1.7884517e-38
-0.086052381 -0.090101913 1.0630001 1.8345495e-38
-0.084027618 -0.090101913 1.0630001 1.8346567e-38
-0.082002863 -0.090101913 1.0630001 1.9084132e-38
-0.080279045 -0.090440959 1.067 1.899229e-38
-0.078466676 -0.09069524 1.0700001 1.899229e-38
-0.076428577 -0.09069524 1.0700001 1.9360351e-38
-0.074181899 -0.090440959 1.067 1.9636938e-38
-0.07214953 -0.090440959 1.067 1.9913162e-38
-0.070314288 -0.09069524 1.0700001 2.0097553e-38
-0.068276189 -0.09069524 1.0700001 2.0097919e-38
-0.066423811 -0.090949535 1.0730001 2.0097919e-38
-0.064380005 -0.090949535 1.0730001 2.0190114e-38
-0.062336192 -0.090949535 1.0730001 2.0374506e-38
-0.060292382 -0.090949535 1.0730001 2.046742e-38
-0.058248572 -0.090949535 1.0730001 2.0651811e-38
-0.056204766 -0.090949535 1.0730001 2.0559976e-38
-0.054160956 -0.090949535 1.0730001 2.0744367e-38
-0.052117147 -0.090949535 1.0730001 2.0007531e-38
-0.049933337 -0.09069524 1.0700001 1.9915335e-38
-0.047895238 -0.09069524 1.0700001 2.0006449e-38
-0.045857143 -0.09069524 1.0700001 2.0283036e-38
-0.043532383 -0.090101913 1.0630001 1.9729865e-38
-0.041390479 -0.089847624 1.0600001 1.8807908e-38
-0.039260004 -0.089593336 1.057 1.8531672e-38
-0.037246667 -0.089593336 1.057 1.9269237e-38
-0.035233337 -0.089593336 1.057 1.8624586e-38
-0.033125717 -0.089339048 1.054 1.5121152e-38
-0.029464763 -0.08459238 0.99800003 1.0334568e-38
-0.02756381 -0.08459238 0.99800003 8.8594377e-39
-0.025662858 -0.08459238 0.99800003 1.2822713e-38
-0.023833334 -0.084846668 1.001 1.4297843e-38
-0.022058096 -0.085355245 1.0070001 1.4112347e-38
-0.020260001 -0.085863806 1.013 1.0885499e-38
-0.018439047 -0.086372383 1.0190001 1.1344716e-38
-0.016546667 -0.086626671 1.0220001 1.3188629e-38
-0.0146 -0.086626671 1.0220001 1.5210812e-38
-0.012690477 -0.08688096 1.0250001 1.567179e-38
-0.010738096 -0.08688096 1.0250001 1.5670714e-38
-0.0087857144 -0.08688096 1.0250001 1.5578518e-38
-0.099076189 -0.083685718 1.01 1.1157839e-38
-0.096863814 -0.083437152 1.0070001 6.7324488e-39
-0.094945721 -0.083437152 1.0070001 6.832779e-39
-0.093027629 -0.083437152 1.0070001 9.6908435e-39
-0.095633335 -0.087580003 1.057 9.4125484e-39
-0.093620002 -0.087580003 1.057 1.25472e-38
-0.091866672 -0.087828577 1.0600001 1.521155e-38
-0.089847624 -0.087828577 1.0600001 1.6963267e-38
-0.08807715 -0.08807715 1.0630001 1.6688122e-38
-0.086052381 -0.08807715 1.0630001 1.7333492e-38
-0.084027618 -0.08807715 1.0630001 1.7335297e-38
-0.082002863 -0.08807715 1.0630001 1.8441644e-38
-0.080279045 -0.088408574 1.067 1.8901173e-38
-0.078466676 -0.088657148 1.0700001 1.8901173e-38
-0.076428577 -0.088657148 1.0700001 1.9913162e-38
-0.074181899 -0.088408574 1.067 2.0097553e-38
-0.07214953 -0.088408574 1.067 2.092659e-38
-0.070314288 -0.088657148 1.0700001 2.1203177e-38
-0.068276189 -0.088657148 1.0700001 2.1480863e-38
-0.066423811 -0.088905722 1.0730001 2.111208e-38
-0.064380005 -0.088905722 1.0730001 2.102131e-38
-0.062336192 -0.088905722 1.0730001 2.0929114e-38
-0.060292382 -0.088905722 1.0730001 2.1574131e-38
-0.058248572 -0.088905722 1.0730001 2.1205348e-38
-0.056414288 -0.089237146 1.077 2.0653616e-38
-0.054160956 -0.088905722 1.0730001 1.973166e-38
-0.052117147 -0.088905722 1.0730001 1.8811506e-38
-0.050073337 -0.088905722 1.0730001 1.8442723e-38
-0.048029527 -0.088905722 1.0730001 1.7706956e-38
-0.042385716 -0.08194571 0.98900002 1.908989e-38
-0.040501904 -0.08194571 0.98900002 1.8903704e-38
-0.038618095 -0.08194571 0.98900002 1.6322226e-38
-0.036845718 -0.082194284 0.99200004 1.6872125e-38
-0.034956191 -0.082194284 0.99200004 1.8162864e-38
-0.033166666 -0.082442857 0.99500006 1.7521483e-38
-0.031271432 -0.082442857 0.99500006 1.4571223e-38
-0.029464763 -0.082691431 0.99800003 8.6815204e-39
-0.02756381 -0.082691431 0.99800003 8.8659117e-39
-0.025739999 -0.082940005 1.001 1.2915294e-38
-0.023833334 -0.082940005 1.001 1.2730903e-38
-0.022058096 -0.083437152 1.0070001 1.2452864e-38
-0.020260001 -0.083934292 1.013 9.8713868e-39
-0.018439047 -0.084431432 1.0190001 1.0425264e-38
-0.016546667 -0.084680006 1.0220001 1.2176981e-38
-0.0146 -0.084680006 1.0220001 1.4933509e-38
-0.012653334 -0.084680006 1.0220001 1.5763269e-38
-0.010738096 -0.08492858 1.0250001 1.5578515e-38
-0.0087857144 -0.08492858 1.0250001 1.548632e-38
-0.099076189 -0.081761904 1.01 1.1711744e-38
-0.096863814 -0.081519052 1.0070001 2.2155944e-39
-0.09466286 -0.081276193 1.0040001 2.3168004e-39
-0.092473343 -0.081033342 1.001 9.7846464e-39
-0.090566665 -0.081033342 1.001 1.1803882e-38
-0.088394284 -0.080790475 0.99800003 1.3463404e-38
-0.086493336 -0.080790475 0.99800003 1.4937096e-38
-0.08459238 -0.080790475 0.99800003 1.4844901e-38
-0.082691431 -0.080790475 0.99800003 1.3281891e-38
-0.080790475 -0.080790475 0.99800003 1.2820913e-38
-0.078889519 -0.080790475 0.99800003 1.4200658e-38
-0.076525718 -0.080304772 0.99200004 1.5675788e-38
-0.074636191 -0.080304772 0.99200004 1.5032895e-38
-0.072746672 -0.080304772 0.99200004 1.4203134e-38
-0.070642859 -0.080061905 0.98900002 1.4204576e-38
-0.068759046 -0.080061905 0.98900002 1.4204576e-38
-0.066875242 -0.080061905 0.98900002 1.6043121e-38
-0.064991429 -0.080061905 0.98900002 1.945436e-38
-0.063107617 -0.080061905 0.98900002 1.9730584e-38
-0.061223812 -0.080061905 0.98900002 1.7886671e-38
-0.059220001 -0.079900004 0.98700005 1.6323649e-38
-0.057340004 -0.079900004 0.98700005 1.650804e-38
-0.055460002 -0.079900004 0.98700005 1.7978523e-38
-0.053580001 -0.079900004 0.98700005 1.9453653e-38
-0.051700003 -0.079900004 0.98700005 1.8350505e-38
-0.049819998 -0.079900004 0.98700005 1.4939267e-38
-0.047940001 -0.079900004 0.98700005 1.3746898e-38
-0.046153337 -0.080061905 0.98900002 1.3746898e-38
-0.044269525 -0.080061905 0.98900002 1.7613656e-38
-0.042385716 -0.080061905 0.98900002 2.0102938e-38
-0.040501904 -0.080061905 0.98900002 1.945471e-38
-0.038618095 -0.080061905 0.98900002 1.3461994e-38
-0.036845718 -0.080304772 0.99200004 1.2359901e-38
-0.034956191 -0.080304772 0.99200004 1.4296009e-38
-0.033166666 -0.080547623 0.99500006 1.6596661e-38
-0.031271432 -0.080547623 0.99500006 1.9270334e-38
-0.029464763 -0.080790475 0.99800003 1.7981723e-38
-0.027646668 -0.081033342 1.001 1.6506592e-38
-0.025817145 -0.081276193 1.0040001 1.5403134e-38
-0.023904763 -0.081276193 1.0040001 1.2176287e-38
-0.022123808 -0.081761904 1.01 9.7853442e-39
-0.020260001 -0.082004763 1.013 8.3102142e-39
-0.018439047 -0.082490481 1.0190001 9.6887822e-39
-0.016546667 -0.082733333 1.0220001 1.1717086e-38
-0.0146 -0.082733333 1.0220001 1.5303358e-38
-0.012653334 -0.082733333 1.0220001 1.5764336e-38
-0.010738096 -0.0829762 1.0250001 1.5670708e-38
-0.0087857144 -0.0829762 1.0250001 1.5394121e-38
-0.099076189 -0.079838097 1.01 1.2448934e-38
-0.096863814 -0.07960096 1.0070001 2.1230232e-39
-0.09466286 -0.079363815 1.0040001 4.61294e-39
-0.092473343 -0.079126664 1.001 1.1527601e-38
-0.090566665 -0.079126664 1.001 1.3000628e-38
-0.088394284 -0.078889519 0.99800003 1.5213323e-38
-0.086493336 -0.078889519 0.99800003 1.4664478e-38
-0.08459238 -0.078889519 0.99800003 1.3281543e-38
-0.082691431 -0.078889519 0.99800003 1.1810366e-38
-0.080790475 -0.078889519 0.99800003 1.1533779e-38
-0.078889519 -0.078889519 0.99800003 1.4293544e-38
-0.076525718 -0.078415245 0.99200004 1.6506239e-38
-0.074636191 -0.078415245 0.99200004 1.4850331e-38
-0.072746672 -0.078415245 0.99200004 1.2729831e-38
-0.070642859 -0.0781781 0.98900002 1.1449137e-38
-0.068759046 -0.0781781 0.98900002 1.1541332e-38
-0.066875242 -0.0781781 0.98900002 1.4111689e-38
-0.064991429 -0.0781781 0.98900002 1.853708e-38
-0.063107617 -0.0781781 0.98900002 1.8719313e-38
-0.061223812 -0.0781781 0.98900002 1.4386118e-38
-0.059220001 -0.078020006 0.98700005 1.2640856e-38
-0.057340004 -0.078020006 0.98700005 1.3009638e-38
-0.055460002 -0.078020006 0.98700005 1.7978839e-38
-0.053580001 -0.078020006 0.98700005 1.9822751e-38
-0.051700003 -0.078020006 0.98700005 1.9179918e-38
-0.049819998 -0.078020006 0.98700005 1.512331e-38
-0.047940001 -0.078020006 0.98700005 1.3745809e-38
-0.046153337 -0.0781781 0.98900002 1.4852156e-38
-0.044269525 -0.0781781 0.98900002 1.9177044e-38
-0.042385716 -0.0781781 0.98900002 1.9914609e-38
-0.040501904 -0.0781781 0.98900002 1.9177044e-38
-0.038735237 -0.078415245 0.99200004 1.2538959e-38
-0.036845718 -0.078415245 0.99200004 9.6873192e-39
-0.035061907 -0.078652389 0.99500006 1.0978058e-38
-0.033166666 -0.078652389 0.99500006 1.594584e-38
-0.031271432 -0.078652389 0.99500006 1.9080492e-38
-0.029464763 -0.078889519 0.99800003 1.9544026e-38
-0.027729524 -0.079363815 1.0040001 1.79767e-38
-0.025817145 -0.079363815 1.0040001 1.5494624e-38
-0.023976194 -0.07960096 1.0070001 1.1069234e-38
-0.022189524 -0.080075242 1.013 8.4996277e-39
-0.020260001 -0.080075242 1.013 7.7620626e-39
-0.018439047 -0.080549523 1.0190001 9.8731762e-39
-0.016546667 -0.080786668 1.0220001 1.2454654e-38
-0.0146 -0.080786668 1.0220001 1.5487401e-38
-0.012690477 -0.081023812 1.0250001 1.5763988e-38
-0.010738096 -0.081023812 1.0250001 1.5670711e-38
-0.0087857144 -0.081023812 1.0250001 1.548632e-38
-0.099076189 -0.077914283 1.01 1.3829698e-38
-0.096863814 -0.077682868 1.0070001 3.4115914e-39
-0.094945721 -0.077682868 1.0070001 4.3346015e-39
-0.093027629 -0.077682868 1.0070001 1.0142926e-38
-0.090838097 -0.07745143 1.0040001 1.2631845e-38
-0.088660002 -0.07722 1.001 1.548991e-38
-0.086753339 -0.07722 1.001 1.3927626e-38
-0.084846668 -0.07722 1.001 1.1991518e-38
-0.082691431 -0.076988578 0.99800003 1.0523978e-38
-0.080790475 -0.076988578 0.99800003 1.0892761e-38
-0.078889519 -0.076988578 0.99800003 1.2087701e-38
-0.076988578 -0.076988578 0.99800003 1.5130157e-38
-0.075087622 -0.076988578 0.99800003 1.5954898e-38
-0.072746672 -0.076525718 0.99200004 1.613929e-38
-0.070642859 -0.076294288 0.98900002 1.6509447e-38
-0.068759046 -0.076294288 0.98900002 1.8168968e-38
-0.066875242 -0.076294288 0.98900002 1.8902988e-38
-0.064991429 -0.076294288 0.98900002 1.9087379e-38
-0.063107617 -0.076294288 0.98900002 1.6236492e-38
-0.061223812 -0.076294288 0.98900002 1.0704754e-38
-0.059340004 -0.076294288 0.98900002 7.7689024e-39
-0.057456192 -0.076294288 0.98900002 7.4001199e-39
-0.055572383 -0.076294288 0.98900002 1.3196145e-38
-0.053688571 -0.076294288 0.98900002 1.6976166e-38
-0.051804762 -0.076294288 0.98900002 1.9363954e-38
-0.04992095 -0.076294288 0.98900002 2.028591e-38
-0.048037145 -0.076294288 0.98900002 2.019407e-38
-0.046153337 -0.076294288 0.98900002 2.0655048e-38
-0.044269525 -0.076294288 0.98900002 1.9546921e-38
-0.042385716 -0.076294288 0.98900002 1.5490313e-38
-0.040501904 -0.076294288 0.98900002 1.3001398e-38
-0.038735237 -0.076525718 0.99200004 1.1249682e-38
-0.036845718 -0.076525718 0.99200004 1.0699359e-38
-0.035061907 -0.076757148 0.99500006 9.9617943e-39
-0.033166666 -0.076757148 0.99500006 1.1157782e-38
-0.031365715 -0.076988578 0.99800003 1.456902e-38
-0.029464763 -0.076988578 0.99800003 1.6687384e-38
-0.027729524 -0.07745143 1.0040001 1.7424949e-38
-0.025817145 -0.07745143 1.0040001 1.5494954e-38
-0.024047619 -0.077914283 1.01 1.1346151e-38
-0.022189524 -0.078145713 1.013 8.958808e-39
-0.020260001 -0.078145713 1.013 8.6822211e-39
-0.018384762 -0.07837715 1.016 1.079335e-38
-0.016546667 -0.078840002 1.0220001 1.3282632e-38
-0.014642859 -0.07907144 1.0250001 1.567179e-38
-0.012727619 -0.079302855 1.028 1.5763986e-38
-0.010769524 -0.079302855 1.028 1.5762907e-38
-0.097152382 -0.075990476 1.01 4.8863712e-39
-0.094945721 -0.075764768 1.0070001 3.9665056e-39
-0.093027629 -0.075764768 1.0070001 8.2075046e-39
-0.091109529 -0.075764768 1.0070001 1.2078318e-38
-0.088925719 -0.075539045 1.0040001 1.4751992e-38
-0.086753339 -0.075313337 1.001 1.2179534e-38
-0.084846668 -0.075313337 1.001 1.0427817e-38
-0.082691431 -0.075087622 0.99800003 9.1460761e-39
-0.080790475 -0.075087622 0.99800003 9.7914455e-39
-0.078889519 -0.075087622 0.99800003 1.043466e-38
-0.076988578 -0.075087622 0.99800003 1.2001985e-38
-0.074861906 -0.074861906 0.99500006 1.5678289e-38
-0.072746672 -0.074636191 0.99200004 1.7430006e-38
-0.070642859 -0.074410483 0.98900002 1.8531306e-38
-0.068759046 -0.074410483 0.98900002 2.0006436e-38
-0.066875242 -0.074410483 0.98900002 1.9457231e-38
-0.064991429 -0.074410483 0.98900002 1.6691362e-38
-0.063107617 -0.074410483 0.98900002 1.0624459e-38
-0.061223812 -0.074410483 0.98900002 7.1210246e-39
-0.059340004 -0.074410483 0.98900002 5.2889937e-39
-0.057456192 -0.074410483 0.98900002 4.8280155e-39
-0.055572383 -0.074410483 0.98900002 6.9412717e-39
-0.053688571 -0.074410483 0.98900002 9.5227493e-39
-0.051804762 -0.074410483 0.98900002 1.6967198e-38
-0.04992095 -0.074410483 0.98900002 2.1116001e-38
-0.048037145 -0.074410483 0.98900002 2.1574503e-38
-0.046153337 -0.074410483 0.98900002 2.1205721e-38
-0.044269525 -0.074410483 0.98900002 1.8902622e-38
-0.042385716 -0.074410483 0.98900002 1.1803559e-38
-0.040501904 -0.074410483 0.98900002 1.19847e-38
-0.038735237 -0.074636191 0.99200004 1.2445679e-38
-0.036845718 -0.074636191 0.99200004 1.1988659e-38
-0.035061907 -0.074861906 0.99500006 1.0974507e-38
-0.033166666 -0.074861906 0.99500006 9.5029392e-39
-0.031365715 -0.075087622 0.99800003 1.2084417e-38
-0.029553335 -0.075313337 1.001 1.5030389e-38
-0.027729524 -0.075539045 1.0040001 1.6505519e-38
-0.025894288 -0.075764768 1.0070001 1.337808e-38
-0.024047619 -0.075990476 1.01 1.0335624e-38
-0.022189524 -0.076216191 1.013 9.4176337e-39
-0.020260001 -0.076216191 1.013 9.3254381e-39
-0.018384762 -0.076441906 1.016 1.1252883e-38
-0.016498096 -0.076667622 1.0190001 1.3834361e-38
-0.014642859 -0.077119052 1.0250001 1.5856181e-38
-0.012727619 -0.07734476 1.028 1.5763986e-38
-0.010769524 -0.07734476 1.028 1.5762907e-38
-0.097440958 -0.074286662 1.013 5.9920097e-39
-0.095228568 -0.074066661 1.01 2.6797871e-39
-0.093304761 -0.074066661 1.01 6.3676123e-39
-0.091109529 -0.073846675 1.0070001 1.078939e-38
-0.088925719 -0.073626675 1.0040001 1.4292824e-38
-0.086753339 -0.073406667 1.001 1.2363202e-38
-0.084846668 -0.073406667 1.001 1.0427094e-38
-0.082691431 -0.073186666 0.99800003 8.8691487e-39
-0.080790475 -0.073186666 0.99800003 1.0067692e-38
-0.078889519 -0.073186666 0.99800003 1.043503e-38
-0.076988578 -0.073186666 0.99800003 1.0342834e-38
-0.074861906 -0.072966672 0.99500006 1.1904755e-38
-0.072746672 -0.072746672 0.99200004 1.5961363e-38
-0.070857145 -0.072746672 0.99200004 1.7980316e-38
-0.068759046 -0.072526664 0.98900002 1.8994468e-38
-0.066875242 -0.072526664 0.98900002 1.5867337e-38
-0.064991429 -0.072526664 0.98900002 9.4136428e-39
-0.063107617 -0.072526664 0.98900002 4.9205643e-39
-0.061409526 -0.072746672 0.99200004 5.7503249e-39
-0.059520002 -0.072746672 0.99200004 6.945278e-39
-0.057630476 -0.072746672 0.99200004 6.945278e-39
-0.055572383 -0.072526664 0.98900002 7.4026534e-39
-0.053688571 -0.072526664 0.98900002 6.1119146e-39
-0.051804762 -0.072526664 0.98900002 8.5918233e-39
-0.04992095 -0.072526664 0.98900002 1.4953322e-38
-0.048037145 -0.072526664 0.98900002 1.8717893e-38
-0.046153337 -0.072526664 0.98900002 1.7795937e-38
-0.044269525 -0.072526664 0.98900002 1.5677182e-38
-0.042385716 -0.072526664 0.98900002 1.1067401e-38
-0.040501904 -0.072526664 0.98900002 1.1251464e-38
-0.038735237 -0.072746672 0.99200004 1.1896833e-38
-0.036957145 -0.072966672 0.99500006 1.2080499e-38
-0.035061907 -0.072966672 0.99500006 1.1619521e-38
-0.033166666 -0.072966672 0.99500006 1.0514981e-38
-0.031365715 -0.073186666 0.99800003 1.2082306e-38
-0.029553335 -0.073406667 1.001 1.4754888e-38
-0.027729524 -0.073626675 1.0040001 1.6506605e-38
-0.025894288 -0.073846675 1.0070001 1.4206383e-38
-0.024047619 -0.074066661 1.01 1.0426363e-38
-0.022189524 -0.074286662 1.013 9.2336082e-39
-0.020260001 -0.074286662 1.013 9.1414126e-39
-0.018384762 -0.07450667 1.016 1.1160338e-38
-0.016449524 -0.07450667 1.016 1.4110598e-38
-0.014514286 -0.07450667 1.016 1.5764339e-38
-0.012579048 -0.07450667 1.016 1.5764339e-38
-0.097729526 -0.072571434 1.016 7.1919752e-39
-0.095228568 -0.072142854 1.01 1.3972627e-39
-0.093304761 -0.072142854 1.01 5.2694694e-39
-0.091380946 -0.072142854 1.01 1.0879778e-38
-0.089191437 -0.071928583 1.0070001 1.4567603e-38
-0.087013341 -0.071714289 1.0040001 1.2269231e-38
-0.085100956 -0.071714289 1.0040001 1.0517514e-38
-0.082940005 -0.071500003 1.001 8.7769404e-39
-0.081033342 -0.071500003 1.001 1.0067679e-38
-0.078889519 -0.07128571 0.99800003 9.8836565e-39
-0.076988578 -0.07128571 0.99800003 1.0068048e-38
-0.075087622 -0.07128571 0.99800003 1.0619045e-38
-0.073186666 -0.07128571 0.99800003 1.4214675e-38
-0.071071438 -0.071071438 0.99500006 1.6603498e-38
-0.068967618 -0.070857145 0.99200004 1.6603498e-38
-0.067078099 -0.070857145 0.99200004 1.2279283e-38
-0.065188579 -0.070857145 0.99200004 6.747545e-39
-0.063299052 -0.070857145 0.99200004 4.1858803e-39
-0.061409526 -0.070857145 0.99200004 5.6610104e-39
-0.059520002 -0.070857145 0.99200004 7.0371107e-39
-0.057630476 -0.070857145 0.99200004 7.221502e-39
-0.055740956 -0.070857145 0.99200004 7.0371107e-39
-0.053851429 -0.070857145 0.99200004 5.1010025e-39
-0.051961906 -0.070857145 0.99200004 4.0003596e-39
-0.050072383 -0.070857145 0.99200004 1.1099423e-38
-0.04818286 -0.070857145 0.99200004 1.761659e-38
-0.046293333 -0.070857145 0.99200004 1.678683e-38
-0.04440381 -0.070857145 0.99200004 1.3006398e-38
-0.042514287 -0.070857145 0.99200004 1.0609312e-38
-0.040747624 -0.071071438 0.99500006 1.1896461e-38
-0.038852382 -0.071071438 0.99500006 1.2173048e-38
-0.036957145 -0.071071438 0.99500006 1.1895757e-38
-0.03516762 -0.07128571 0.99800003 1.1250388e-38
-0.033266667 -0.07128571 0.99800003 1.0331661e-38
-0.031460002 -0.071500003 1.001 1.3466313e-38
-0.029553335 -0.071500003 1.001 1.5306626e-38
-0.027812384 -0.071928583 1.0070001 1.6781756e-38
-0.025971429 -0.072142854 1.01 1.3839071e-38
-0.024119047 -0.07235714 1.013 9.9668544e-39
-0.022189524 -0.07235714 1.013 9.6924199e-39
-0.020260001 -0.07235714 1.013 9.1392462e-39
-0.018384762 -0.072571434 1.016 1.1068073e-38
-0.016449524 -0.072571434 1.016 1.4479312e-38
-0.014514286 -0.072571434 1.016 1.5579594e-38
-0.097729526 -0.07063619 1.016 8.9433138e-39
-0.095511429 -0.070427619 1.013 6.5515888e-39
-0.093581907 -0.070427619 1.013 1.0055023e-38
-0.091652378 -0.070427619 1.013 1.1894668e-38
-0.089457139 -0.07021904 1.01 1.585908e-38
-0.087273337 -0.070010483 1.0070001 1.3927639e-38
-0.085100956 -0.069801912 1.0040001 1.1438357e-38
-0.082940005 -0.06959334 1.001 9.3290506e-39
-0.081033342 -0.06959334 1.001 9.97442e-39
-0.079126664 -0.06959334 1.001 9.6996184e-39
-0.076988578 -0.069384769 0.99800003 1.0160597e-38
-0.075087622 -0.069384769 0.99800003 1.0619064e-38
-0.073186666 -0.069384769 0.99800003 1.3569324e-38
-0.071071438 -0.06917619 0.99500006 1.6786439e-38
-0.06917619 -0.06917619 0.99500006 1.7247417e-38
-0.067280956 -0.06917619 0.99500006 1.3292721e-38
-0.065385722 -0.06917619 0.99500006 6.7468317e-39
-0.063490473 -0.06917619 0.99500006 2.1651449e-39
-0.061595239 -0.06917619 0.99500006 4.37784e-39
-0.059520002 -0.068967618 0.99200004 7.1285875e-39
-0.057630476 -0.068967618 0.99200004 7.0363918e-39
-0.055740956 -0.068967618 0.99200004 6.7605308e-39
-0.053851429 -0.068967618 0.99200004 5.1932051e-39
-0.051961906 -0.068967618 0.99200004 5.3779397e-39
-0.050072383 -0.068967618 0.99200004 1.2016025e-38
-0.04818286 -0.068967618 0.99200004 1.8076107e-38
-0.046293333 -0.068967618 0.99200004 1.7707324e-38
-0.04440381 -0.068967618 0.99200004 1.3559254e-38
-0.042642858 -0.06917619 0.99500006 9.4104507e-39
-0.040747624 -0.06917619 0.99500006 9.966116e-39
-0.038969524 -0.069384769 0.99800003 1.0980268e-38
-0.037068572 -0.069384769 0.99800003 1.1066722e-38
-0.03516762 -0.069384769 0.99800003 1.0236962e-38
-0.033266667 -0.069384769 0.99800003 1.1804265e-38
-0.031460002 -0.06959334 1.001 1.6690633e-38
-0.029553335 -0.06959334 1.001 1.7149822e-38
-0.027812384 -0.070010483 1.0070001 1.7795191e-38
-0.025971429 -0.07021904 1.01 1.6691006e-38
-0.024119047 -0.070427619 1.013 1.364855e-38
-0.022189524 -0.070427619 1.013 1.2086615e-38
-0.02032 -0.07063619 1.016 9.4129422e-39
-0.018384762 -0.07063619 1.016 9.9635123e-39
-0.016498096 -0.070844762 1.0190001 1.3927924e-38
-0.014557144 -0.070844762 1.0190001 1.576326e-38
-0.1022 -0.069106668 1.0220001 1.7146572e-38
-0.099959053 -0.068903819 1.0190001 1.6226769e-38
-0.098018102 -0.068903819 1.0190001 9.7730745e-39
-0.095794283 -0.068700954 1.016 8.1152992e-39
-0.093581907 -0.068498097 1.013 1.1710929e-38
-0.091652378 -0.068498097 1.013 1.3828603e-38
-0.089457139 -0.068295233 1.01 1.5303733e-38
-0.087273337 -0.068092391 1.0070001 1.3468468e-38
-0.085355245 -0.068092391 1.0070001 1.1993338e-38
-0.083188578 -0.067889526 1.0040001 9.9715432e-39
-0.081033342 -0.06768667 1.001 1.0340326e-38
-0.079126664 -0.06768667 1.001 9.1478712e-39
-0.07722 -0.06768667 1.001 9.6088493e-39
-0.075087622 -0.067483813 0.99800003 1.0619424e-38
-0.073186666 -0.067483813 0.99800003 1.4215053e-38
-0.07128571 -0.067483813 0.99800003 1.6970463e-38
-0.069384769 -0.067483813 0.99800003 1.7800224e-38
-0.067483813 -0.067483813 0.99800003 1.4212552e-38
-0.065385722 -0.067280956 0.99500006 7.482271e-39
-0.063490473 -0.067280956 0.99500006 2.2551867e-39
-0.061595239 -0.067280956 0.99500006 4.1912949e-39
-0.059700005 -0.067280956 0.99500006 6.5768458e-39
-0.057804763 -0.067280956 0.99500006 6.6690414e-39
-0.055909529 -0.067280956 0.99500006 5.5655806e-39
-0.054014288 -0.067280956 0.99500006 3.8138636e-39
-0.05211905 -0.067280956 0.99500006 6.3884889e-39
-0.050223812 -0.067280956 0.99500006 1.4317313e-38
-0.048328575 -0.067280956 0.99500006 1.9273568e-38
-0.046433337 -0.067280956 0.99500006 1.9273568e-38
-0.044538099 -0.067280956 0.99500006 1.5589366e-38
-0.042642858 -0.067280956 0.99500006 1.107178e-38
-0.040870477 -0.067483813 0.99800003 9.5969901e-39
-0.038969524 -0.067483813 0.99800003 1.0057968e-38
-0.037068572 -0.067483813 0.99800003 1.0240141e-38
-0.03516762 -0.067483813 0.99800003 1.153088e-38
-0.033266667 -0.067483813 0.99800003 1.3644994e-38
-0.031460002 -0.06768667 1.001 1.7240623e-38
-0.029553335 -0.06768667 1.001 1.6782832e-38
-0.027812384 -0.068092391 1.0070001 1.6414049e-38
-0.025971429 -0.068295233 1.01 1.6691362e-38
-0.024119047 -0.068498097 1.013 1.6045993e-38
-0.022255238 -0.068700954 1.016 1.4385778e-38
-0.02032 -0.068700954 1.016 8.2086705e-39
-0.018439047 -0.068903819 1.0190001 9.309106e-39
-0.016498096 -0.068903819 1.0190001 1.5947172e-38
-0.014557144 -0.068903819 1.0190001 1.5762907e-38
-0.1022 -0.067160003 1.0220001 1.6685582e-38
-0.099959053 -0.066962861 1.0190001 1.6226408e-38
-0.098018102 -0.066962861 1.0190001 1.2630779e-38
-0.095794283 -0.066765718 1.016 1.060393e-38
-0.093581907 -0.066568576 1.013 1.3185407e-38
-0.091652378 -0.066568576 1.013 1.0976322e-38
-0.089457139 -0.066371433 1.01 8.948018e-39
-0.087533325 -0.066371433 1.01 9.9654223e-39
-0.085355245 -0.066174291 1.0070001 1.5036182e-38
-0.083188578 -0.065977141 1.0040001 1.3839046e-38
-0.081276193 -0.065977141 1.0040001 1.1349764e-38
-0.079126664 -0.065779999 1.001 9.7903763e-39
-0.07722 -0.065779999 1.001 1.1357702e-38
-0.075087622 -0.065582857 0.99800003 1.4758869e-38
-0.073186666 -0.065582857 0.99800003 1.7801325e-38
-0.07128571 -0.065582857 0.99800003 1.8626372e-38
-0.069384769 -0.065582857 0.99800003 1.9732719e-38
-0.067483813 -0.065582857 0.99800003 1.7985e-38
-0.065582857 -0.065582857 0.99800003 1.5403523e-38
-0.063490473 -0.065385722 0.99500006 9.0611112e-39
-0.061595239 -0.065385722 0.99500006 5.5576772e-39
-0.059700005 -0.065385722 0.99500006 1.9807648e-39
-0.057804763 -0.065385722 0.99500006 3.179308e-39
-0.056078095 -0.065582857 0.99800003 6.7590637e-39
-0.054177143 -0.065582857 0.99800003 1.0170302e-38
-0.052276194 -0.065582857 0.99800003 1.6234703e-38
-0.050375238 -0.065582857 0.99800003 1.9645941e-38
-0.048328575 -0.065385722 0.99500006 2.0561771e-38
-0.046433337 -0.065385722 0.99500006 2.0746162e-38
-0.044538099 -0.065385722 0.99500006 1.991535e-38
-0.042771429 -0.065582857 0.99800003 1.7794851e-38
-0.040870477 -0.065582857 0.99800003 1.3742576e-38
-0.038969524 -0.065582857 0.99800003 9.3171858e-39
-0.037068572 -0.065582857 0.99800003 1.0333078e-38
-0.03516762 -0.065582857 0.99800003 1.6049207e-38
-0.033266667 -0.065582857 0.99800003 1.7518264e-38
-0.031554289 -0.065977141 1.0040001 1.5674351e-38
-0.029641908 -0.065977141 1.0040001 9.7839303e-39
-0.027812384 -0.066174291 1.0070001 8.3088003e-39
-0.025971429 -0.066371433 1.01 1.2270278e-38
-0.024119047 -0.066568576 1.013 1.6142494e-38
-0.022255238 -0.066765718 1.016 1.5674339e-38
-0.02032 -0.066765718 1.016 7.6533191e-39
-0.018439047 -0.066962861 1.0190001 7.5625276e-39
-0.016498096 -0.066962861 1.0190001 1.4569395e-38
-0.012616191 -0.066962861 1.0190001 1.5209733e-38
-0.1022 -0.065213338 1.0220001 1.6593749e-38
-0.10025334 -0.065213338 1.0220001 1.6042017e-38
-0.098306671 -0.065213338 1.0220001 1.2722975e-38
-0.096077144 -0.06502191 1.0190001 1.1064166e-38
-0.093859047 -0.064830475 1.016 1.2354905e-38
-0.091923811 -0.064830475 1.016 9.5065671e-39
-0.089988574 -0.064830475 1.016 5.542155e-39
-0.087533325 -0.064447619 1.01 8.3097966e-39
-0.085355245 -0.064256199 1.0070001 1.4486904e-38
-0.083437152 -0.064256199 1.0070001 1.5126917e-38
-0.081276193 -0.064064763 1.0040001 1.190007e-38
-0.079126664 -0.063873336 1.001 1.061689e-38
-0.07722 -0.063873336 1.001 1.3106172e-38
-0.075313337 -0.063873336 1.001 1.7609375e-38
-0.073406667 -0.063873336 1.001 1.834694e-38
-0.07128571 -0.063681908 0.99800003 1.7702618e-38
-0.069384769 -0.063681908 0.99800003 1.9177748e-38
-0.067483813 -0.063681908 0.99800003 1.9089165e-38
-0.065582857 -0.063681908 0.99800003 1.8259404e-38
-0.063681908 -0.063681908 0.99800003 1.4213271e-38
-0.061780956 -0.063681908 0.99800003 8.4971418e-39
-0.059700005 -0.063490473 0.99500006 1.7030779e-39
-0.057804763 -0.063490473 0.99500006 1.7030779e-39
-0.056078095 -0.063681908 0.99800003 7.8600162e-39
-0.054177143 -0.063681908 0.99800003 1.3852732e-38
-0.052276194 -0.063681908 0.99800003 1.9271057e-38
-0.050375238 -0.063681908 0.99800003 1.963984e-38
-0.048474289 -0.063681908 0.99800003 1.9086646e-38
-0.046573333 -0.063681908 0.99800003 1.9824211e-38
-0.044672381 -0.063681908 0.99800003 2.0561423e-38
-0.042771429 -0.063681908 0.99800003 1.9639467e-38
-0.040993337 -0.063873336 1.001 1.7612262e-38
-0.039086666 -0.063873336 1.001 1.2541502e-38
-0.037180003 -0.063873336 1.001 1.1804991e-38
-0.035273336 -0.063873336 1.001 1.8074294e-38
-0.033366665 -0.063873336 1.001 1.8534568e-38
-0.031554289 -0.064064763 1.0040001 1.217307e-38
-0.029641908 -0.064064763 1.0040001 7.6705705e-39
-0.027895236 -0.064447619 1.01 5.2734841e-39
-0.025971429 -0.064447619 1.01 9.2335451e-39
-0.024119047 -0.064639047 1.013 1.4488696e-38
-0.022255238 -0.064830475 1.016 1.6041333e-38
-0.02032 -0.064830475 1.016 7.7437267e-39
-0.018439047 -0.06502191 1.0190001 7.8383619e-39
-0.016498096 -0.06502191 1.0190001 1.5214012e-38
-0.1022 -0.063266672 1.0220001 1.6408273e-38
-0.10025334 -0.063266672 1.0220001 1.5673232e-38
-0.098018102 -0.063080952 1.0190001 1.2630776e-38
-0.096077144 -0.063080952 1.0190001 1.0420993e-38
-0.093859047 -0.062895238 1.016 1.005221e-38
-0.091923811 -0.062895238 1.016 4.4433955e-39
-0.089988574 -0.062895238 1.016 2.6916786e-39
-0.087533325 -0.062523812 1.01 2.9725744e-39
-0.085609525 -0.062523812 1.01 8.9652904e-39
-0.083685718 -0.062523812 1.01 1.3649645e-38
-0.081519052 -0.062338103 1.0070001 1.5677949e-38
-0.079363815 -0.062152382 1.0040001 1.6324359e-38
-0.07722 -0.061966669 1.001 1.7799489e-38
-0.075313337 -0.061966669 1.001 1.7702655e-38
-0.073406667 -0.061966669 1.001 1.4936786e-38
-0.071500003 -0.061966669 1.001 1.2634026e-38
-0.06959334 -0.061966669 1.001 1.2265243e-38
-0.067483813 -0.061780956 0.99800003 1.5767939e-38
-0.065582857 -0.061780956 0.99800003 2.0654307e-38
-0.063681908 -0.061780956 0.99800003 1.9825325e-38
-0.061780956 -0.061780956 0.99800003 1.7889217e-38
-0.05988 -0.061780956 0.99800003 1.3293437e-38
-0.057979047 -0.061780956 0.99800003 1.1172938e-38
-0.056078095 -0.061780956 0.99800003 1.4577369e-38
-0.054177143 -0.061780956 0.99800003 1.9555933e-38
-0.052276194 -0.061780956 0.99800003 1.9640919e-38
-0.050375238 -0.061780956 0.99800003 1.6967246e-38
-0.048474289 -0.061780956 0.99800003 1.457627e-38
-0.046573333 -0.061780956 0.99800003 1.4484075e-38
-0.044672381 -0.061780956 0.99800003 1.6784987e-38
-0.042771429 -0.061780956 0.99800003 1.945866e-38
-0.040993337 -0.061966669 1.001 1.9823152e-38
-0.039086666 -0.061966669 1.001 1.8624609e-38
-0.037180003 -0.061966669 1.001 1.8072511e-38
-0.035273336 -0.061966669 1.001 1.8256903e-38
-0.033366665 -0.061966669 1.001 1.5589668e-38
-0.031554289 -0.062152382 1.0040001 8.674996e-39
-0.029641908 -0.062152382 1.0040001 2.3398125e-39
-0.027895236 -0.062523812 1.01 1.7866387e-39
-0.026048571 -0.062709525 1.013 7.5747749e-39
-0.024119047 -0.062709525 1.013 1.1815774e-38
-0.022255238 -0.062895238 1.016 1.3555256e-38
-0.02032 -0.062895238 1.016 5.8108232e-39
-0.018439047 -0.063080952 1.0190001 7.7473042e-39
-0.016498096 -0.063080952 1.0190001 1.4569781e-38
-0.014557144 -0.063080952 1.0190001 1.5762544e-38
-0.1019 -0.061140005 1.0190001 1.631608e-38
-0.099959053 -0.061140005 1.0190001 1.5397008e-38
-0.098018102 -0.061140005 1.0190001 1.281553e-38
-0.096077144 -0.061140005 1.0190001 1.0884119e-38
-0.093859047 -0.060960002 1.016 8.8558153e-39
-0.091923811 -0.060960002 1.016 3.432105e-39
-0.089722857 -0.06078 1.013 2.7867356e-39
-0.087793328 -0.06078 1.013 2.6080673e-39
-0.085609525 -0.060600001 1.01 5.4661318e-39
-0.083685718 -0.060600001 1.01 1.1532698e-38
-0.081519052 -0.060420007 1.0070001 1.5773697e-38
-0.079363815 -0.06024 1.0040001 1.8254382e-38
-0.07745143 -0.06024 1.0040001 1.8162186e-38
-0.075539045 -0.06024 1.0040001 1.7333497e-38
-0.073406667 -0.060060002 1.001 1.2539325e-38
-0.071500003 -0.060060002 1.001 1.0147971e-38
-0.06959334 -0.060060002 1.001 9.871384e-39
-0.067483813 -0.05988 0.99800003 1.4011866e-38
-0.065582857 -0.05988 0.99800003 1.8806039e-38
-0.063681908 -0.05988 0.99800003 2.0834765e-38
-0.061780956 -0.05988 0.99800003 2.0005004e-38
-0.05988 -0.05988 0.99800003 1.7615126e-38
-0.057979047 -0.05988 0.99800003 1.7154148e-38
-0.056078095 -0.05988 0.99800003 1.8259426e-38
-0.054177143 -0.05988 0.99800003 1.9734556e-38
-0.052276194 -0.05988 0.99800003 1.8445257e-38
-0.050375238 -0.05988 0.99800003 1.457304e-38
-0.048474289 -0.05988 0.99800003 1.2095273e-38
-0.046573333 -0.05988 0.99800003 1.2003077e-38
-0.044672381 -0.05988 0.99800003 1.3933409e-38
-0.0429 -0.060060002 1.001 1.5961713e-38
-0.040993337 -0.060060002 1.001 1.9823495e-38
-0.039086666 -0.060060002 1.001 2.0929843e-38
-0.037180003 -0.060060002 1.001 2.0468521e-38
-0.035273336 -0.060060002 1.001 1.5489957e-38
-0.033366665 -0.060060002 1.001 1.1169335e-38
-0.031554289 -0.06024 1.0040001 6.4673582e-39
-0.029730478 -0.060420007 1.0070001 2.8922604e-39
-0.027978096 -0.06078 1.013 2.7078692e-39
-0.026048571 -0.06078 1.013 5.7376894e-39
-0.024190478 -0.060960002 1.016 1.016308e-38
-0.022255238 -0.060960002 1.016 1.1714628e-38
-0.020380002 -0.061140005 1.0190001 6.5516729e-39
-0.018439047 -0.061140005 1.0190001 8.4848076e-39
-0.016498096 -0.061140005 1.0190001 1.5030697e-38
-0.014557144 -0.061140005 1.0190001 1.5854736e-38
-0.099959053 -0.05919905 1.0190001 1.5581039e-38
-0.098018102 -0.05919905 1.0190001 1.4013713e-38
-0.095794283 -0.059024762 1.016 1.1068517e-38
-0.093859047 -0.059024762 1.016 9.0402136e-39
-0.091652378 -0.058850475 1.013 4.6277994e-39
-0.089722857 -0.058850475 1.013 4.0746256e-39
-0.087793328 -0.058850475 1.013 3.0687329e-39
-0.085609525 -0.058676191 1.01 2.6077548e-39
-0.083685718 -0.058676191 1.01 5.5472221e-39
-0.081519052 -0.05850191 1.0070001 1.3568242e-38
-0.07960096 -0.05850191 1.0070001 1.7518239e-38
-0.07745143 -0.058327623 1.0040001 1.4383587e-38
-0.075539045 -0.058327623 1.0040001 1.0053302e-38
-0.073626675 -0.058327623 1.0040001 9.6845194e-39
-0.071500003 -0.058153339 1.001 1.0238409e-38
-0.06959334 -0.058153339 1.001 1.0791583e-38
-0.06768667 -0.058153339 1.001 1.1618053e-38
-0.065779999 -0.058153339 1.001 1.2263423e-38
-0.063681908 -0.057979047 0.99800003 1.5212251e-38
-0.061780956 -0.057979047 0.99800003 2.0283011e-38
-0.05988 -0.057979047 0.99800003 2.056107e-38
-0.057979047 -0.057979047 0.99800003 2.1298635e-38
-0.056078095 -0.057979047 0.99800003 1.9181022e-38
-0.054177143 -0.057979047 0.99800003 1.6876132e-38
-0.052276194 -0.057979047 0.99800003 1.3935229e-38
-0.050375238 -0.057979047 0.99800003 1.3474251e-38
-0.048474289 -0.057979047 0.99800003 1.2741015e-38
-0.046573333 -0.057979047 0.99800003 1.2741015e-38
-0.044806667 -0.058153339 1.001 1.3291302e-38
-0.0429 -0.058153339 1.001 1.2738128e-38
-0.040993337 -0.058153339 1.001 1.6784611e-38
-0.039086666 -0.058153339 1.001 2.0288045e-38
-0.037180003 -0.058153339 1.001 1.9456875e-38
-0.035273336 -0.058153339 1.001 1.1435855e-38
-0.033466671 -0.058327623 1.0040001 2.891215e-39
-0.031648573 -0.05850191 1.0070001 3.2599976e-39
-0.029730478 -0.05850191 1.0070001 3.720233e-39
-0.027978096 -0.058850475 1.013 2.7982767e-39
-0.026048571 -0.058850475 1.013 7.8513716e-39
-0.024190478 -0.059024762 1.016 1.3014327e-38
-0.022320952 -0.05919905 1.0190001 1.4387528e-38
-0.020380002 -0.05919905 1.0190001 7.0118775e-39
-0.018493334 -0.059373334 1.0220001 9.0387562e-39
-0.016546667 -0.059373334 1.0220001 1.4754885e-38
-0.0146 -0.059373334 1.0220001 1.5855092e-38
-0.099664763 -0.057089522 1.016 1.5672513e-38
-0.095794283 -0.057089522 1.016 1.1714243e-38
-0.093859047 -0.057089522 1.016 9.6859389e-39
-0.091652378 -0.056920953 1.013 7.0208977e-39
-0.089722857 -0.056920953 1.013 5.3613763e-39
-0.087793328 -0.056920953 1.013 2.2418435e-39
-0.085609525 -0.05675238 1.01 1.6886697e-39
-0.083685718 -0.05675238 1.01 1.873749e-39
-0.081761904 -0.05675238 1.01 1.072453e-38
-0.07960096 -0.056583814 1.0070001 1.6874712e-38
-0.077682868 -0.056583814 1.0070001 1.2264931e-38
-0.075539045 -0.056415241 1.0040001 1.0051456e-38
-0.073626675 -0.056415241 1.0040001 1.0881217e-38
-0.071500003 -0.056246668 1.001 1.1434406e-38
-0.06959334 -0.056246668 1.001 1.2171971e-38
-0.06768667 -0.056246668 1.001 1.143583e-38
-0.065779999 -0.056246668 1.001 1.0052896e-38
-0.063681908 -0.056078095 0.99800003 1.1803134e-38
-0.061780956 -0.056078095 0.99800003 1.8810002e-38
-0.05988 -0.056078095 0.99800003 2.0744367e-38
-0.057979047 -0.056078095 0.99800003 2.1020954e-38
-0.056078095 -0.056078095 0.99800003 1.872077e-38
-0.054177143 -0.056078095 0.99800003 1.4571967e-38
-0.052276194 -0.056078095 0.99800003 1.2647728e-38
-0.050375238 -0.056078095 0.99800003 1.3385293e-38
-0.048474289 -0.056078095 0.99800003 1.3016876e-38
-0.046713337 -0.056246668 1.001 1.3109071e-38
-0.044806667 -0.056246668 1.001 1.2741365e-38
-0.0429 -0.056246668 1.001 1.1542822e-38
-0.040993337 -0.056246668 1.001 1.3565333e-38
-0.039203811 -0.056415241 1.0040001 1.8451701e-38
-0.03729143 -0.056415241 1.0040001 1.8262663e-38
-0.035379048 -0.056415241 1.0040001 9.1352959e-39
-0.033566669 -0.056583814 1.0070001 1.5140049e-39
-0.031648573 -0.056583814 1.0070001 2.5281568e-39
-0.029819047 -0.05675238 1.01 3.3532231e-39
-0.027978096 -0.056920953 1.013 2.4312668e-39
-0.026048571 -0.056920953 1.013 8.3112707e-39
-0.024190478 -0.057089522 1.016 1.3750813e-38
-0.022320952 -0.057258096 1.0190001 1.5215513e-38
-0.020440001 -0.057426669 1.0220001 9.8681666e-39
-0.018493334 -0.057426669 1.0220001 1.0696087e-38
-0.016595239 -0.057595242 1.0250001 1.5029282e-38
-0.014642859 -0.057595242 1.0250001 1.5579216e-38
-0.093859047 -0.055154286 1.016 1.1802826e-38
-0.091652378 -0.054991428 1.013 7.112743e-39
-0.089722857 -0.054991428 1.013 4.8078522e-39
-0.087793328 -0.054991428 1.013 2.2418463e-39
-0.085609525 -0.054828569 1.01 1.8730638e-39
-0.083685718 -0.054828569 1.01 1.5053575e-39
-0.081761904 -0.054828569 1.01 9.8029642e-39
-0.07960096 -0.054665718 1.0070001 1.6232529e-38
-0.077682868 -0.054665718 1.0070001 1.1346161e-38
-0.075764768 -0.054665718 1.0070001 9.5022637e-39
-0.073626675 -0.05450286 1.0040001 1.042422e-38
-0.071714289 -0.05450286 1.0040001 1.1526602e-38
-0.069801912 -0.05450286 1.0040001 1.2171971e-38
-0.06768667 -0.054340001 1.001 1.1896108e-38
-0.065779999 -0.054340001 1.001 1.1066347e-38
-0.063681908 -0.054177143 0.99800003 1.0515684e-38
-0.061780956 -0.054177143 0.99800003 1.4941074e-38
-0.05988 -0.054177143 0.99800003 1.9271684e-38
-0.057979047 -0.054177143 0.99800003 2.019364e-38
-0.056078095 -0.054177143 0.99800003 1.7983906e-38
-0.054177143 -0.054177143 0.99800003 1.4572667e-38
-0.052276194 -0.054177143 0.99800003 1.246586e-38
-0.050375238 -0.054177143 0.99800003 1.2926838e-38
-0.04862 -0.054340001 1.001 1.3201264e-38
-0.046713337 -0.054340001 1.001 1.3201264e-38
-0.044806667 -0.054340001 1.001 1.2833561e-38
-0.0429 -0.054340001 1.001 1.20038e-38
-0.041116193 -0.05450286 1.0040001 1.4117084e-38
-0.039203811 -0.05450286 1.0040001 1.8450279e-38
-0.03729143 -0.05450286 1.0040001 1.8447032e-38
-0.035379048 -0.05450286 1.0040001 1.0702599e-38
-0.033566669 -0.054665718 1.0070001 1.5136812e-39
-0.031742856 -0.054828569 1.01 1.4214856e-39
-0.029819047 -0.054828569 1.01 2.524917e-39
-0.028060952 -0.055154286 1.016 5.3829816e-39
-0.026125714 -0.055154286 1.016 1.2272067e-38
-0.024261907 -0.055317145 1.0190001 1.4576958e-38
-0.022386668 -0.055480003 1.0220001 1.493963e-38
-0.020440001 -0.055480003 1.0220001 1.2634739e-38
-0.018547621 -0.055642862 1.0250001 1.3093184e-38
-0.016595239 -0.055642862 1.0250001 1.4752705e-38
-0.014642859 -0.055642862 1.0250001 1.5394095e-38
-0.012690477 -0.055642862 1.0250001 1.5301899e-38
-0.091652378 -0.053061903 1.013 9.1348853e-39
-0.089722857 -0.053061903 1.013 6.8299946e-39
-0.087793328 -0.053061903 1.013 2.792481e-39
-0.085863806 -0.053061903 1.013 2.1471115e-39
-0.083934292 -0.053061903 1.013 1.7812311e-39
-0.081761904 -0.052904762 1.01 1.0632012e-38
-0.079838097 -0.052904762 1.01 1.5864495e-38
-0.077914283 -0.052904762 1.01 1.2914235e-38
-0.075764768 -0.052747626 1.0070001 9.7792332e-39
-0.073626675 -0.052590482 1.0040001 9.8714288e-39
-0.071714289 -0.052590482 1.0040001 1.0882312e-38
-0.069801912 -0.052590482 1.0040001 1.1896463e-38
-0.06768667 -0.052433338 1.001 1.1896463e-38
-0.065779999 -0.052433338 1.001 1.1158898e-38
-0.063873336 -0.052433338 1.001 9.5047721e-39
-0.061966669 -0.052433338 1.001 1.4852119e-38
-0.060060002 -0.052433338 1.001 1.6509119e-38
-0.058153339 -0.052433338 1.001 1.8906205e-38
-0.056078095 -0.052276194 0.99800003 1.6697861e-38
-0.054177143 -0.052276194 0.99800003 1.3747601e-38
-0.052276194 -0.052276194 0.99800003 1.264917e-38
-0.050526667 -0.052433338 1.001 1.3110148e-38
-0.04862 -0.052433338 1.001 1.329346e-38
-0.046713337 -0.052433338 1.001 1.3109069e-38
-0.044806667 -0.052433338 1.001 1.2465134e-38
-0.0429 -0.052433338 1.001 1.2280743e-38
-0.041116193 -0.052590482 1.0040001 1.485251e-38
-0.039203811 -0.052590482 1.0040001 1.8263748e-38
-0.037402861 -0.052747626 1.0070001 1.8814373e-38
-0.035484765 -0.052747626 1.0070001 1.4757765e-38
-0.033566669 -0.052747626 1.0070001 6.6655032e-39
-0.031742856 -0.052904762 1.01 2.5166998e-39
-0.029819047 -0.052904762 1.01 1.8795028e-39
-0.028060952 -0.053219046 1.016 7.3190449e-39
-0.026125714 -0.053219046 1.016 1.4020585e-38
-0.024333334 -0.053533334 1.0220001 1.3375216e-38
-0.022386668 -0.053533334 1.0220001 1.4016234e-38
-0.020500001 -0.053690478 1.0250001 1.3186474e-38
-0.018547621 -0.053690478 1.0250001 1.3737114e-38
-0.016595239 -0.053690478 1.0250001 1.465907e-38
-0.014642859 -0.053690478 1.0250001 1.5025315e-38
-0.012690477 -0.053690478 1.0250001 1.5025315e-38
-0.091923811 -0.051283814 1.016 6.2775999e-39
-0.089722857 -0.051132381 1.013 1.0334208e-38
-0.087793328 -0.051132381 1.013 8.7732957e-39
-0.085863806 -0.051132381 1.013 7.5747525e-39
-0.083934292 -0.051132381 1.013 9.0456576e-39
-0.082004763 -0.051132381 1.013 1.531496e-38
-0.079838097 -0.050980952 1.01 1.7059066e-38
-0.077914283 -0.050980952 1.01 1.6782479e-38
-0.075764768 -0.05082953 1.0070001 1.410884e-38
-0.073846675 -0.05082953 1.0070001 1.0513211e-38
-0.071928583 -0.05082953 1.0070001 1.0146539e-38
-0.070010483 -0.05082953 1.0070001 1.0699713e-38
-0.067889526 -0.050678097 1.0040001 1.1065624e-38
-0.065779999 -0.050526667 1.001 1.0696841e-38
-0.063873336 -0.050526667 1.001 1.1619874e-38
-0.061966669 -0.050526667 1.001 1.8165763e-38
-0.060060002 -0.050526667 1.001 2.0192981e-38
-0.058153339 -0.050526667 1.001 2.1114938e-38
-0.056246668 -0.050526667 1.001 1.9182449e-38
-0.054340001 -0.050526667 1.001 1.6139993e-38
-0.052433338 -0.050526667 1.001 1.2833566e-38
-0.050526667 -0.050526667 1.001 1.2741371e-38
-0.04862 -0.050526667 1.001 1.246586e-38
-0.046713337 -0.050526667 1.001 1.2281469e-38
-0.044806667 -0.050526667 1.001 1.3383488e-38
-0.0429 -0.050526667 1.001 1.5411792e-38
-0.041116193 -0.050678097 1.0040001 1.7798801e-38
-0.039203811 -0.050678097 1.0040001 1.8167584e-38
-0.037402861 -0.05082953 1.0070001 1.8535262e-38
-0.035484765 -0.05082953 1.0070001 1.9457218e-38
-0.033566669 -0.05082953 1.0070001 1.5773772e-38
-0.031742856 -0.050980952 1.01 1.0242034e-38
-0.029819047 -0.050980952 1.01 9.5126726e-39
-0.027978096 -0.051132381 1.013 1.3845867e-38
-0.026125714 -0.051283814 1.016 1.5219116e-38
-0.024333334 -0.051586669 1.0220001 1.1623486e-38
-0.022386668 -0.051586669 1.0220001 9.9654195e-39
-0.020500001 -0.051738098 1.0250001 1.0149811e-38
-0.018547621 -0.051738098 1.0250001 1.3000277e-38
-0.016595239 -0.051738098 1.0250001 1.4383212e-38
-0.014642859 -0.051738098 1.0250001 1.5025315e-38
-0.012690477 -0.051738098 1.0250001 1.4933119e-38
-0.091923811 -0.049348574 1.016 6.367866e-39
-0.089988574 -0.049348574 1.016 1.1715212e-38
-0.088053331 -0.049348574 1.016 1.0518205e-38
-0.086118095 -0.049348574 1.016 1.1624553e-38
-0.083934292 -0.049202859 1.013 1.4477954e-38
-0.082004763 -0.049202859 1.013 1.6506258e-38
-0.080075242 -0.049202859 1.013 1.6781014e-38
