# .PCD v0.7 - Point Cloud Data file format
VERSION 0.7
FIELDS x y z rgb
SIZE 4 4 4 4
TYPE F F F F
COUNT 1 1 1 1
WIDTH 961
HEIGHT 1
VIEWPOINT 0 0 0 1 0 0 0
POINTS 961
DATA ascii
-0.02812 0.043320004 0.79800004 1.4849247e-38
-0.026600001 0.043320004 0.79800004 1.5492469e-38
-0.025080001 0.043320004 0.79800004 1.5492469e-38
-0.023560001 0.043320004 0.79800004 1.5031497e-38
-0.02204 0.043320004 0.79800004 1.5123693e-38
-0.020520002 0.043320004 0.79800004 1.4662702e-38
-0.019000001 0.043320004 0.79800004 1.2726594e-38
-0.017523808 0.043428574 0.80000001 1.3928332e-38
-0.016000001 0.043428574 0.80000001 2.2591493e-38
-0.01447619 0.043428574 0.80000001 2.3142182e-38
-0.012952381 0.043428574 0.80000001 2.1021683e-38
-0.011457143 0.043537147 0.80200005 1.5597991e-38
-0.0099295247 0.043537147 0.80200005 1.4952621e-38
-0.0084019052 0.043537147 0.80200005 1.4218669e-38
-0.0068742861 0.043537147 0.80200005 1.4495256e-38
-0.0053533334 0.043591432 0.80300003 1.4219022e-38
-0.0038238098 0.043591432 0.80300003 1.4034631e-38
-0.0022942859 0.043591432 0.80300003 1.6789716e-38
-0.00076857145 0.043808572 0.80700004 1.9463384e-38
0.00076857145 0.043808572 0.80700004 2.1761759e-38
0.0023114285 0.043917142 0.80900002 2.0839802e-38
0.0038523809 0.043917142 0.80900002 1.5043058e-38
0.0054333336 0.044242859 0.81500006 1.0525472e-38
0.007002857 0.044351429 0.81700003 9.6103319e-39
0.0085590482 0.044351429 0.81700003 1.0993266e-38
0.010140001 0.044460002 0.81900007 1.4108067e-38
0.011700001 0.044460002 0.81900007 1.4384654e-38
0.013260001 0.044460002 0.81900007 1.4934951e-38
0.014820001 0.044460002 0.81900007 1.5303733e-38
-0.066947617 0.046469525 0.82700002 1.3918628e-38
-0.065372378 0.046469525 0.82700002 1.37346e-38
-0.063488573 0.046244759 0.82300001 1.3550209e-38
-0.061620004 0.046020001 0.81900007 1.2264507e-38
-0.059913337 0.04590762 0.81700003 1.3094268e-38
-0.058357142 0.04590762 0.81700003 1.2361767e-38
-0.056661908 0.04579524 0.81500006 1.3652506e-38
-0.054974288 0.045682859 0.81300002 1.5032242e-38
-0.05329429 0.045570478 0.81100005 1.9088849e-38
-0.051749524 0.045570478 0.81100005 1.8904796e-38
-0.049957145 0.045345716 0.80700004 1.6138927e-38
-0.048300002 0.045233335 0.80500007 9.2433528e-39
-0.046766669 0.045233335 0.80500007 6.5696796e-39
-0.045233335 0.045233335 0.80500007 5.2000561e-39
-0.043591432 0.045120955 0.80300003 6.4907949e-39
-0.042061906 0.045120955 0.80300003 6.8570452e-39
-0.04048191 0.045064762 0.80200005 6.2116758e-39
-0.038954284 0.045064762 0.80200005 5.4755527e-39
-0.037333332 0.044952381 0.80000001 9.5321604e-39
-0.035809524 0.044952381 0.80000001 1.9825285e-38
-0.034199998 0.044840001 0.79800004 2.2130176e-38
-0.032680001 0.044840001 0.79800004 2.0375585e-38
-0.031160003 0.044840001 0.79800004 1.3645304e-38
-0.029640002 0.044840001 0.79800004 1.3558153e-38
-0.02812 0.044840001 0.79800004 1.5033283e-38
-0.026600001 0.044840001 0.79800004 1.5583945e-38
-0.025080001 0.044840001 0.79800004 1.5583945e-38
-0.023560001 0.044840001 0.79800004 1.5583945e-38
-0.02204 0.044840001 0.79800004 1.549175e-38
-0.020571429 0.044952381 0.80000001 1.4755983e-38
-0.019047618 0.044952381 0.80000001 1.2635483e-38
-0.017523808 0.044952381 0.80000001 1.3191162e-38
-0.016000001 0.044952381 0.80000001 2.2224182e-38
-0.014512382 0.045064762 0.80200005 2.3142182e-38
-0.012984763 0.045064762 0.80200005 2.0837291e-38
-0.011457143 0.045064762 0.80200005 1.5322142e-38
-0.0099295247 0.045064762 0.80200005 1.430799e-38
-0.0084019052 0.045064762 0.80200005 1.3851331e-38
-0.0068828571 0.045120955 0.80300003 1.3851331e-38
-0.0053533334 0.045120955 0.80300003 1.5963536e-38
-0.0038238098 0.045120955 0.80300003 1.7899644e-38
-0.0022942859 0.045120955 0.80300003 2.0102626e-38
-0.00076857145 0.045345716 0.80700004 1.8627496e-38
0.00077047618 0.045458097 0.80900002 1.9825964e-38
0.0023114285 0.045458097 0.80900002 2.1485486e-38
0.0038619051 0.045570478 0.81100005 2.0839099e-38
0.0054199998 0.045682859 0.81300002 1.8349817e-38
0.007002857 0.04590762 0.81700003 1.5405671e-38
0.0085590482 0.04590762 0.81700003 1.2639802e-38
0.010140001 0.046020001 0.81900007 1.3280484e-38
0.011700001 0.046020001 0.81900007 1.4018049e-38
0.013260001 0.046020001 0.81900007 1.4934954e-38
-0.065372378 0.048044764 0.82700002 1.3826072e-38
-0.063797139 0.048044764 0.82700002 1.3549486e-38
-0.061620004 0.047580004 0.81900007 1.1710252e-38
-0.059913337 0.047463812 0.81700003 1.1802448e-38
-0.058357142 0.047463812 0.81700003 1.3188644e-38
-0.056661908 0.047347624 0.81500006 1.6415491e-38
-0.055109527 0.047347624 0.81500006 1.6783946e-38
-0.053425714 0.047231432 0.81300002 1.8259076e-38
-0.051749524 0.04711524 0.81100005 1.853741e-38
-0.049957145 0.046882857 0.80700004 1.8629606e-38
-0.048300002 0.046766669 0.80500007 1.237336e-38
-0.046766669 0.046766669 0.80500007 7.5791876e-39
-0.045233335 0.046766669 0.80500007 3.2693456e-39
-0.043591432 0.046650477 0.80300003 4.928867e-39
-0.042061906 0.046650477 0.80300003 6.5800926e-39
-0.04048191 0.046592385 0.80200005 5.5659407e-39
-0.038954284 0.046592385 0.80200005 2.717611e-39
-0.037426669 0.046592385 0.80200005 9.1713051e-39
-0.035899047 0.046592385 0.80200005 1.8996981e-38
-0.034285713 0.046476189 0.80000001 2.1855046e-38
-0.032761905 0.046476189 0.80000001 2.0100095e-38
-0.031238094 0.046476189 0.80000001 1.3646401e-38
-0.029640002 0.046360001 0.79800004 1.3464162e-38
-0.02812 0.046360001 0.79800004 1.5215879e-38
-0.026666667 0.046476189 0.80000001 1.5583945e-38
-0.025142856 0.046476189 0.80000001 1.5583945e-38
-0.023619048 0.046476189 0.80000001 1.5676141e-38
-0.022095239 0.046476189 0.80000001 1.5399554e-38
-0.020571429 0.046476189 0.80000001 1.4018778e-38
-0.019047618 0.046476189 0.80000001 1.3281213e-38
-0.01756762 0.046592385 0.80200005 1.4112065e-38
-0.016040001 0.046592385 0.80200005 2.2224189e-38
-0.014512382 0.046592385 0.80200005 2.3142182e-38
-0.012984763 0.046592385 0.80200005 2.2404617e-38
-0.011471429 0.046650477 0.80300003 1.6611097e-38
-0.0099419048 0.046650477 0.80300003 1.4490598e-38
-0.0084123807 0.046650477 0.80300003 1.3666571e-38
-0.0068828571 0.046650477 0.80300003 1.3574375e-38
-0.0053533334 0.046650477 0.80300003 1.6698224e-38
-0.0038333337 0.046766669 0.80500007 2.0201655e-38
-0.0023000001 0.046766669 0.80500007 2.1577027e-38
-0.00076857145 0.046882857 0.80700004 1.622968e-38
0.00077047618 0.046999045 0.80900002 1.6779177e-38
0.0023114285 0.046999045 0.80900002 2.009822e-38
0.0038619051 0.04711524 0.81100005 2.2125519e-38
0.0054199998 0.047231432 0.81300002 2.0465998e-38
0.007002857 0.047463812 0.81700003 1.687506e-38
0.0085590482 0.047463812 0.81700003 1.2265278e-38
0.010140001 0.047580004 0.81900007 1.2177366e-38
0.011700001 0.047580004 0.81900007 1.3744692e-38
-0.064740002 0.049140003 0.81900007 1.3642757e-38
-0.063180007 0.049140003 0.81900007 1.3550562e-38
-0.061620004 0.049140003 0.81900007 1.1711697e-38
-0.059913337 0.04902 0.81700003 1.0605349e-38
-0.058357142 0.04902 0.81700003 1.3279395e-38
-0.056800954 0.04902 0.81700003 1.8257959e-38
-0.055109527 0.048900004 0.81500006 1.770228e-38
-0.053425714 0.048780002 0.81300002 1.3645672e-38
-0.051749524 0.048660003 0.81100005 1.4849193e-38
-0.050204765 0.048660003 0.81100005 2.038093e-38
-0.048420005 0.048420005 0.80700004 1.936649e-38
-0.046766669 0.048300002 0.80500007 1.3834752e-38
-0.045233335 0.048300002 0.80500007 5.5652442e-39
-0.043591432 0.048179999 0.80300003 4.2745054e-39
-0.042061906 0.048179999 0.80300003 1.9822095e-39
-0.040532384 0.048179999 0.80300003 1.8900139e-39
-0.038954284 0.048119999 0.80200005 7.5849385e-39
-0.037426669 0.048119999 0.80200005 1.6804459e-38
-0.035899047 0.048119999 0.80200005 2.332621e-38
-0.034371432 0.048119999 0.80200005 2.332621e-38
-0.032761905 0.048 0.80000001 2.3326208e-38
-0.031238094 0.048 0.80000001 1.6872514e-38
-0.029714286 0.048 0.80000001 1.2638406e-38
-0.028190477 0.048 0.80000001 1.3560362e-38
-0.026666667 0.048 0.80000001 1.4479756e-38
-0.025142856 0.048 0.80000001 1.4756343e-38
-0.023619048 0.048 0.80000001 1.5031134e-38
-0.022095239 0.048 0.80000001 1.4293569e-38
-0.020622859 0.048119999 0.80200005 1.4660184e-38
-0.019095238 0.048119999 0.80200005 1.8901183e-38
-0.01756762 0.048119999 0.80200005 2.157379e-38
-0.016040001 0.048119999 0.80200005 2.3325497e-38
-0.014530477 0.048179999 0.80300003 2.3326213e-38
-0.013000953 0.048179999 0.80300003 2.3326213e-38
-0.011471429 0.048179999 0.80300003 2.2407141e-38
-0.0099419048 0.048179999 0.80300003 1.9180294e-38
-0.0084123807 0.048179999 0.80300003 1.4768966e-38
-0.0068828571 0.048179999 0.80300003 1.4123596e-38
-0.0053533334 0.048179999 0.80300003 1.7617669e-38
-0.0038333337 0.048300002 0.80500007 2.1213281e-38
-0.0023000001 0.048300002 0.80500007 2.1483715e-38
-0.00077047618 0.048540004 0.80900002 1.272513e-38
0.00077047618 0.048540004 0.80900002 1.1713502e-38
0.0023171429 0.048660003 0.81100005 1.4848153e-38
0.0038619051 0.048660003 0.81100005 1.7885236e-38
0.0054199998 0.048780002 0.81300002 1.991354e-38
0.0070200008 0.049140003 0.81900007 1.6967596e-38
0.0085800011 0.049140003 0.81900007 1.2542206e-38
0.010140001 0.049140003 0.81900007 1.2821304e-38
0.011700001 0.049140003 0.81900007 1.4019847e-38
-0.063180007 0.050700005 0.81900007 1.3827151e-38
-0.061620004 0.050700005 0.81900007 1.1529824e-38
-0.060060002 0.050700005 0.81900007 9.409324e-39
-0.058357142 0.050576191 0.81700003 1.3002073e-38
-0.056800954 0.050576191 0.81700003 1.8165028e-38
-0.055244766 0.050576191 0.81700003 1.7518249e-38
-0.053557146 0.050452381 0.81500006 1.0972359e-38
-0.051877145 0.050328571 0.81300002 1.2168259e-38
-0.050204765 0.050204765 0.81100005 1.9912692e-38
-0.048660003 0.050204765 0.81100005 2.0931648e-38
-0.046882857 0.049957145 0.80700004 1.7612605e-38
-0.045345716 0.049957145 0.80700004 7.959486e-39
-0.043700002 0.049833339 0.80500007 3.5340957e-39
-0.042061906 0.049709525 0.80300003 1.6126521e-39
-0.040532384 0.049709525 0.80300003 4.6551079e-39
-0.038954284 0.049647622 0.80200005 1.4669564e-38
-0.037426669 0.049647622 0.80200005 2.0938492e-38
-0.035899047 0.049647622 0.80200005 2.3326213e-38
-0.034371432 0.049647622 0.80200005 2.3326213e-38
-0.03284381 0.049647622 0.80200005 2.3142182e-38
-0.031316195 0.049647622 0.80200005 2.0745096e-38
-0.029714286 0.049523808 0.80000001 1.5035875e-38
-0.028190477 0.049523808 0.80000001 1.3560745e-38
-0.026733335 0.049647622 0.80200005 1.3375219e-38
-0.025205715 0.049647622 0.80200005 1.355961e-38
-0.023678096 0.049647622 0.80200005 1.4202428e-38
-0.022150477 0.049647622 0.80200005 1.3741449e-38
-0.020622859 0.049647622 0.80200005 1.4477963e-38
-0.019095238 0.049647622 0.80200005 2.1116049e-38
-0.017589524 0.049709525 0.80300003 2.3326213e-38
-0.01606 0.049709525 0.80300003 2.2680844e-38
-0.014530477 0.049709525 0.80300003 2.2681535e-38
-0.013000953 0.049709525 0.80300003 2.3418023e-38
-0.011471429 0.049709525 0.80300003 2.3234378e-38
-0.0099419048 0.049709525 0.80300003 2.2312421e-38
-0.0084123807 0.049709525 0.80300003 1.6151925e-38
-0.0068828571 0.049709525 0.80300003 1.4953383e-38
-0.0053666667 0.049833339 0.80500007 1.8630367e-38
-0.0038333337 0.049833339 0.80500007 1.9091345e-38
-0.0023000001 0.049833339 0.80500007 1.8990855e-38
-0.00077047618 0.050080951 0.80900002 1.3551313e-38
0.00077047618 0.050080951 0.80900002 1.143871e-38
0.0023171429 0.050204765 0.81100005 1.226847e-38
0.0038619051 0.050204765 0.81100005 1.6042743e-38
0.0054199998 0.050328571 0.81300002 1.8624221e-38
0.0070200008 0.050700005 0.81900007 1.6508075e-38
0.0086009521 0.050823811 0.82100004 1.2082685e-38
0.010164762 0.050823811 0.82100004 1.3005332e-38
0.011728572 0.050823811 0.82100004 1.4203875e-38
-0.063180007 0.052260004 0.81900007 1.4010461e-38
-0.061620004 0.052260004 0.81900007 1.1896808e-38
-0.060060002 0.052260004 0.81900007 8.946548e-39
-0.058357142 0.052132383 0.81700003 1.1526589e-38
-0.056800954 0.052132383 0.81700003 1.5767588e-38
-0.055244766 0.052132383 0.81700003 1.548953e-38
-0.053688571 0.052132383 0.81700003 1.0326575e-38
-0.052004766 0.052004766 0.81500006 9.5894245e-39
-0.050328571 0.051877145 0.81300002 1.4383597e-38
-0.048660003 0.051749524 0.81100005 1.7980274e-38
-0.046882857 0.051494289 0.80700004 2.2221273e-38
-0.045345716 0.051494289 0.80700004 1.6145462e-38
-0.043700002 0.051366672 0.80500007 8.5854208e-39
-0.042061906 0.051239051 0.80300003 8.2309988e-39
-0.040532384 0.051239051 0.80300003 1.6620788e-38
-0.038954284 0.05117524 0.80200005 2.2958507e-38
-0.037426669 0.05117524 0.80200005 2.3142539e-38
-0.035899047 0.05117524 0.80200005 2.1300437e-38
-0.034371432 0.05117524 0.80200005 2.0101894e-38
-0.03284381 0.05117524 0.80200005 2.1852888e-38
-0.031316195 0.05117524 0.80200005 2.2958873e-38
-0.029788572 0.05117524 0.80200005 2.3234018e-38
-0.028260954 0.05117524 0.80200005 1.853204e-38
-0.026733335 0.05117524 0.80200005 1.2821388e-38
-0.025205715 0.05117524 0.80200005 1.1069671e-38
-0.023678096 0.05117524 0.80200005 1.2911714e-38
-0.022150477 0.05117524 0.80200005 1.7890278e-38
-0.020648573 0.051239051 0.80300003 2.2680112e-38
-0.019119048 0.051239051 0.80300003 2.3509873e-38
-0.017589524 0.051239051 0.80300003 2.3234378e-38
-0.01606 0.051239051 0.80300003 1.7149466e-38
-0.014530477 0.051239051 0.80300003 1.5591807e-38
-0.013000953 0.051239051 0.80300003 1.974061e-38
-0.011471429 0.051239051 0.80300003 2.3234378e-38
-0.0099419048 0.051239051 0.80300003 2.3234378e-38
-0.0084123807 0.051239051 0.80300003 2.3142182e-38
-0.0068828571 0.051239051 0.80300003 2.1206074e-38
-0.0053666667 0.051366672 0.80500007 1.9733468e-38
-0.0038333337 0.051366672 0.80500007 1.5769055e-38
-0.0023057142 0.051494289 0.80700004 1.3831868e-38
-0.00077047618 0.051621906 0.80900002 1.3463086e-38
0.00077238097 0.051749524 0.81100005 1.25433e-38
0.0023171429 0.051749524 0.81100005 1.1436952e-38
0.0038714285 0.051877145 0.81300002 1.4293174e-38
0.0054333336 0.052004766 0.81500006 1.8165391e-38
0.0070200008 0.052260004 0.81900007 1.68754e-38
0.0086009521 0.052387621 0.82100004 1.2910988e-38
0.010164762 0.052387621 0.82100004 1.3373396e-38
0.011728572 0.052387621 0.82100004 1.4571939e-38
0.013292382 0.052387621 0.82100004 1.5394853e-38
-0.063334286 0.053951431 0.82100004 1.4010461e-38
-0.061770476 0.053951431 0.82100004 1.2356703e-38
-0.060060002 0.053820003 0.81900007 9.7752255e-39
-0.058500003 0.053820003 0.81900007 9.7788254e-39
-0.056940004 0.053820003 0.81900007 1.3558846e-38
-0.055380005 0.053820003 0.81900007 1.4014089e-38
-0.053688571 0.053688571 0.81700003 1.0971633e-38
-0.052132383 0.053688571 0.81700003 1.0053249e-38
-0.050452381 0.053557146 0.81500006 1.171277e-38
-0.048780002 0.053425714 0.81300002 1.5855789e-38
-0.046999045 0.053162854 0.80900002 2.2032896e-38
-0.045345716 0.05303143 0.80700004 2.0932021e-38
-0.043700002 0.052900005 0.80500007 1.5400283e-38
-0.042166673 0.052900005 0.80500007 1.4577722e-38
-0.040532384 0.052768573 0.80300003 2.0938492e-38
-0.039002858 0.052768573 0.80300003 2.3326213e-38
-0.037473332 0.052768573 0.80300003 2.2312061e-38
-0.035899047 0.052702863 0.80200005 1.9276089e-38
-0.034371432 0.052702863 0.80200005 1.798535e-38
-0.03284381 0.052702863 0.80200005 2.0194077e-38
-0.031316195 0.052702863 0.80200005 2.2867033e-38
-0.029788572 0.052702863 0.80200005 2.341769e-38
-0.028260954 0.052702863 0.80200005 2.2126951e-38
-0.026766667 0.052768573 0.80300003 1.6418793e-38
-0.025237143 0.052768573 0.80300003 1.162462e-38
-0.023707621 0.052768573 0.80300003 1.3096446e-38
-0.022178095 0.052768573 0.80300003 2.0287705e-38
-0.020648573 0.052768573 0.80300003 2.341769e-38
-0.019119048 0.052768573 0.80300003 2.3325494e-38
-0.017589524 0.052768573 0.80300003 2.2590813e-38
-0.016100001 0.052900005 0.80500007 1.2818076e-38
-0.014566667 0.052900005 0.80500007 8.8755526e-39
-0.013033334 0.052900005 0.80500007 1.2839965e-38
-0.011500001 0.052900005 0.80500007 2.0653959e-38
-0.0099666677 0.052900005 0.80500007 2.3234361e-38
-0.0084333336 0.052900005 0.80500007 2.3326213e-38
-0.0069000009 0.052900005 0.80500007 2.2957431e-38
-0.0053666667 0.052900005 0.80500007 1.9736361e-38
-0.0038428574 0.05303143 0.80700004 1.3190471e-38
-0.0023057142 0.05303143 0.80700004 1.2175937e-38
-0.00077047618 0.053162854 0.80900002 1.3005698e-38
0.00077238097 0.05329429 0.81100005 1.2912067e-38
0.0023228573 0.053425714 0.81300002 1.2174502e-38
0.0038714285 0.053425714 0.81300002 1.2913502e-38
0.0054333336 0.053557146 0.81500006 1.7154501e-38
0.0070200008 0.053820003 0.81900007 1.5773031e-38
0.0086009521 0.053951431 0.82100004 1.2361793e-38
0.010189524 0.054082859 0.82300001 1.3465228e-38
0.011757143 0.054082859 0.82300001 1.4387185e-38
-0.061770476 0.055515241 0.82100004 1.2264868e-38
-0.060060002 0.055380005 0.81900007 1.0144368e-38
-0.058500003 0.055380005 0.81900007 1.078976e-38
-0.056940004 0.055380005 0.81900007 1.4293194e-38
-0.055380005 0.055380005 0.81900007 1.4566894e-38
-0.053688571 0.055244766 0.81700003 1.1524438e-38
-0.052132383 0.055244766 0.81700003 1.0881602e-38
-0.050452381 0.055109527 0.81500006 1.0973798e-38
-0.048780002 0.054974288 0.81300002 1.2077592e-38
-0.04711524 0.054839052 0.81100005 1.8162504e-38
-0.045458097 0.054703813 0.80900002 2.0099729e-38
-0.043808572 0.054568574 0.80700004 2.2312424e-38
-0.042166673 0.054433338 0.80500007 2.2037274e-38
-0.040532384 0.054298095 0.80300003 2.2406056e-38
-0.039002858 0.054298095 0.80300003 2.0379566e-38
-0.037473332 0.054298095 0.80300003 1.7798088e-38
-0.03594381 0.054298095 0.80300003 1.5503631e-38
-0.034371432 0.054230478 0.80200005 1.5042653e-38
-0.03284381 0.054230478 0.80200005 1.6973357e-38
-0.031316195 0.054230478 0.80200005 1.964703e-38
-0.029788572 0.054230478 0.80200005 2.2957791e-38
-0.028260954 0.054230478 0.80200005 2.3234378e-38
-0.026766667 0.054298095 0.80300003 2.3326213e-38
-0.025237143 0.054298095 0.80300003 1.9546192e-38
-0.023707621 0.054298095 0.80300003 2.0100089e-38
-0.022178095 0.054298095 0.80300003 2.3142544e-38
-0.020700002 0.054433338 0.80500007 2.3326213e-38
-0.019166669 0.054433338 0.80500007 1.9085214e-38
-0.017633334 0.054433338 0.80500007 1.1544653e-38
-0.016100001 0.054433338 0.80500007 9.0553714e-39
-0.014566667 0.054433338 0.80500007 7.5016888e-39
-0.013033334 0.054433338 0.80500007 7.3172975e-39
-0.011500001 0.054433338 0.80500007 1.1819712e-38
-0.0099666677 0.054433338 0.80500007 1.5599732e-38
-0.0084333336 0.054433338 0.80500007 2.3049964e-38
-0.0069000009 0.054433338 0.80500007 2.3418029e-38
-0.00538 0.054568574 0.80700004 2.221915e-38
-0.0038428574 0.054568574 0.80700004 1.4013739e-38
-0.0023114285 0.054703813 0.80900002 1.2819155e-38
-0.00077238097 0.054839052 0.81100005 1.3280134e-38
0.00077428576 0.054974288 0.81300002 1.2544366e-38
0.0023285716 0.055109527 0.81500006 1.2083388e-38
0.0038904762 0.055244766 0.81700003 1.3923746e-38
0.0054600001 0.055380005 0.81900007 1.890231e-38
0.0070371432 0.055515241 0.82100004 1.7889893e-38
0.0086009521 0.055515241 0.82100004 1.3464502e-38
0.010189524 0.055650476 0.82300001 1.3741099e-38
-0.063488573 0.057218097 0.82300001 1.3642757e-38
-0.061920948 0.057218097 0.82300001 1.226487e-38
-0.06020667 0.057079051 0.82100004 1.0420958e-38
-0.058642861 0.057079051 0.82100004 1.0607167e-38
-0.057079051 0.057079051 0.82100004 1.4479383e-38
-0.055380005 0.056940004 0.81900007 1.4752392e-38
-0.053820003 0.056940004 0.81900007 1.1341154e-38
-0.052132383 0.056800954 0.81700003 1.0974151e-38
-0.050576191 0.056800954 0.81700003 1.1527325e-38
-0.048780002 0.056522857 0.81300002 1.1158147e-38
-0.04711524 0.056383811 0.81100005 1.4108407e-38
-0.045458097 0.056244761 0.80900002 1.9083767e-38
-0.043808572 0.056105718 0.80700004 2.3509517e-38
-0.042166673 0.055966668 0.80500007 2.3050705e-38
-0.040633336 0.055966668 0.80500007 2.1206793e-38
-0.039002858 0.055827621 0.80300003 1.7068799e-38
-0.037473332 0.055827621 0.80300003 1.5132691e-38
-0.03594381 0.055827621 0.80300003 1.3850236e-38
-0.034414288 0.055827621 0.80300003 1.4311215e-38
-0.032884765 0.055827621 0.80300003 1.4953332e-38
-0.031355239 0.055827621 0.80300003 1.6059679e-38
-0.029825715 0.055827621 0.80300003 2.0378468e-38
-0.028296191 0.055827621 0.80300003 2.2867033e-38
-0.026766667 0.055827621 0.80300003 2.341769e-38
-0.025300002 0.055966668 0.80500007 2.3233299e-38
-0.023766669 0.055966668 0.80500007 2.231351e-38
-0.022233333 0.055966668 0.80500007 2.2958873e-38
-0.020700002 0.055966668 0.80500007 2.2774842e-38
-0.019166669 0.055966668 0.80500007 1.4200648e-38
-0.017633334 0.055966668 0.80500007 7.5002567e-39
-0.016100001 0.055966668 0.80500007 7.8690392e-39
-0.014566667 0.055966668 0.80500007 7.7804407e-39
-0.013033334 0.055966668 0.80500007 6.3975062e-39
-0.011500001 0.055966668 0.80500007 5.7546129e-39
-0.0099666677 0.055966668 0.80500007 7.0453517e-39
-0.0084542865 0.056105718 0.80700004 1.9361786e-38
-0.0069171432 0.056105718 0.80700004 2.3418035e-38
-0.0053933333 0.056244761 0.80900002 2.2771614e-38
-0.0038523809 0.056244761 0.80900002 1.4105225e-38
-0.0023171429 0.056383811 0.81100005 1.3278692e-38
-0.00077428576 0.056522857 0.81300002 1.3647474e-38
0.00077619054 0.056661908 0.81500006 1.2268133e-38
0.002334286 0.056800954 0.81700003 1.3466676e-38
0.0038904762 0.056800954 0.81700003 1.6871097e-38
0.0054600001 0.056940004 0.81900007 1.9360379e-38
0.0070371432 0.057079051 0.82100004 1.8440571e-38
0.0086009521 0.057079051 0.82100004 1.4199572e-38
0.010164762 0.057079051 0.82100004 1.3741455e-38
-0.063488573 0.058785714 0.82300001 1.3733521e-38
-0.060353335 0.058785714 0.82300001 1.1709539e-38
-0.058642861 0.058642861 0.82100004 1.2907388e-38
-0.057079051 0.058642861 0.82100004 1.7609365e-38
-0.055380005 0.058500003 0.81900007 1.659627e-38
-0.053820003 0.058500003 0.81900007 1.1064532e-38
-0.052260004 0.058500003 0.81900007 1.0239113e-38
-0.050576191 0.058357142 0.81700003 1.1437656e-38
-0.048900004 0.058214288 0.81500006 1.1250738e-38
-0.047231432 0.058071431 0.81300002 1.1158542e-38
-0.045570478 0.057928573 0.81100005 1.484243e-38
-0.043917142 0.057785716 0.80900002 2.3232227e-38
-0.042271432 0.057642858 0.80700004 2.176069e-38
-0.040633336 0.057500005 0.80500007 1.7243104e-38
-0.039100002 0.057500005 0.80500007 1.4400163e-38
-0.037566669 0.057500005 0.80500007 1.4953337e-38
-0.03594381 0.057357144 0.80300003 1.4679281e-38
-0.034414288 0.057357144 0.80300003 1.5048064e-38
-0.032884765 0.057357144 0.80300003 1.550724e-38
-0.031355239 0.057357144 0.80300003 1.5230653e-38
-0.029825715 0.057357144 0.80300003 1.7434685e-38
-0.028296191 0.057357144 0.80300003 1.9739576e-38
-0.026833337 0.057500005 0.80500007 2.3326213e-38
-0.025300002 0.057500005 0.80500007 2.3326213e-38
-0.023766669 0.057500005 0.80500007 2.3417687e-38
-0.022233333 0.057500005 0.80500007 1.9822058e-38
-0.020700002 0.057500005 0.80500007 1.2557361e-38
-0.019166669 0.057500005 0.80500007 9.6992961e-39
-0.017677143 0.057642858 0.80700004 7.1361643e-39
-0.016140001 0.057642858 0.80700004 7.8737293e-39
-0.014602858 0.057642858 0.80700004 8.608765e-39
-0.013065715 0.057642858 0.80700004 8.3321781e-39
-0.011557143 0.057785716 0.80900002 7.2276368e-39
-0.010016191 0.057785716 0.80900002 4.7383548e-39
-0.0084961904 0.057928573 0.81100005 1.6323283e-38
-0.0069514289 0.057928573 0.81100005 2.2683347e-38
-0.005406667 0.057928573 0.81100005 2.2770526e-38
-0.0038619051 0.057928573 0.81100005 1.4011941e-38
-0.0023171429 0.057928573 0.81100005 1.2634767e-38
-0.00077428576 0.058071431 0.81300002 1.3187941e-38
0.00077809527 0.058357142 0.81700003 1.3370887e-38
0.0023400001 0.058500003 0.81900007 1.7243104e-38
0.0039000001 0.058500003 0.81900007 1.7979593e-38
0.0054733334 0.058642861 0.82100004 1.7703006e-38
0.0070371432 0.058642861 0.82100004 1.7244902e-38
0.008621905 0.058785714 0.82300001 1.4847815e-38
0.010189524 0.058785714 0.82300001 1.438502e-38
-0.058785714 0.060353335 0.82300001 1.4749473e-38
-0.057218097 0.060353335 0.82300001 1.7699734e-38
-0.055515241 0.06020667 0.82100004 1.6504465e-38
-0.053820003 0.060060002 0.81900007 1.1802488e-38
-0.052260004 0.060060002 0.81900007 1.0514621e-38
-0.050576191 0.059913337 0.81700003 1.1528773e-38
-0.04902 0.059913337 0.81700003 1.1159977e-38
-0.047347624 0.059766669 0.81500006 1.0514608e-38
-0.045570478 0.059473336 0.81100005 1.3096083e-38
-0.043917142 0.059326664 0.80900002 2.2131255e-38
-0.042376194 0.059326664 0.80900002 2.1025295e-38
-0.040734287 0.059180003 0.80700004 1.6138927e-38
-0.039197143 0.059180003 0.80700004 1.2653125e-38
-0.037566669 0.059033338 0.80500007 1.4128255e-38
-0.036033336 0.059033338 0.80500007 1.4402694e-38
-0.034500003 0.059033338 0.80500007 1.5048064e-38
-0.03296667 0.059033338 0.80500007 1.5140259e-38
-0.031433333 0.059033338 0.80500007 1.4863672e-38
-0.029825715 0.058886666 0.80300003 1.4862574e-38
-0.028296191 0.058886666 0.80300003 1.5692334e-38
-0.026833337 0.059033338 0.80500007 2.1115683e-38
-0.025300002 0.059033338 0.80500007 2.2867037e-38
-0.023766669 0.059033338 0.80500007 2.3326213e-38
-0.022288572 0.059180003 0.80700004 1.5950563e-38
-0.02075143 0.059180003 0.80700004 9.2454842e-39
-0.019214287 0.059180003 0.80700004 9.0610929e-39
-0.017677143 0.059180003 0.80700004 8.5162135e-39
-0.016179999 0.059326664 0.80900002 8.7006047e-39
-0.014639048 0.059326664 0.80900002 8.7002418e-39
-0.013098096 0.059326664 0.80900002 8.5158505e-39
-0.011557143 0.059326664 0.80900002 5.8493813e-39
-0.010016191 0.059326664 0.80900002 3.2679037e-39
-0.0084961904 0.059473336 0.81100005 1.2829585e-38
-0.0069514289 0.059473336 0.81100005 2.0846656e-38
-0.005406667 0.059473336 0.81100005 2.1299727e-38
-0.0038619051 0.059473336 0.81100005 1.3094316e-38
-0.0023228573 0.05962 0.81300002 1.1623486e-38
-0.00077619054 0.059766669 0.81500006 1.217666e-38
0.00077809527 0.059913337 0.81700003 1.2818455e-38
0.0023400001 0.060060002 0.81900007 1.8257997e-38
0.0039000001 0.060060002 0.81900007 1.7339265e-38
0.0054733334 0.06020667 0.82100004 1.4757787e-38
0.0070371432 0.06020667 0.82100004 1.5219835e-38
0.008621905 0.060353335 0.82300001 1.4574465e-38
0.010189524 0.060353335 0.82300001 1.5028581e-38
-0.060500003 0.062071431 0.82500005 1.3735669e-38
-0.058928575 0.062071431 0.82500005 1.3922228e-38
-0.057218097 0.061920948 0.82300001 1.5766141e-38
-0.055515241 0.061770476 0.82100004 1.595057e-38
-0.053951431 0.061770476 0.82100004 1.5120809e-38
-0.052260004 0.061620004 0.81900007 1.1804306e-38
-0.050700005 0.061620004 0.81900007 1.0790154e-38
-0.04902 0.061469521 0.81700003 9.6873879e-39
-0.047347624 0.061319049 0.81500006 1.005617e-38
-0.045682859 0.061168574 0.81300002 1.3924064e-38
-0.044025715 0.061018094 0.81100005 2.2129475e-38
-0.042376194 0.060867622 0.80900002 2.1301153e-38
-0.040835235 0.060867622 0.80900002 1.6875763e-38
-0.039197143 0.060717143 0.80700004 1.3205233e-38
-0.037660003 0.060717143 0.80700004 1.4219385e-38
-0.036122859 0.060717143 0.80700004 1.4587085e-38
-0.034500003 0.060566671 0.80500007 1.4955868e-38
-0.03296667 0.060566671 0.80500007 1.5232089e-38
-0.031433333 0.060566671 0.80500007 1.5508676e-38
-0.029900001 0.060566671 0.80500007 1.4863672e-38
-0.028366668 0.060566671 0.80500007 1.4402694e-38
-0.026900001 0.060717143 0.80700004 1.9088824e-38
-0.025362857 0.060717143 0.80700004 2.2591531e-38
-0.023825716 0.060717143 0.80700004 2.3142182e-38
-0.022288572 0.060717143 0.80700004 1.3461641e-38
-0.02075143 0.060717143 0.80700004 3.4584312e-39
-0.019214287 0.060717143 0.80700004 5.9477132e-39
-0.017677143 0.060717143 0.80700004 8.5162205e-39
-0.016179999 0.060867622 0.80900002 8.6084161e-39
-0.014639048 0.060867622 0.80900002 8.6998816e-39
-0.013098096 0.060867622 0.80900002 8.1467079e-39
-0.011557143 0.060867622 0.80900002 5.3887661e-39
-0.010040953 0.061018094 0.81100005 5.2965705e-39
-0.0084961904 0.061018094 0.81100005 1.3931691e-38
-0.0069514289 0.061018094 0.81100005 2.1122163e-38
-0.005406667 0.061018094 0.81100005 2.2680838e-38
-0.0038714285 0.061168574 0.81300002 1.2815906e-38
-0.0023228573 0.061168574 0.81300002 9.9686593e-39
-0.00077809527 0.061469521 0.81700003 1.1628181e-38
0.00077809527 0.061469521 0.81700003 1.4752427e-38
0.0023400001 0.061620004 0.81900007 1.9915383e-38
0.0039095236 0.061770476 0.82100004 1.6418375e-38
0.0054733334 0.061770476 0.82100004 8.1207684e-39
0.0070371432 0.061770476 0.82100004 1.0429284e-38
0.008621905 0.061920948 0.82300001 1.3656131e-38
0.010189524 0.061920948 0.82300001 1.5672146e-38
-0.058928575 0.063642859 0.82500005 1.3095704e-38
-0.057357144 0.063642859 0.82500005 1.3741074e-38
-0.055515241 0.063334286 0.82100004 1.530627e-38
-0.053820003 0.063180007 0.81900007 1.5767248e-38
-0.052260004 0.063180007 0.81900007 1.4199238e-38
-0.050700005 0.063180007 0.81900007 1.0603609e-38
-0.04902 0.063025713 0.81700003 9.0434184e-39
-0.047463812 0.063025713 0.81700003 1.1348309e-38
-0.045682859 0.062717147 0.81300002 1.6316844e-38
-0.044025715 0.062562861 0.81100005 2.2586147e-38
-0.042480957 0.062562861 0.81100005 2.157738e-38
-0.040835235 0.06240857 0.80900002 1.8442729e-38
-0.039294288 0.06240857 0.80900002 1.3481115e-38
-0.037753332 0.06240857 0.80900002 1.3942093e-38
-0.036212385 0.06240857 0.80900002 1.4219738e-38
-0.034585718 0.062254291 0.80700004 1.4680716e-38
-0.03304857 0.062254291 0.80700004 1.4863672e-38
-0.03151143 0.062254291 0.80700004 1.4863672e-38
-0.029974287 0.062254291 0.80700004 1.3852034e-38
-0.028437143 0.062254291 0.80700004 1.3852034e-38
-0.026900001 0.062254291 0.80700004 1.8445976e-38
-0.025362857 0.062254291 0.80700004 2.2132353e-38
-0.023825716 0.062254291 0.80700004 2.2499336e-38
-0.022288572 0.062254291 0.80700004 1.3925143e-38
-0.02075143 0.062254291 0.80700004 6.122025e-39
-0.019214287 0.062254291 0.80700004 7.0439813e-39
-0.017720953 0.06240857 0.80900002 7.5967795e-39
-0.016179999 0.06240857 0.80900002 8.0577576e-39
-0.014639048 0.06240857 0.80900002 8.3314593e-39
-0.013130477 0.062562861 0.81100005 7.3173073e-39
-0.011585715 0.062562861 0.81100005 4.1931068e-39
-0.010040953 0.062562861 0.81100005 8.0653233e-39
-0.0085171424 0.062717147 0.81300002 1.8812613e-38
-0.0069685718 0.062717147 0.81300002 2.2316024e-38
-0.0054199998 0.062717147 0.81300002 2.2497181e-38
-0.0038714285 0.062717147 0.81300002 1.5029335e-38
-0.0023285716 0.062871434 0.81500006 1.2727316e-38
-0.00077809527 0.063025713 0.81700003 1.4294641e-38
0.00078000006 0.063180007 0.81900007 1.7884182e-38
0.0023400001 0.063180007 0.81900007 1.7884182e-38
0.0039095236 0.063334286 0.82100004 1.4942153e-38
0.0054733334 0.063334286 0.82100004 7.9352856e-39
0.0070542856 0.063488573 0.82300001 1.1256502e-38
0.008621905 0.063488573 0.82300001 1.3745784e-38
0.010239048 0.063797139 0.82700002 1.4841303e-38
-0.058928575 0.065214291 0.82500005 1.2267023e-38
-0.057357144 0.065214291 0.82500005 1.2267023e-38
-0.055650476 0.06505619 0.82300001 1.2544369e-38
-0.053820003 0.064740002 0.81900007 1.6693173e-38
-0.052260004 0.064740002 0.81900007 1.4938262e-38
-0.050700005 0.064740002 0.81900007 1.0512872e-38
-0.04902 0.064581908 0.81700003 1.1621316e-38
-0.047463812 0.064581908 0.81700003 1.8812575e-38
-0.045682859 0.064265721 0.81300002 2.1113518e-38
-0.044025715 0.064107619 0.81100005 2.1482301e-38
-0.042480957 0.064107619 0.81100005 2.1023122e-38
-0.040936191 0.064107619 0.81100005 2.1115317e-38
-0.039294288 0.063949525 0.80900002 1.8725442e-38
-0.037753332 0.063949525 0.80900002 1.6051769e-38
-0.036212385 0.063949525 0.80900002 1.3942795e-38
-0.034671426 0.063949525 0.80900002 1.4588164e-38
-0.033130478 0.063949525 0.80900002 1.4863672e-38
-0.031589523 0.063949525 0.80900002 1.4771477e-38
-0.029974287 0.063791431 0.80700004 1.5597272e-38
-0.028437143 0.063791431 0.80700004 1.7441184e-38
-0.026966667 0.063949525 0.80900002 2.1116052e-38
-0.025362857 0.063791431 0.80700004 2.2775202e-38
-0.023825716 0.063791431 0.80700004 2.3142182e-38
-0.022288572 0.063791431 0.80700004 2.1113878e-38
-0.02075143 0.063791431 0.80700004 1.1459686e-38
-0.019214287 0.063791431 0.80700004 6.5733173e-39
-0.017720953 0.063949525 0.80900002 1.9894122e-39
-0.016179999 0.063949525 0.80900002 3.5567379e-39
-0.014675239 0.064107619 0.81100005 5.0207123e-39
-0.013130477 0.064107619 0.81100005 3.7299734e-39
-0.011614286 0.064265721 0.81300002 9.2433781e-39
-0.010065715 0.064265721 0.81300002 1.7448743e-38
-0.0085171424 0.064265721 0.81300002 2.2867037e-38
-0.0069685718 0.064265721 0.81300002 2.2406059e-38
-0.0054199998 0.064265721 0.81300002 2.2128399e-38
-0.0038809527 0.064423814 0.81500006 2.1759616e-38
-0.002334286 0.064581908 0.81700003 1.9733455e-38
-0.00078000006 0.064740002 0.81900007 1.8719303e-38
0.00078000006 0.064740002 0.81900007 1.9271067e-38
0.0023457143 0.064898096 0.82100004 1.5306655e-38
0.0039190478 0.06505619 0.82300001 9.0535175e-39
0.0054866667 0.06505619 0.82300001 6.2876486e-39
0.0070542856 0.06505619 0.82300001 1.1717858e-38
0.0086428579 0.065214291 0.82500005 1.3838358e-38
0.010239048 0.065372378 0.82700002 1.4840597e-38
0.011842857 0.065530479 0.82900006 1.6223532e-38
-0.059071429 0.066947617 0.82700002 1.1439063e-38
-0.057496194 0.066947617 0.82700002 1.171565e-38
-0.055920955 0.066947617 0.82700002 1.1534165e-38
-0.054214288 0.066785723 0.82500005 1.4945403e-38
-0.05264286 0.066785723 0.82500005 1.6508065e-38
-0.050700005 0.066300005 0.81900007 1.3465609e-38
-0.049140003 0.066300005 0.81900007 1.4198853e-38
-0.047463812 0.066138096 0.81700003 2.0560351e-38
-0.04579524 0.065976188 0.81500006 2.1575219e-38
-0.044134285 0.065814286 0.81300002 1.9639111e-38
-0.042585716 0.065814286 0.81300002 1.9273515e-38
-0.040936191 0.065652385 0.81100005 2.1209623e-38
-0.039391432 0.065652385 0.81100005 2.0933818e-38
-0.03784667 0.065652385 0.81100005 1.8260145e-38
-0.036301903 0.065652385 0.81100005 1.3116298e-38
-0.034757145 0.065652385 0.81100005 1.3669472e-38
-0.033130478 0.065490477 0.80900002 1.4495596e-38
-0.031589523 0.065490477 0.80900002 1.4311205e-38
-0.030048572 0.065490477 0.80900002 1.5873498e-38
-0.02850762 0.065490477 0.80900002 1.8915954e-38
-0.027033335 0.065652385 0.81100005 2.2773046e-38
-0.025425715 0.065490477 0.80900002 2.323402e-38
-0.023884762 0.065490477 0.80900002 2.3326198e-38
-0.022343809 0.065490477 0.80900002 2.3141807e-38
-0.020802857 0.065490477 0.80900002 1.8085852e-38
-0.019261904 0.065490477 0.80900002 1.1539963e-38
-0.017720953 0.065490477 0.80900002 1.8954467e-39
-0.01622 0.065652385 0.81100005 1.5266642e-39
-0.014675239 0.065652385 0.81100005 1.8027985e-39
-0.013130477 0.065652385 0.81100005 4.2920805e-39
-0.011614286 0.065814286 0.81300002 1.5407148e-38
-0.010065715 0.065814286 0.81300002 2.1305834e-38
-0.0085380953 0.065976188 0.81500006 2.2867037e-38
-0.0069857147 0.065976188 0.81500006 2.0562146e-38
-0.0054333336 0.065976188 0.81500006 2.0470667e-38
-0.0038809527 0.065976188 0.81500006 2.2130188e-38
-0.002334286 0.066138096 0.81700003 2.1942926e-38
-0.00078000006 0.066300005 0.81900007 2.1297556e-38
0.00078000006 0.066300005 0.81900007 1.8998796e-38
0.0023457143 0.066461906 0.82100004 1.1715341e-38
0.0039285715 0.066785723 0.82500005 4.2751696e-39
0.0055000004 0.066785723 0.82500005 4.7361478e-39
0.0070885718 0.066947617 0.82700002 1.1901168e-38
0.0086638099 0.066947617 0.82700002 1.4021667e-38
0.01026381 0.067109525 0.82900006 1.4565798e-38
0.011842857 0.067109525 0.82900006 1.5672146e-38
0.013421906 0.067109525 0.82900006 1.5855465e-38
-0.061086673 0.069020011 0.83300006 1.3274343e-38
-0.059214287 0.068688571 0.82900006 1.1805694e-38
-0.057635244 0.068688571 0.82900006 1.2819846e-38
-0.055920955 0.068522863 0.82700002 1.1350862e-38
-0.054214288 0.068357147 0.82500005 1.2733797e-38
-0.05264286 0.068357147 0.82500005 1.5953444e-38
-0.050823811 0.068025716 0.82100004 1.9088095e-38
-0.049140003 0.067860007 0.81900007 2.019084e-38
-0.047463812 0.067694284 0.81700003 2.1389383e-38
-0.04579524 0.067528576 0.81500006 1.8812953e-38
-0.044242859 0.067528576 0.81500006 1.2359259e-38
-0.042585716 0.06736286 0.81300002 1.1355852e-38
-0.041037142 0.06736286 0.81300002 1.7256373e-38
-0.039391432 0.067197151 0.81100005 2.028738e-38
-0.03784667 0.067197151 0.81100005 2.1301529e-38
-0.036301903 0.067197151 0.81100005 1.7713821e-38
-0.034757145 0.067197151 0.81100005 1.5316735e-38
-0.033130478 0.067031428 0.80900002 1.486187e-38
-0.031589523 0.067031428 0.80900002 1.698237e-38
-0.030048572 0.067031428 0.80900002 2.1761766e-38
-0.02850762 0.067031428 0.80900002 2.27752e-38
-0.027033335 0.067197151 0.81100005 2.3326213e-38
-0.025425715 0.067031428 0.80900002 1.9822779e-38
-0.023884762 0.067031428 0.80900002 2.1576239e-38
-0.022343809 0.067031428 0.80900002 2.3418e-38
-0.020802857 0.067031428 0.80900002 2.3050705e-38
-0.019261904 0.067031428 0.80900002 2.2220945e-38
-0.017720953 0.067031428 0.80900002 1.3760614e-38
-0.01622 0.067197151 0.81100005 6.5693545e-39
-0.014675239 0.067197151 0.81100005 4.9277641e-39
-0.013130477 0.067197151 0.81100005 1.3867153e-38
-0.011614286 0.06736286 0.81300002 2.2774842e-38
-0.010090477 0.067528576 0.81500006 2.2867037e-38
-0.0085380953 0.067528576 0.81500006 2.0657582e-38
-0.0069857147 0.067528576 0.81500006 1.6785365e-38
-0.0054333336 0.067528576 0.81500006 1.7063754e-38
-0.0038904762 0.067694284 0.81700003 2.0382797e-38
-0.002334286 0.067694284 0.81700003 2.1667788e-38
-0.00078000006 0.067860007 0.81900007 2.1022418e-38
0.00078000006 0.067860007 0.81900007 1.8171499e-38
0.0023457143 0.068025716 0.82100004 8.3065666e-39
0.0039285715 0.068357147 0.82500005 1.8846063e-39
0.0055000004 0.068357147 0.82500005 3.3597364e-39
0.0070885718 0.068522863 0.82700002 1.2270679e-38
0.0086638099 0.068522863 0.82700002 1.5220939e-38
0.01026381 0.068688571 0.82900006 1.6132408e-38
0.011842857 0.068688571 0.82900006 1.650119e-38
0.013421906 0.068688571 0.82900006 1.6409355e-38
-0.061086673 0.070606671 0.83300006 1.3549493e-38
-0.059500005 0.070606671 0.83300006 1.2081199e-38
-0.057635244 0.070267625 0.82900006 1.3187547e-38
-0.056056194 0.070267625 0.82900006 1.0983515e-38
-0.054345712 0.070098102 0.82700002 1.0983515e-38
-0.05264286 0.069928572 0.82500005 1.4849247e-38
-0.050947621 0.069759049 0.82300001 1.9366833e-38
-0.049260002 0.069589525 0.82100004 2.1205007e-38
-0.047580004 0.069420002 0.81900007 2.0375247e-38
-0.04590762 0.069250479 0.81700003 1.5318867e-38
-0.044242859 0.069080956 0.81500006 7.0212606e-39
-0.042690478 0.069080956 0.81500006 5.4689961e-39
-0.041037142 0.068911433 0.81300002 1.1092929e-38
-0.039488573 0.068911433 0.81300002 2.0100793e-38
-0.03784667 0.068741903 0.81100005 2.268227e-38
-0.036301903 0.068741903 0.81100005 2.0474282e-38
-0.034757145 0.068741903 0.81100005 1.6325479e-38
-0.033212382 0.068741903 0.81100005 1.5503278e-38
-0.031667624 0.068741903 0.81100005 1.9006712e-38
-0.030122858 0.068741903 0.81100005 2.3326213e-38
-0.028578097 0.068741903 0.81100005 2.3326213e-38
-0.027033335 0.068741903 0.81100005 2.341769e-38
-0.025488574 0.068741903 0.81100005 1.6687409e-38
-0.023884762 0.06857238 0.80900002 1.7515291e-38
-0.022343809 0.06857238 0.80900002 2.3139224e-38
-0.020802857 0.06857238 0.80900002 2.3417687e-38
-0.019261904 0.06857238 0.80900002 2.3417687e-38
-0.017720953 0.06857238 0.80900002 2.0845221e-38
-0.01622 0.068741903 0.81100005 1.2639812e-38
-0.014675239 0.068741903 0.81100005 1.0073813e-38
-0.013162857 0.068911433 0.81300002 1.873444e-38
-0.011642857 0.069080956 0.81500006 2.2774842e-38
-0.010115238 0.069250479 0.81700003 2.1484103e-38
-0.0085590482 0.069250479 0.81700003 1.8263016e-38
-0.007002857 0.069250479 0.81700003 1.5773734e-38
-0.0054466669 0.069250479 0.81700003 1.5318507e-38
-0.0038904762 0.069250479 0.81700003 1.7899985e-38
-0.0023400001 0.069420002 0.81900007 2.0932749e-38
-0.00078000006 0.069420002 0.81900007 2.028738e-38
0.00078190479 0.069589525 0.82100004 1.4857879e-38
0.0023514286 0.069759049 0.82300001 6.8368595e-39
0.0039285715 0.069928572 0.82500005 2.2529993e-39
0.0055133332 0.070098102 0.82700002 4.6500856e-39
0.0070885718 0.070098102 0.82700002 1.3835831e-38
0.0086847618 0.070267625 0.82900006 1.5679744e-38
0.01026381 0.070267625 0.82900006 1.5489559e-38
0.011842857 0.070267625 0.82900006 1.6042733e-38
0.013421906 0.070267625 0.82900006 1.6226408e-38
-0.061086673 0.072193339 0.83300006 1.3641694e-38
-0.059500005 0.072193339 0.83300006 1.2448899e-38
-0.057635244 0.071846671 0.82900006 1.3739638e-38
-0.056056194 0.071846671 0.82900006 1.1812194e-38
-0.054345712 0.071673334 0.82700002 1.125902e-38
-0.05264286 0.071500003 0.82500005 1.3835811e-38
-0.051071431 0.071500003 0.82500005 1.8537789e-38
-0.049379997 0.071326666 0.82300001 1.9087382e-38
-0.047580004 0.070980005 0.81900007 1.4201014e-38
-0.04590762 0.070806667 0.81700003 8.1383982e-39
-0.044351429 0.070806667 0.81700003 6.2944856e-39
-0.042690478 0.070633344 0.81500006 6.5761396e-39
-0.041138098 0.070633344 0.81500006 6.8527264e-39
-0.039488573 0.070459999 0.81300002 1.3750764e-38
-0.037940003 0.070459999 0.81300002 1.9559089e-38
-0.03639143 0.070459999 0.81300002 2.1576674e-38
-0.034757145 0.070286669 0.81100005 2.1576674e-38
-0.033212382 0.070286669 0.81100005 2.2682996e-38
-0.031667624 0.070286669 0.81100005 2.2958866e-38
-0.030122858 0.070286669 0.81100005 2.3326213e-38
-0.028578097 0.070286669 0.81100005 2.0099366e-38
-0.027033335 0.070286669 0.81100005 1.6319741e-38
-0.025488574 0.070286669 0.81100005 1.3553872e-38
-0.02394381 0.070286669 0.81100005 1.346308e-38
-0.022399049 0.070286669 0.81100005 1.5952362e-38
-0.020854287 0.070286669 0.81100005 2.0559588e-38
-0.019309524 0.070286669 0.81100005 2.3509851e-38
-0.017764764 0.070286669 0.81100005 2.3142182e-38
-0.01622 0.070286669 0.81100005 2.2681204e-38
-0.014675239 0.070286669 0.81100005 2.2774842e-38
-0.013162857 0.070459999 0.81300002 2.2958873e-38
-0.011642857 0.070633344 0.81500006 2.2591169e-38
-0.010115238 0.070806667 0.81700003 1.8073583e-38
-0.0085590482 0.070806667 0.81700003 1.4859354e-38
-0.007002857 0.070806667 0.81700003 1.513594e-38
-0.0054466669 0.070806667 0.81700003 1.4768956e-38
-0.0038904762 0.070806667 0.81700003 1.5137738e-38
-0.0023400001 0.070980005 0.81900007 1.8631809e-38
-0.00078190479 0.071153335 0.82100004 1.7525461e-38
0.00078190479 0.071153335 0.82100004 1.3293791e-38
0.002357143 0.071500003 0.82500005 6.1947271e-39
0.0039380956 0.071673334 0.82700002 4.0915393e-39
0.005526667 0.071846671 0.82900006 8.7013208e-39
0.0071057146 0.071846671 0.82900006 1.5034725e-38
0.0086847618 0.071846671 0.82900006 1.5495703e-38
0.01026381 0.071846671 0.82900006 1.6041301e-38
0.011842857 0.071846671 0.82900006 1.6133497e-38
0.013421906 0.071846671 0.82900006 1.6225339e-38
-0.061086673 0.073780008 0.83300006 1.3642407e-38
-0.059500005 0.073780008 0.83300006 1.2541447e-38
-0.057635244 0.073425718 0.82900006 1.3647795e-38
-0.056056194 0.073425718 0.82900006 1.2088057e-38
-0.054345712 0.073248573 0.82700002 1.1534884e-38
-0.052770477 0.073248573 0.82700002 1.1813273e-38
-0.051071431 0.073071435 0.82500005 1.6884032e-38
-0.049379997 0.072894283 0.82300001 1.7526565e-38
-0.047580004 0.072540008 0.81900007 1.0980676e-38
-0.046020001 0.072540008 0.81900007 3.2646527e-39
-0.044351429 0.072362863 0.81700003 5.4773478e-39
-0.042795237 0.072362863 0.81700003 7.4977329e-39
-0.041138098 0.072185718 0.81500006 5.7460159e-39
-0.039585717 0.072185718 0.81500006 8.2298455e-39
-0.037940003 0.072008573 0.81300002 1.3853779e-38
-0.03639143 0.072008573 0.81300002 2.0931998e-38
-0.03484286 0.072008573 0.81300002 2.286703e-38
-0.033212382 0.071831435 0.81100005 2.341769e-38
-0.031667624 0.071831435 0.81100005 2.341769e-38
-0.030122858 0.071831435 0.81100005 2.3233302e-38
-0.028578097 0.071831435 0.81100005 1.7056194e-38
-0.027100001 0.072008573 0.81300002 1.5397752e-38
-0.025551429 0.072008573 0.81300002 1.4844578e-38
-0.02394381 0.071831435 0.81100005 1.4110238e-38
-0.022399049 0.071831435 0.81100005 1.3741455e-38
-0.020854287 0.071831435 0.81100005 1.6686285e-38
-0.019309524 0.071831435 0.81100005 2.1664849e-38
-0.017764764 0.071831435 0.81100005 2.3418043e-38
-0.01626 0.072008573 0.81300002 2.3418043e-38
-0.014711428 0.072008573 0.81300002 2.3326213e-38
-0.013195239 0.072185718 0.81500006 2.3234018e-38
-0.011671429 0.072362863 0.81700003 1.9554118e-38
-0.010115238 0.072362863 0.81700003 1.5958489e-38
-0.0085590482 0.072362863 0.81700003 1.4126823e-38
-0.007002857 0.072362863 0.81700003 1.4679997e-38
-0.0054466669 0.072362863 0.81700003 1.3298144e-38
-0.0039000001 0.072540008 0.81900007 1.4312296e-38
-0.0023400001 0.072540008 0.81900007 1.7254294e-38
-0.00078190479 0.072717145 0.82100004 1.734649e-38
0.00078190479 0.072717145 0.82100004 1.1639334e-38
0.0023628571 0.073248573 0.82700002 4.816857e-39
0.0039476193 0.073425718 0.82900006 5.192454e-39
0.005526667 0.073425718 0.82900006 1.0539801e-38
0.0071057146 0.073425718 0.82900006 1.5401718e-38
0.0086847618 0.073425718 0.82900006 1.5217326e-38
0.01026381 0.073425718 0.82900006 1.6041301e-38
0.011842857 0.073425718 0.82900006 1.6133497e-38
0.013421906 0.073425718 0.82900006 1.5949105e-38
-0.059642859 0.075547621 0.83500004 1.2908432e-38
-0.057913337 0.075366676 0.83300006 1.401478e-38
-0.056191429 0.075185716 0.83100003 1.2087339e-38
-0.054608572 0.075185716 0.83100003 1.1718556e-38
-0.052898098 0.075004764 0.82900006 1.1537051e-38
-0.051195238 0.074823812 0.82700002 1.6331224e-38
-0.049500003 0.074642867 0.82500005 1.7067007e-38
-0.04781238 0.0744619 0.82300001 1.0521117e-38
-0.046020001 0.07410001 0.81900007 3.6338149e-39
-0.044351429 0.07391905 0.81700003 5.3855319e-39
-0.042795237 0.07391905 0.81700003 6.9470829e-39
-0.041239049 0.07391905 0.81700003 6.670496e-39
-0.039585717 0.073738098 0.81500006 6.9449123e-39
-0.038033333 0.073738098 0.81500006 7.3136948e-39
-0.036480956 0.073738098 0.81500006 1.4485119e-38
-0.03484286 0.073557146 0.81300002 2.1856823e-38
-0.033294287 0.073557146 0.81300002 2.341769e-38
-0.031745713 0.073557146 0.81300002 2.0559625e-38
-0.030197144 0.073557146 0.81300002 1.61357e-38
-0.028648572 0.073557146 0.81300002 1.3738613e-38
-0.027100001 0.073557146 0.81300002 1.4109897e-38
-0.025551429 0.073557146 0.81300002 1.5124049e-38
-0.024002858 0.073557146 0.81300002 1.5307358e-38
-0.022454288 0.073557146 0.81300002 1.484638e-38
-0.020905714 0.073557146 0.81300002 1.484421e-38
-0.019357143 0.073557146 0.81300002 1.5120797e-38
-0.017808573 0.073557146 0.81300002 1.8623505e-38
-0.016300002 0.073738098 0.81500006 2.3509873e-38
-0.01474762 0.073738098 0.81500006 2.3326213e-38
-0.01322762 0.07391905 0.81700003 2.065254e-38
-0.011671429 0.07391905 0.81700003 1.6330884e-38
-0.010140001 0.07410001 0.81900007 1.5685514e-38
-0.0085800011 0.07410001 0.81900007 1.4679634e-38
-0.0070200008 0.07410001 0.81900007 1.4587439e-38
-0.0054600001 0.07410001 0.81900007 1.4585281e-38
-0.0039000001 0.07410001 0.81900007 1.6152606e-38
-0.0023457143 0.074280955 0.82100004 1.9276462e-38
-0.00078190479 0.074280955 0.82100004 2.0014027e-38
0.00078190479 0.074280955 0.82100004 1.6423067e-38
0.0023628571 0.074823812 0.82700002 7.0191124e-39
0.0039476193 0.075004764 0.82900006 5.3775838e-39
0.005526667 0.075004764 0.82900006 1.1093713e-38
0.0071057146 0.075004764 0.82900006 1.5679718e-38
0.0086847618 0.075004764 0.82900006 1.438898e-38
0.01026381 0.075004764 0.82900006 1.5397749e-38
0.011871428 0.075185716 0.83100003 1.6135314e-38
0.013454286 0.075185716 0.83100003 1.6410447e-38
-0.059642859 0.077138096 0.83500004 1.3367975e-38
-0.057913337 0.076953337 0.83300006 1.3552367e-38
-0.056191429 0.07676857 0.83100003 1.1993335e-38
-0.054608572 0.07676857 0.83100003 1.1808944e-38
-0.052898098 0.07658381 0.82900006 1.116936e-38
-0.051195238 0.076399051 0.82700002 1.6424511e-38
-0.049500003 0.076214284 0.82500005 1.7343954e-38
-0.04781238 0.076029524 0.82300001 1.2180998e-38
-0.046132382 0.075844765 0.82100004 3.9089669e-39
-0.044460002 0.075660005 0.81900007 5.0153145e-39
-0.042795237 0.075475238 0.81700003 6.5790164e-39
-0.041239049 0.075475238 0.81700003 7.4087771e-39
-0.039682858 0.075475238 0.81700003 6.1209193e-39
-0.038033333 0.075290486 0.81500006 3.723833e-39
-0.036480956 0.075290486 0.81500006 8.9656099e-39
-0.034928575 0.075290486 0.81500006 1.9469096e-38
-0.033294287 0.075105712 0.81300002 2.3050705e-38
-0.031745713 0.075105712 0.81300002 1.8717511e-38
-0.030197144 0.075105712 0.81300002 1.3742547e-38
-0.028648572 0.075105712 0.81300002 1.346596e-38
-0.027166668 0.075290486 0.81500006 1.4570522e-38
-0.025551429 0.075105712 0.81300002 1.5215891e-38
