# .PCD v0.7 - Point Cloud Data file format
VERSION 0.7
FIELDS x y z rgb
SIZE 4 4 4 4
TYPE F F F F
COUNT 1 1 1 1
WIDTH 1018
HEIGHT 1
VIEWPOINT 0 0 0 1 0 0 0
POINTS 1018
DATA ascii
-0.011117143 -0.19393238 1.2970001 1.7971609e-38
-0.008646667 -0.19393238 1.2970001 1.7971244e-38
-0.0061523807 -0.19318476 1.2920001 1.8340026e-38
-0.0036914286 -0.19318476 1.2920001 1.8432254e-38
-0.0012304762 -0.19318476 1.2920001 1.9262015e-38
0.0012266667 -0.19258668 1.2880001 1.9262351e-38
0.0036800003 -0.19258668 1.2880001 1.9723329e-38
0.0061095241 -0.19183905 1.2830001 1.9907002e-38
0.0085533345 -0.19183905 1.2830001 2.0183588e-38
0.010911428 -0.19034381 1.273 2.0091761e-38
0.01328381 -0.18959619 1.268 1.9815174e-38
0.015699048 -0.18959619 1.268 1.9170182e-38
0.018114286 -0.18959619 1.268 1.7418465e-38
-0.062317148 -0.18939525 1.2830001 1.9261649e-38
-0.059873335 -0.18939525 1.2830001 1.8985062e-38
-0.05742953 -0.18939525 1.2830001 1.8248209e-38
-0.055200007 -0.19013335 1.2880001 1.7141861e-38
-0.052910481 -0.19072382 1.2920001 1.6865605e-38
-0.050449528 -0.19072382 1.2920001 1.6957801e-38
-0.048174284 -0.19146191 1.2970001 1.6773422e-38
-0.04570381 -0.19146191 1.2970001 1.6773422e-38
-0.043233335 -0.19146191 1.2970001 1.6864909e-38
-0.04076286 -0.19146191 1.2970001 1.70493e-38
-0.03844 -0.19220001 1.302 1.6864911e-38
-0.035960004 -0.19220001 1.302 1.668052e-38
-0.03348 -0.19220001 1.302 1.6405365e-38
-0.031000003 -0.19220001 1.302 1.6405365e-38
-0.028520001 -0.19220001 1.302 1.6405003e-38
-0.026140001 -0.1929381 1.307 1.6497198e-38
-0.023650477 -0.1929381 1.307 1.6681226e-38
-0.021160953 -0.1929381 1.307 1.6957813e-38
-0.0186 -0.19220001 1.302 1.6404637e-38
-0.01612 -0.19220001 1.302 1.6957811e-38
-0.01364 -0.19220001 1.302 1.7050016e-38
-0.01116 -0.19220001 1.302 1.7879777e-38
-0.00868 -0.19220001 1.302 1.7971609e-38
-0.0061761905 -0.19146191 1.2970001 1.8340392e-38
-0.0037057146 -0.19146191 1.2970001 1.8616277e-38
-0.0012304762 -0.19072382 1.2920001 1.9538233e-38
0.0012304762 -0.19072382 1.2920001 1.9538222e-38
0.0036800003 -0.19013335 1.2880001 1.9538222e-38
0.0061333338 -0.19013335 1.2880001 1.9538233e-38
0.0085866675 -0.19013335 1.2880001 1.9907016e-38
0.010911428 -0.18791905 1.273 2.0000306e-38
0.01328381 -0.18718095 1.268 1.9262741e-38
0.015538097 -0.18526192 1.2550001 1.8709906e-38
0.017928572 -0.18526192 1.2550001 1.6958189e-38
-0.060277145 -0.18083143 1.2410001 1.8894294e-38
-0.057493336 -0.17952001 1.2320001 1.9355272e-38
-0.055146672 -0.17952001 1.2320001 1.8987956e-38
-0.052800007 -0.17952001 1.2320001 1.8619173e-38
-0.052910481 -0.18826286 1.2920001 1.8894635e-38
-0.050449528 -0.18826286 1.2920001 1.898683e-38
-0.048174284 -0.18899144 1.2970001 1.8893206e-38
-0.04570381 -0.18899144 1.2970001 1.8616619e-38
-0.043233335 -0.18899144 1.2970001 1.8709187e-38
-0.040920004 -0.18972 1.302 1.8801383e-38
-0.03844 -0.18972 1.302 1.8340042e-38
-0.035960004 -0.18972 1.302 1.8340042e-38
-0.03348 -0.18972 1.302 1.8340039e-38
-0.031000003 -0.18972 1.302 1.8432234e-38
-0.028520001 -0.18972 1.302 1.852443e-38
-0.026140001 -0.19044858 1.307 1.8708821e-38
-0.023650477 -0.19044858 1.307 1.8617347e-38
-0.021160953 -0.19044858 1.307 1.9354912e-38
-0.018671431 -0.19044858 1.307 1.898683e-38
-0.016181905 -0.19044858 1.307 1.815707e-38
-0.013692382 -0.19044858 1.307 1.8432237e-38
-0.010448572 -0.17762573 1.2190001 1.8524433e-38
-0.0081266677 -0.17762573 1.2190001 1.8248928e-38
-0.0058047622 -0.17762573 1.2190001 1.9170884e-38
-0.0034685717 -0.17689715 1.2140001 1.9171587e-38
-0.0011561905 -0.17689715 1.2140001 1.9355979e-38
0.0011609525 -0.17762573 1.2190001 1.9263064e-38
0.0034942857 -0.17820857 1.223 1.870989e-38
0.0058666673 -0.17952001 1.2320001 1.7419544e-38
0.0082133338 -0.17952001 1.2320001 1.6497588e-38
0.010594286 -0.18010285 1.2360001 1.6497235e-38
0.012948572 -0.18010285 1.2360001 1.6128452e-38
0.015302857 -0.18010285 1.2360001 1.6497183e-38
0.017657144 -0.18010285 1.2360001 1.6589378e-38
-0.067585714 -0.17904285 1.245 1.7234748e-38
-0.065214284 -0.17904285 1.245 1.7236232e-38
-0.062842853 -0.17904285 1.245 1.705184e-38
-0.060277145 -0.17846762 1.2410001 1.7420221e-38
-0.057680003 -0.17774859 1.2360001 1.871096e-38
-0.055146672 -0.17717335 1.2320001 1.8343318e-38
-0.052800007 -0.17717335 1.2320001 1.8158927e-38
-0.050453339 -0.17717335 1.2320001 1.898683e-38
-0.047755238 -0.17587905 1.223 1.9355613e-38
-0.045425717 -0.17587905 1.223 1.953788e-38
-0.04570381 -0.18652095 1.2970001 1.9076902e-38
-0.043233335 -0.18652095 1.2970001 1.9445321e-38
-0.04076286 -0.18652095 1.2970001 1.9168734e-38
-0.03844 -0.18724 1.302 1.8707756e-38
-0.035960004 -0.18724 1.302 1.8523365e-38
-0.03348 -0.18724 1.302 1.8521923e-38
-0.030880954 -0.18652095 1.2970001 1.879851e-38
-0.028410478 -0.18652095 1.2970001 1.9076525e-38
-0.026140001 -0.18795906 1.307 1.9076525e-38
-0.021967622 -0.17458478 1.2140001 1.8892852e-38
-0.019655241 -0.17458478 1.2140001 1.9169439e-38
-0.017414287 -0.17530382 1.2190001 1.9446389e-38
-0.015092382 -0.17530382 1.2190001 1.8985411e-38
-0.012770478 -0.17530382 1.2190001 1.8892864e-38
-0.010448572 -0.17530382 1.2190001 1.8431885e-38
-0.0081266677 -0.17530382 1.2190001 1.8064884e-38
-0.0058047622 -0.17530382 1.2190001 1.7972688e-38
-0.0034685717 -0.17458478 1.2140001 1.769757e-38
-0.0011561905 -0.17458478 1.2140001 1.7328788e-38
0.0011609525 -0.17530382 1.2190001 1.7512066e-38
0.0034942857 -0.17587905 1.223 1.7512066e-38
0.0058666673 -0.17717335 1.2320001 1.6225307e-38
0.0082133338 -0.17717335 1.2320001 1.5118959e-38
0.010594286 -0.17774859 1.2360001 1.4564361e-38
0.012948572 -0.17774859 1.2360001 1.4287774e-38
0.015302857 -0.17774859 1.2360001 1.5205696e-38
0.017657144 -0.17774859 1.2360001 1.6127652e-38
-0.067585714 -0.17667143 1.245 1.7326943e-38
-0.065214284 -0.17667143 1.245 1.6591951e-38
-0.062842853 -0.17667143 1.245 1.34573e-38
-0.060277145 -0.17610382 1.2410001 1.3734198e-38
-0.057680003 -0.17539428 1.2360001 1.5670306e-38
-0.055146672 -0.17482668 1.2320001 1.5577789e-38
-0.052800007 -0.17482668 1.2320001 1.4102659e-38
-0.050453339 -0.17482668 1.2320001 1.4838405e-38
-0.047755238 -0.17354953 1.223 1.6866709e-38
-0.045425717 -0.17354953 1.223 1.6956755e-38
-0.043096192 -0.17354953 1.223 1.5942603e-38
-0.040633336 -0.17298192 1.2190001 1.6311026e-38
-0.038154289 -0.1722724 1.2140001 1.7509569e-38
-0.035841908 -0.1722724 1.2140001 1.6774145e-38
-0.035960004 -0.18476 1.302 1.4377059e-38
-0.031114288 -0.17170477 1.21 1.3733871e-38
-0.028809523 -0.17170477 1.21 1.354948e-38
-0.026592383 -0.1722724 1.2140001 1.4837701e-38
-0.02428 -0.1722724 1.2140001 1.7142591e-38
-0.021967622 -0.1722724 1.2140001 1.6773782e-38
-0.019655241 -0.1722724 1.2140001 1.6220608e-38
-0.017414287 -0.17298192 1.2190001 1.6589404e-38
-0.015092382 -0.17298192 1.2190001 1.751136e-38
-0.012770478 -0.17298192 1.2190001 1.6681236e-38
-0.010448572 -0.17298192 1.2190001 1.3085607e-38
-0.0081266677 -0.17298192 1.2190001 1.2902664e-38
-0.0058238097 -0.17354953 1.223 1.4746577e-38
-0.0034828575 -0.17298192 1.2190001 1.4840575e-38
-0.0011609525 -0.17298192 1.2190001 1.4010814e-38
0.001164762 -0.17354953 1.223 1.3920377e-38
0.0035057145 -0.17411715 1.2270001 1.428916e-38
0.0058666673 -0.17482668 1.2320001 1.4841654e-38
0.0082133338 -0.17482668 1.2320001 1.5948001e-38
0.010560001 -0.17482668 1.2320001 1.5117511e-38
0.012906668 -0.17482668 1.2320001 1.1798468e-38
0.015253334 -0.17482668 1.2320001 1.2717917e-38
0.017600002 -0.17482668 1.2320001 1.5760373e-38
-0.067368567 -0.17374 1.2410001 1.7327299e-38
-0.065004766 -0.17374 1.2410001 1.6224954e-38
-0.062842853 -0.1743 1.245 1.0969803e-38
-0.060277145 -0.17374 1.2410001 1.161477e-38
-0.057913333 -0.17374 1.2410001 1.30899e-38
-0.055325717 -0.17304002 1.2360001 1.5486296e-38
-0.052800007 -0.17248002 1.2320001 1.4287753e-38
-0.050453339 -0.17248002 1.2320001 1.4286685e-38
-0.047911432 -0.17178002 1.2270001 1.6130597e-38
-0.045425717 -0.17122 1.223 1.6313194e-38
-0.043096192 -0.17122 1.223 1.3823912e-38
-0.040633336 -0.17066 1.2190001 1.4650749e-38
-0.038154289 -0.16996002 1.2140001 1.548051e-38
-0.035841908 -0.16996002 1.2140001 1.5026048e-38
-0.033529524 -0.16996002 1.2140001 1.2997744e-38
-0.031114288 -0.16940001 1.21 7.9402924e-39
-0.028809523 -0.16940001 1.21 9.2310312e-39
-0.026592383 -0.16996002 1.2140001 1.2445973e-38
-0.02428 -0.16996002 1.2140001 1.5857211e-38
-0.021967622 -0.16996002 1.2140001 1.5671403e-38
-0.019655241 -0.16996002 1.2140001 1.4288469e-38
-0.017414287 -0.17066 1.2190001 1.4839119e-38
-0.015092382 -0.17066 1.2190001 1.5484488e-38
-0.012770478 -0.17066 1.2190001 1.5761075e-38
-0.010448572 -0.17066 1.2190001 1.2718619e-38
-0.0081533343 -0.17122 1.223 1.2164707e-38
-0.0058428575 -0.17178002 1.2270001 1.5668141e-38
-0.0034942857 -0.17122 1.223 1.5118227e-38
-0.001164762 -0.17122 1.223 1.1799184e-38
0.0011685715 -0.17178002 1.2270001 1.0881544e-38
0.0035200003 -0.17248002 1.2320001 1.115813e-38
0.0058666673 -0.17248002 1.2320001 1.5116059e-38
0.0082133338 -0.17248002 1.2320001 1.6222406e-38
0.010560001 -0.17248002 1.2320001 1.6035884e-38
0.012906668 -0.17248002 1.2320001 1.2163667e-38
0.015253334 -0.17248002 1.2320001 1.2442357e-38
0.017600002 -0.17248002 1.2320001 1.5023835e-38
-0.067368567 -0.1713762 1.2410001 1.7050344e-38
-0.065004766 -0.1713762 1.2410001 1.558064e-38
-0.062842853 -0.17192857 1.245 9.9567062e-39
-0.060277145 -0.1713762 1.2410001 8.9504969e-39
-0.057913333 -0.1713762 1.2410001 9.2270838e-39
-0.055325717 -0.17068571 1.2360001 1.2998433e-38
-0.05297143 -0.17068571 1.2360001 1.6594063e-38
-0.050453339 -0.17013335 1.2320001 1.6959639e-38
-0.047911432 -0.16944288 1.2270001 1.5945487e-38
-0.045574289 -0.16944288 1.2270001 1.4008309e-38
-0.043096192 -0.16889048 1.223 1.1150244e-38
-0.040766668 -0.16889048 1.223 1.1518644e-38
-0.038154289 -0.16764763 1.2140001 1.3639143e-38
-0.035841908 -0.16764763 1.2140001 1.3548416e-38
-0.033529524 -0.16764763 1.2140001 1.5023546e-38
-0.031217147 -0.16764763 1.2140001 1.4105154e-38
-0.028904764 -0.16764763 1.2140001 1.3736371e-38
-0.026592383 -0.16764763 1.2140001 1.4288466e-38
-0.02428 -0.16764763 1.2140001 1.4657248e-38
-0.021967622 -0.16764763 1.2140001 1.2536773e-38
-0.019655241 -0.16764763 1.2140001 1.1799208e-38
-0.017414287 -0.16833812 1.2190001 1.2167274e-38
-0.015092382 -0.16833812 1.2190001 1.3826796e-38
-0.012770478 -0.16833812 1.2190001 1.4194835e-38
-0.010448572 -0.16833812 1.2190001 1.5116792e-38
-0.0081533343 -0.16889048 1.223 1.5301173e-38
-0.0058428575 -0.16944288 1.2270001 1.557776e-38
-0.0035057145 -0.16944288 1.2270001 1.3831046e-38
-0.0011685715 -0.16944288 1.2270001 7.6539385e-39
0.0011733334 -0.17013335 1.2320001 7.4760927e-39
0.0035200003 -0.17013335 1.2320001 7.2917014e-39
0.0058666673 -0.17013335 1.2320001 1.1523666e-38
0.0082400003 -0.17068571 1.2360001 1.5119296e-38
0.010594286 -0.17068571 1.2360001 1.5024589e-38
0.012948572 -0.17068571 1.2360001 1.0967981e-38
0.015302857 -0.17068571 1.2360001 1.2443109e-38
0.017657144 -0.17068571 1.2360001 1.4655804e-38
0.020011429 -0.17068571 1.2360001 1.5206421e-38
-0.067368567 -0.1690124 1.2410001 1.7418773e-38
-0.065004766 -0.1690124 1.2410001 1.4845958e-38
-0.062842853 -0.16955714 1.245 9.498612e-39
-0.060277145 -0.1690124 1.2410001 6.9254524e-39
-0.057913333 -0.1690124 1.2410001 6.4644743e-39
-0.055325717 -0.16833144 1.2360001 1.0327979e-38
-0.05297143 -0.16833144 1.2360001 1.6320695e-38
-0.050453339 -0.16778667 1.2320001 1.723698e-38
-0.047911432 -0.16710572 1.2270001 1.4563307e-38
-0.045574289 -0.16710572 1.2270001 1.2167248e-38
-0.043096192 -0.16656096 1.223 1.0046748e-38
-0.040766668 -0.16656096 1.223 1.0690293e-38
-0.038154289 -0.16533525 1.2140001 1.096688e-38
-0.035841908 -0.16533525 1.2140001 1.4097225e-38
-0.033529524 -0.16533525 1.2140001 1.6217725e-38
-0.031217147 -0.16533525 1.2140001 1.6311009e-38
-0.028904764 -0.16533525 1.2140001 1.6218813e-38
-0.026701907 -0.16601621 1.2190001 1.4840926e-38
-0.024380002 -0.16601621 1.2190001 1.2628231e-38
-0.022058096 -0.16601621 1.2190001 1.1525115e-38
-0.019736191 -0.16601621 1.2190001 1.143292e-38
-0.017414287 -0.16601621 1.2190001 1.1249613e-38
-0.015092382 -0.16601621 1.2190001 1.1249613e-38
-0.012770478 -0.16601621 1.2190001 1.3734563e-38
-0.010482857 -0.16656096 1.223 1.5670672e-38
-0.0081533343 -0.16656096 1.223 1.6039128e-38
-0.0058428575 -0.16710572 1.2270001 1.4840585e-38
-0.0035057145 -0.16710572 1.2270001 1.1160654e-38
-0.0011685715 -0.16710572 1.2270001 7.7494159e-39
0.0011733334 -0.16778667 1.2320001 7.4775248e-39
0.0035200003 -0.16778667 1.2320001 7.2009379e-39
0.0058666673 -0.16778667 1.2320001 8.855025e-39
0.0082400003 -0.16833144 1.2360001 1.3557002e-38
0.010594286 -0.16833144 1.2360001 1.3368328e-38
0.012948572 -0.16833144 1.2360001 1.143222e-38
0.015302857 -0.16833144 1.2360001 1.2811155e-38
0.017657144 -0.16833144 1.2360001 1.4747264e-38
0.020011429 -0.16833144 1.2360001 1.4929479e-38
-0.067585714 -0.16718571 1.245 1.7510969e-38
-0.065214284 -0.16718571 1.245 1.5673921e-38
-0.062842853 -0.16718571 1.245 1.1986096e-38
-0.060471427 -0.16718571 1.245 6.926907e-39
-0.057913333 -0.16664857 1.2410001 5.7283638e-39
-0.055325717 -0.16597714 1.2360001 8.9472515e-39
-0.05297143 -0.16597714 1.2360001 1.3649229e-38
-0.050617144 -0.16597714 1.2360001 1.5578489e-38
-0.047911432 -0.16476859 1.2270001 1.1060903e-38
-0.045574289 -0.16476859 1.2270001 1.0876865e-38
-0.043096192 -0.16423143 1.223 1.0047104e-38
-0.040766668 -0.16423143 1.223 1.0598497e-38
-0.038311433 -0.16369429 1.2190001 1.0045323e-38
-0.035989527 -0.16369429 1.2190001 1.0964052e-38
-0.03366762 -0.16369429 1.2190001 1.437529e-38
-0.031345718 -0.16369429 1.2190001 1.5574873e-38
-0.029023811 -0.16369429 1.2190001 1.585146e-38
-0.026789526 -0.16423143 1.223 1.4104077e-38
-0.024380002 -0.16369429 1.2190001 1.1614795e-38
-0.022058096 -0.16369429 1.2190001 1.1158147e-38
-0.019736191 -0.16369429 1.2190001 1.1250343e-38
-0.017471429 -0.16423143 1.223 1.1066301e-38
-0.015141904 -0.16423143 1.223 1.0697518e-38
-0.012812382 -0.16423143 1.223 1.2075788e-38
-0.010482857 -0.16423143 1.223 1.4933852e-38
-0.0081533343 -0.16423143 1.223 1.4566135e-38
-0.0058428575 -0.16476859 1.2270001 1.0417331e-38
-0.0035057145 -0.16476859 1.2270001 7.3821118e-39
-0.0011733334 -0.16544002 1.2320001 7.1977205e-39
0.0011733334 -0.16544002 1.2320001 6.6488501e-39
0.0035200003 -0.16544002 1.2320001 7.0176326e-39
0.0058857147 -0.16597714 1.2360001 9.7741409e-39
0.0082400003 -0.16597714 1.2360001 1.4568314e-38
0.010594286 -0.16597714 1.2360001 1.4380664e-38
0.012948572 -0.16597714 1.2360001 1.2260165e-38
0.015364763 -0.16664857 1.2410001 1.2996635e-38
0.017728573 -0.16664857 1.2410001 1.437957e-38
0.020092381 -0.16664857 1.2410001 1.4838005e-38
-0.067857139 -0.16547619 1.25 1.7511325e-38
-0.065476187 -0.16547619 1.25 1.6409681e-38
-0.062842853 -0.16481429 1.245 1.3551617e-38
-0.060471427 -0.16481429 1.245 8.5831759e-39
-0.057913333 -0.16428477 1.2410001 6.0938939e-39
-0.055549525 -0.16428477 1.2410001 6.9235859e-39
-0.05297143 -0.16362287 1.2360001 1.3192889e-38
-0.050617144 -0.16362287 1.2360001 1.4476143e-38
-0.04810667 -0.16309334 1.2320001 1.0235144e-38
-0.045574289 -0.16243143 1.2270001 1.0968358e-38
-0.04323715 -0.16243143 1.2270001 1.1429336e-38
-0.040766668 -0.16190191 1.223 1.1613009e-38
-0.038437143 -0.16190191 1.223 1.0414466e-38
-0.036107622 -0.16190191 1.223 1.0505211e-38
-0.033778097 -0.16190191 1.223 1.3639862e-38
-0.031345718 -0.16137239 1.2190001 1.3918241e-38
-0.029023811 -0.16137239 1.2190001 1.4932393e-38
-0.026789526 -0.16190191 1.223 1.2262697e-38
-0.024460001 -0.16190191 1.223 1.1248545e-38
-0.022058096 -0.16137239 1.2190001 1.1342539e-38
-0.019736191 -0.16137239 1.2190001 1.1250343e-38
-0.017471429 -0.16190191 1.223 1.0054667e-38
-0.015141904 -0.16190191 1.223 1.0146862e-38
-0.012812382 -0.16190191 1.223 1.143292e-38
-0.010482857 -0.16190191 1.223 1.4567571e-38
-0.0081533343 -0.16190191 1.223 1.3922957e-38
-0.0058666673 -0.16309334 1.2320001 1.0327327e-38
-0.0035200003 -0.16309334 1.2320001 6.4630169e-39
-0.0011733334 -0.16309334 1.2320001 6.3708213e-39
0.001177143 -0.16362287 1.2360001 5.913394e-39
0.0035314288 -0.16362287 1.2360001 6.927546e-39
0.0058857147 -0.16362287 1.2360001 9.9595901e-39
0.0082733333 -0.16428477 1.2410001 1.4569372e-38
0.010637144 -0.16428477 1.2410001 1.4471802e-38
0.013000953 -0.16428477 1.2410001 1.2812281e-38
0.015364763 -0.16428477 1.2410001 1.345654e-38
0.017728573 -0.16428477 1.2410001 1.4562888e-38
-0.067857139 -0.16309524 1.25 1.7879389e-38
-0.065476187 -0.16309524 1.25 1.6868113e-38
-0.062842853 -0.16244286 1.245 1.5946157e-38
-0.060471427 -0.16244286 1.245 9.68669e-39
-0.0581 -0.16244286 1.245 7.5661905e-39
-0.055549525 -0.16192096 1.2410001 9.1327497e-39
-0.053185716 -0.16192096 1.2410001 1.5217661e-38
-0.050617144 -0.16126858 1.2360001 1.6593359e-38
-0.04810667 -0.16074668 1.2320001 1.3827491e-38
-0.045574289 -0.16009429 1.2270001 1.1523725e-38
-0.04323715 -0.16009429 1.2270001 1.1062747e-38
-0.040900003 -0.16009429 1.2270001 1.0324799e-38
-0.038437143 -0.15957239 1.223 1.0232604e-38
-0.036107622 -0.15957239 1.223 1.1150241e-38
-0.033778097 -0.15957239 1.223 1.3731719e-38
-0.031448569 -0.15957239 1.223 1.4931305e-38
-0.029119048 -0.15957239 1.223 1.5853261e-38
-0.026877144 -0.16009429 1.2270001 1.3827502e-38
-0.024460001 -0.15957239 1.223 1.1707002e-38
-0.022130478 -0.15957239 1.223 1.1157791e-38
-0.019865716 -0.16009429 1.2270001 1.1526574e-38
-0.017471429 -0.15957239 1.223 1.1251422e-38
-0.015141904 -0.15957239 1.223 1.1343618e-38
-0.012854287 -0.16009429 1.2270001 1.2720801e-38
-0.010517144 -0.16009429 1.2270001 1.5671061e-38
-0.0081800008 -0.16009429 1.2270001 1.5210096e-38
-0.0058666673 -0.16074668 1.2320001 1.4103748e-38
-0.0035200003 -0.16074668 1.2320001 8.2122732e-39
-0.001177143 -0.16126858 1.2360001 6.5527519e-39
0.001177143 -0.16126858 1.2360001 7.5682827e-39
0.0035314288 -0.16126858 1.2360001 1.1348304e-38
0.0059095239 -0.16192096 1.2410001 1.4290248e-38
0.0082733333 -0.16192096 1.2410001 1.6410748e-38
0.010637144 -0.16192096 1.2410001 1.5855073e-38
0.013000953 -0.16192096 1.2410001 1.401116e-38
0.015364763 -0.16192096 1.2410001 1.4378869e-38
0.017728573 -0.16192096 1.2410001 1.4563261e-38
0.020157143 -0.16244286 1.245 1.483838e-38
-0.067857139 -0.16071428 1.25 1.7325492e-38
-0.065476187 -0.16071428 1.25 1.6311359e-38
-0.063095234 -0.16071428 1.25 1.6495751e-38
-0.060471427 -0.16007142 1.245 1.3923678e-38
-0.0581 -0.16007142 1.245 1.198757e-38
-0.05572857 -0.16007142 1.245 1.2815165e-38
-0.053185716 -0.15955715 1.2410001 1.6134207e-38
-0.050617144 -0.1589143 1.2360001 1.7511727e-38
-0.04810667 -0.15840001 1.2320001 1.6497575e-38
-0.045574289 -0.15775716 1.2270001 1.2538255e-38
-0.04323715 -0.15775716 1.2270001 1.0602147e-38
-0.040900003 -0.15775716 1.2270001 9.9559621e-39
-0.038437143 -0.15724286 1.223 1.041694e-38
-0.036107622 -0.15724286 1.223 1.1426828e-38
-0.033888575 -0.15775716 1.2270001 1.4561479e-38
-0.031551428 -0.15775716 1.2270001 1.5481974e-38
-0.029214289 -0.15775716 1.2270001 1.5758561e-38
-0.026877144 -0.15775716 1.2270001 1.4380678e-38
-0.024540002 -0.15775716 1.2270001 1.2628961e-38
-0.022202859 -0.15775716 1.2270001 1.0697892e-38
-0.019865716 -0.15775716 1.2270001 1.1066675e-38
-0.017528573 -0.15775716 1.2270001 1.1251045e-38
-0.015191429 -0.15775716 1.2270001 1.1712023e-38
-0.012854287 -0.15775716 1.2270001 1.4010101e-38
-0.010517144 -0.15775716 1.2270001 1.5485231e-38
-0.0081800008 -0.15775716 1.2270001 1.5668882e-38
-0.0058666673 -0.15840001 1.2320001 1.53001e-38
-0.0035200003 -0.15840001 1.2320001 1.1989004e-38
-0.001177143 -0.1589143 1.2360001 7.8402004e-39
0.001177143 -0.1589143 1.2360001 8.7624762e-39
0.0035457143 -0.15955715 1.2410001 1.3464453e-38
0.0059095239 -0.15955715 1.2410001 1.4933838e-38
0.0082999999 -0.16007142 1.245 1.5579208e-38
0.010671428 -0.16007142 1.245 1.5671064e-38
0.013042857 -0.16007142 1.245 1.428813e-38
0.015414285 -0.16007142 1.245 1.4562535e-38
0.017785713 -0.16007142 1.245 1.4470339e-38
0.020157143 -0.16007142 1.245 1.4654352e-38
-0.065476187 -0.15833333 1.25 1.5575252e-38
-0.063095234 -0.15833333 1.25 1.5022078e-38
-0.060471427 -0.1577 1.245 1.4565445e-38
-0.0581 -0.1577 1.245 1.6685945e-38
-0.05572857 -0.1577 1.245 1.6778111e-38
-0.053185716 -0.15719333 1.2410001 1.5395176e-38
-0.050617144 -0.15656 1.2360001 1.6592631e-38
-0.04810667 -0.15605335 1.2320001 1.7145805e-38
-0.045574289 -0.15542001 1.2270001 1.4932458e-38
-0.04323715 -0.15542001 1.2270001 1.3088545e-38
-0.040900003 -0.15542001 1.2270001 1.2904787e-38
-0.03856286 -0.15542001 1.2270001 1.3457961e-38
-0.036225718 -0.15542001 1.2270001 1.4747652e-38
-0.033888575 -0.15542001 1.2270001 1.5485217e-38
-0.031551428 -0.15542001 1.2270001 1.4194835e-38
-0.029214289 -0.15542001 1.2270001 1.345727e-38
-0.026986668 -0.15605335 1.2320001 1.3918984e-38
-0.024540002 -0.15542001 1.2270001 1.5301919e-38
-0.022202859 -0.15542001 1.2270001 1.3827841e-38
-0.019946668 -0.15605335 1.2320001 1.2260515e-38
-0.017528573 -0.15542001 1.2270001 1.2261978e-38
-0.015191429 -0.15542001 1.2270001 1.4566869e-38
-0.012854287 -0.15542001 1.2270001 1.4748379e-38
-0.010517144 -0.15542001 1.2270001 1.3181053e-38
-0.0081800008 -0.15542001 1.2270001 1.4838721e-38
-0.0058666673 -0.15605335 1.2320001 1.6498242e-38
-0.0035200003 -0.15605335 1.2320001 1.4657272e-38
-0.001177143 -0.15656 1.2360001 1.3827512e-38
0.001177143 -0.15656 1.2360001 1.4107312e-38
0.0035457143 -0.15719333 1.2410001 1.5121464e-38
0.0059095239 -0.15719333 1.2410001 1.3737824e-38
0.0082999999 -0.1577 1.245 1.2262694e-38
0.010671428 -0.1577 1.245 1.428848e-38
0.013042857 -0.1577 1.245 1.4565067e-38
0.015414285 -0.1577 1.245 1.4469973e-38
0.017728573 -0.15719333 1.2410001 1.4469973e-38
0.020092381 -0.15719333 1.2410001 1.4745829e-38
-0.068345711 -0.15707524 1.2590001 1.6957435e-38
-0.065738104 -0.1565762 1.2550001 1.5024589e-38
-0.063095234 -0.15595238 1.25 1.4010437e-38
-0.060714286 -0.15595238 1.25 1.4564687e-38
-0.0581 -0.15532857 1.245 1.7330556e-38
-0.05572857 -0.15532857 1.245 1.7054364e-38
-0.053185716 -0.15482953 1.2410001 1.3366539e-38
-0.050617144 -0.15420572 1.2360001 1.3734929e-38
-0.04810667 -0.15370668 1.2320001 1.4656885e-38
-0.045574289 -0.15308286 1.2270001 1.6498667e-38
-0.04323715 -0.15308286 1.2270001 1.5207928e-38
-0.040900003 -0.15308286 1.2270001 1.3731709e-38
-0.03856286 -0.15308286 1.2270001 1.539123e-38
-0.036225718 -0.15308286 1.2270001 1.5762178e-38
-0.033888575 -0.15308286 1.2270001 1.4010461e-38
-0.031551428 -0.15308286 1.2270001 1.216798e-38
-0.029214289 -0.15308286 1.2270001 1.2075785e-38
-0.026986668 -0.15370668 1.2320001 1.3918236e-38
-0.024640001 -0.15370668 1.2320001 1.5208975e-38
-0.022293337 -0.15370668 1.2320001 1.4933122e-38
-0.019946668 -0.15370668 1.2320001 1.4011166e-38
-0.017600002 -0.15370668 1.2320001 1.3367275e-38
-0.015253334 -0.15370668 1.2320001 1.4658014e-38
-0.012906668 -0.15370668 1.2320001 1.4840222e-38
-0.010560001 -0.15370668 1.2320001 1.1060201e-38
-0.0082133338 -0.15370668 1.2320001 1.2162874e-38
-0.0058666673 -0.15370668 1.2320001 1.455996e-38
-0.0035314288 -0.15420572 1.2360001 1.6036217e-38
-0.001177143 -0.15420572 1.2360001 1.6497195e-38
0.001177143 -0.15420572 1.2360001 1.5395203e-38
0.0035457143 -0.15482953 1.2410001 1.4842029e-38
0.0059285713 -0.15532857 1.245 1.2635782e-38
0.0082999999 -0.15532857 1.245 1.1713825e-38
0.010671428 -0.15532857 1.245 1.3829304e-38
0.013042857 -0.15532857 1.245 1.4105891e-38
0.015364763 -0.15482953 1.2410001 1.3916421e-38
0.017728573 -0.15482953 1.2410001 1.4653986e-38
0.020092381 -0.15482953 1.2410001 1.4746185e-38
-0.07124953 -0.15578286 1.268 1.6865239e-38
-0.068345711 -0.15467715 1.2590001 1.6865239e-38
-0.065738104 -0.15418573 1.2550001 1.5393369e-38
-0.063095234 -0.15357143 1.25 1.2074326e-38
-0.060714286 -0.15357143 1.25 1.4196961e-38
-0.058333334 -0.15357143 1.25 1.6686243e-38
-0.05572857 -0.15295714 1.245 1.6040902e-38
-0.053357143 -0.15295714 1.245 1.3090642e-38
-0.050821908 -0.15246572 1.2410001 1.2724038e-38
-0.04810667 -0.15136001 1.2320001 1.2724038e-38
-0.045760002 -0.15136001 1.2320001 1.4564321e-38
-0.04323715 -0.15074573 1.2270001 1.650043e-38
-0.040900003 -0.15074573 1.2270001 1.6038049e-38
-0.03856286 -0.15074573 1.2270001 1.5761462e-38
-0.036225718 -0.15074573 1.2270001 1.3827512e-38
-0.033888575 -0.15074573 1.2270001 9.9552951e-39
-0.031551428 -0.15074573 1.2270001 7.5639821e-39
-0.029214289 -0.15074573 1.2270001 7.0108083e-39
-0.026986668 -0.15136001 1.2320001 9.5893628e-39
-0.024640001 -0.15136001 1.2320001 1.2724014e-38
-0.022293337 -0.15136001 1.2320001 1.4471059e-38
-0.019946668 -0.15136001 1.2320001 1.6591559e-38
-0.017600002 -0.15136001 1.2320001 1.5392329e-38
-0.015253334 -0.15136001 1.2320001 1.3271829e-38
-0.012906668 -0.15136001 1.2320001 1.1796687e-38
-0.010560001 -0.15136001 1.2320001 1.1059122e-38
-0.0082133338 -0.15136001 1.2320001 1.1427855e-38
-0.0058857147 -0.15185143 1.2360001 1.1796638e-38
-0.0035314288 -0.15185143 1.2360001 1.336145e-38
-0.0011819048 -0.15246572 1.2410001 1.714147e-38
0.0011819048 -0.15246572 1.2410001 1.5579231e-38
0.003557143 -0.15295714 1.245 1.3089949e-38
0.0059285713 -0.15295714 1.245 1.1622711e-38
0.0082999999 -0.15295714 1.245 1.1530516e-38
0.010671428 -0.15295714 1.245 1.3830009e-38
0.013042857 -0.15295714 1.245 1.4567574e-38
0.015364763 -0.15246572 1.2410001 1.4193377e-38
0.017728573 -0.15246572 1.2410001 1.4838746e-38
0.020092381 -0.15246572 1.2410001 1.5022409e-38
-0.07124953 -0.15336761 1.268 1.6589018e-38
-0.068345711 -0.15227905 1.2590001 1.6773409e-38
-0.065738104 -0.15179525 1.2550001 1.5946173e-38
-0.063347623 -0.15179525 1.2550001 1.3549086e-38
-0.060714286 -0.15119047 1.25 1.4105484e-38
-0.058333334 -0.15119047 1.25 1.6318179e-38
-0.055952381 -0.15119047 1.25 1.5029285e-38
-0.053357143 -0.15058571 1.245 1.3000981e-38
-0.050821908 -0.15010192 1.2410001 1.2449252e-38
-0.048262861 -0.14949715 1.2360001 1.2172665e-38
-0.045760002 -0.14901336 1.2320001 1.2815481e-38
-0.043413337 -0.14901336 1.2320001 1.5673546e-38
-0.040900003 -0.14840858 1.2270001 1.5947664e-38
-0.03856286 -0.14840858 1.2270001 1.4656925e-38
-0.036225718 -0.14840858 1.2270001 1.1434731e-38
-0.033888575 -0.14840858 1.2270001 7.6547106e-39
-0.031551428 -0.14840858 1.2270001 5.911641e-39
-0.029214289 -0.14840858 1.2270001 5.911641e-39
-0.026986668 -0.14901336 1.2320001 7.1050975e-39
-0.024640001 -0.14901336 1.2320001 8.4880319e-39
-0.022293337 -0.14901336 1.2320001 1.3456184e-38
-0.019946668 -0.14901336 1.2320001 1.6314249e-38
-0.017600002 -0.14901336 1.2320001 1.5667847e-38
-0.015253334 -0.14901336 1.2320001 1.1242456e-38
-0.012906668 -0.14901336 1.2320001 1.1518292e-38
-0.010560001 -0.14901336 1.2320001 1.1241705e-38
-0.0082133338 -0.14901336 1.2320001 1.0136416e-38
-0.0058857147 -0.14949715 1.2360001 1.0966176e-38
-0.0035314288 -0.14949715 1.2360001 1.1243451e-38
-0.0011819048 -0.15010192 1.2410001 1.7051776e-38
0.0011819048 -0.15010192 1.2410001 1.5671437e-38
0.003557143 -0.15058571 1.245 1.2628981e-38
0.0059285713 -0.15058571 1.245 1.1254632e-38
0.0082999999 -0.15058571 1.245 1.1623415e-38
0.010671428 -0.15058571 1.245 1.4104801e-38
0.013042857 -0.15058571 1.245 1.475017e-38
0.015414285 -0.15058571 1.245 1.4193727e-38
0.017785713 -0.15058571 1.245 1.4839096e-38
-0.07124953 -0.15095238 1.268 1.6680505e-38
-0.068617143 -0.15047619 1.2640001 1.6680505e-38
-0.065738104 -0.14940478 1.2550001 1.6037993e-38
-0.063347623 -0.14940478 1.2550001 1.3917493e-38
-0.060714286 -0.14880952 1.25 1.5024216e-38
-0.058333334 -0.14880952 1.25 1.8251063e-38
-0.055952381 -0.14880952 1.25 1.6317839e-38
-0.053357143 -0.14821428 1.245 1.355197e-38
-0.050985713 -0.14821428 1.245 1.2173748e-38
-0.048262861 -0.14714286 1.2360001 1.1897161e-38
-0.045760002 -0.14666668 1.2320001 1.2725096e-38
-0.043413337 -0.14666668 1.2320001 1.4569009e-38
-0.041066669 -0.14666668 1.2320001 1.539519e-38
-0.03856286 -0.14607145 1.2270001 1.2813713e-38
-0.036225718 -0.14607145 1.2270001 1.0053955e-38
-0.033888575 -0.14607145 1.2270001 7.1958904e-39
-0.031551428 -0.14607145 1.2270001 6.2800802e-39
-0.029214289 -0.14607145 1.2270001 6.095689e-39
-0.026986668 -0.14666668 1.2320001 6.4633701e-39
-0.024640001 -0.14666668 1.2320001 6.3711744e-39
-0.022293337 -0.14666668 1.2320001 1.1334983e-38
-0.019946668 -0.14666668 1.2320001 1.603696e-38
-0.017600002 -0.14666668 1.2320001 1.5391917e-38
-0.015302857 -0.14714286 1.2360001 1.0874331e-38
-0.012948572 -0.14714286 1.2360001 1.050704e-38
-0.010594286 -0.14714286 1.2360001 1.0783626e-38
-0.0082400003 -0.14714286 1.2360001 1.0506314e-38
-0.0058857147 -0.14714286 1.2360001 1.0967292e-38
-0.0035314288 -0.14714286 1.2360001 1.1702686e-38
-0.0011819048 -0.1477381 1.2410001 1.7142228e-38
0.0011819048 -0.1477381 1.2410001 1.5764322e-38
0.0035457143 -0.1477381 1.2410001 1.2906257e-38
0.0059285713 -0.14821428 1.245 1.217408e-38
0.0082999999 -0.14821428 1.245 1.3464819e-38
0.010671428 -0.14821428 1.245 1.5395517e-38
0.013042857 -0.14821428 1.245 1.5672104e-38
0.015414285 -0.14821428 1.245 1.5575577e-38
0.017785713 -0.14821428 1.245 1.5667772e-38
-0.068617143 -0.14806858 1.2640001 1.6404637e-38
-0.065738104 -0.1470143 1.2550001 1.6221665e-38
-0.063347623 -0.1470143 1.2550001 1.5391904e-38
-0.060714286 -0.14642857 1.25 1.6126615e-38
-0.058333334 -0.14642857 1.25 1.8062723e-38
-0.055952381 -0.14642857 1.25 1.6593347e-38
-0.053357143 -0.14584285 1.245 1.4472847e-38
-0.050985713 -0.14584285 1.245 1.1806761e-38
-0.048458096 -0.14537428 1.2410001 1.1530174e-38
-0.045908574 -0.14478858 1.2360001 1.2357387e-38
-0.043413337 -0.14432001 1.2320001 1.4846669e-38
-0.041066669 -0.14432001 1.2320001 1.5028941e-38
-0.038720001 -0.14432001 1.2320001 1.3092833e-38
-0.036225718 -0.14373431 1.2270001 9.6869801e-39
-0.033888575 -0.14373431 1.2270001 7.2898937e-39
-0.031551428 -0.14373431 1.2270001 7.0161935e-39
-0.029214289 -0.14373431 1.2270001 6.7396066e-39
-0.026986668 -0.14432001 1.2320001 6.3708213e-39
-0.024640001 -0.14432001 1.2320001 6.3708213e-39
-0.022293337 -0.14432001 1.2320001 1.01393e-38
-0.019946668 -0.14432001 1.2320001 1.5486646e-38
-0.017600002 -0.14432001 1.2320001 1.3734224e-38
-0.015302857 -0.14478858 1.2360001 1.0322986e-38
-0.012948572 -0.14478858 1.2360001 1.0230074e-38
-0.010594286 -0.14478858 1.2360001 1.0506661e-38
-0.0082400003 -0.14478858 1.2360001 1.0505924e-38
-0.0058857147 -0.14478858 1.2360001 1.1335685e-38
-0.0035314288 -0.14478858 1.2360001 1.1979276e-38
-0.0011819048 -0.14537428 1.2410001 1.6589057e-38
0.0011819048 -0.14537428 1.2410001 1.5948703e-38
0.0035457143 -0.14537428 1.2410001 1.3736008e-38
0.0059285713 -0.14584285 1.245 1.2540716e-38
0.0082999999 -0.14584285 1.245 1.4015846e-38
0.010714286 -0.14642857 1.25 1.5670681e-38
0.013095238 -0.14642857 1.25 1.5394095e-38
0.01547619 -0.14642857 1.25 1.4839109e-38
0.017857142 -0.14642857 1.25 1.4839109e-38
-0.068617143 -0.14566095 1.2640001 1.6127674e-38
-0.065947622 -0.14508477 1.2590001 1.6220939e-38
-0.063549526 -0.14508477 1.2590001 1.7696069e-38
-0.060957149 -0.14462382 1.2550001 1.6961045e-38
-0.058333334 -0.14404762 1.25 1.6131284e-38
-0.055952381 -0.14404762 1.25 1.6040874e-38
-0.053357143 -0.14347143 1.245 1.6409656e-38
-0.050985713 -0.14347143 1.245 1.3830386e-38
-0.048458096 -0.14301048 1.2410001 1.3185016e-38
-0.046094287 -0.14301048 1.2410001 1.4196986e-38
-0.043554287 -0.14243428 1.2360001 1.622529e-38
-0.041066669 -0.14197333 1.2320001 1.6407182e-38
-0.038720001 -0.14197333 1.2320001 1.5485225e-38
-0.03637334 -0.14197333 1.2320001 1.2908094e-38
-0.034026671 -0.14197333 1.2320001 8.6670955e-39
-0.031680003 -0.14197333 1.2320001 6.923279e-39
-0.029333336 -0.14197333 1.2320001 6.2779096e-39
-0.027074287 -0.14243428 1.2360001 7.9334681e-39
-0.02472 -0.14243428 1.2360001 1.0975924e-38
-0.022365715 -0.14243428 1.2360001 1.4194126e-38
-0.020011429 -0.14243428 1.2360001 1.6775604e-38
-0.017657144 -0.14243428 1.2360001 1.5945094e-38
-0.015302857 -0.14243428 1.2360001 1.3087029e-38
-0.012948572 -0.14243428 1.2360001 1.0876175e-38
-0.010594286 -0.14243428 1.2360001 1.0507393e-38
-0.0082400003 -0.14243428 1.2360001 1.115058e-38
-0.0058857147 -0.14243428 1.2360001 1.4193036e-38
-0.0035457143 -0.14301048 1.2410001 1.4471073e-38
-0.0011819048 -0.14301048 1.2410001 1.5024247e-38
0.0011819048 -0.14301048 1.2410001 1.5579893e-38
0.003557143 -0.14347143 1.245 1.5672088e-38
0.0059285713 -0.14347143 1.245 1.576429e-38
0.0082999999 -0.14347143 1.245 1.511892e-38
0.010714286 -0.14404762 1.25 1.4563261e-38
0.013095238 -0.14404762 1.25 1.3456913e-38
0.01547619 -0.14404762 1.25 1.4468175e-38
0.017785713 -0.14347143 1.245 1.4652567e-38
0.020157143 -0.14347143 1.245 1.4929141e-38
-0.068617143 -0.14325333 1.2640001 1.594328e-38
-0.065947622 -0.14268668 1.2590001 1.5944352e-38
-0.063549526 -0.14268668 1.2590001 1.7880461e-38
-0.060957149 -0.14223334 1.2550001 1.7147623e-38
-0.058566671 -0.14223334 1.2550001 1.3091016e-38
-0.055952381 -0.14166667 1.25 1.4288043e-38
-0.053571429 -0.14166667 1.25 1.5855368e-38
-0.050985713 -0.1411 1.245 1.5486296e-38
-0.048614286 -0.1411 1.245 1.4933122e-38
-0.046094287 -0.14064667 1.2410001 1.5669269e-38
-0.043554287 -0.14008002 1.2360001 1.6775617e-38
-0.041200001 -0.14008002 1.2360001 1.732588e-38
-0.038720001 -0.13962668 1.2320001 1.6403924e-38
-0.03637334 -0.13962668 1.2320001 1.4749836e-38
-0.034026671 -0.13962668 1.2320001 1.1338598e-38
-0.031680003 -0.13962668 1.2320001 7.4760871e-39
-0.029333336 -0.13962668 1.2320001 6.5541308e-39
-0.027074287 -0.14008002 1.2360001 8.8521748e-39
-0.02472 -0.14008002 1.2360001 1.3000978e-38
-0.022365715 -0.14008002 1.2360001 1.5573834e-38
-0.020011429 -0.14008002 1.2360001 1.6311399e-38
-0.017657144 -0.14008002 1.2360001 1.6036936e-38
-0.015302857 -0.14008002 1.2360001 1.4285219e-38
-0.012948572 -0.14008002 1.2360001 1.2811894e-38
-0.010594286 -0.14008002 1.2360001 1.0507003e-38
-0.0082400003 -0.14008002 1.2360001 1.1610805e-38
-0.0058857147 -0.14008002 1.2360001 1.6220586e-38
-0.0035457143 -0.14064667 1.2410001 1.5671417e-38
-0.0011819048 -0.14064667 1.2410001 1.2628961e-38
0.0011819048 -0.14064667 1.2410001 1.3182058e-38
0.003557143 -0.1411 1.245 1.6408905e-38
0.0059285713 -0.1411 1.245 1.6775956e-38
0.0082999999 -0.1411 1.245 1.5485217e-38
0.010714286 -0.14166667 1.25 1.4471037e-38
0.013095238 -0.14166667 1.25 1.3917863e-38
0.01547619 -0.14166667 1.25 1.483803e-38
0.017785713 -0.1411 1.245 1.5022421e-38
0.020157143 -0.1411 1.245 1.5113888e-38
-0.065947622 -0.14028858 1.2590001 1.6035832e-38
-0.063549526 -0.14028858 1.2590001 1.7879744e-38
-0.061151426 -0.14028858 1.2590001 1.5857241e-38
-0.058566671 -0.13984287 1.2550001 1.0048916e-38
-0.056176193 -0.13984287 1.2550001 1.0512415e-38
-0.053571429 -0.13928571 1.25 1.3831458e-38
-0.051190477 -0.13928571 1.25 1.5761449e-38
-0.048614286 -0.13872856 1.245 1.7881949e-38
-0.046094287 -0.13828287 1.2410001 1.686674e-38
-0.043730479 -0.13828287 1.2410001 1.4561849e-38
-0.041200001 -0.13772571 1.2360001 1.3638752e-38
-0.038720001 -0.13728002 1.2320001 1.3823144e-38
-0.03637334 -0.13728002 1.2320001 1.3549135e-38
-0.034026671 -0.13728002 1.2320001 1.576183e-38
-0.031680003 -0.13728002 1.2320001 1.3645617e-38
-0.029333336 -0.13728002 1.2320001 1.106414e-38
-0.027074287 -0.13772571 1.2360001 1.2905558e-38
-0.02472 -0.13772571 1.2360001 1.5763623e-38
-0.022365715 -0.13772571 1.2360001 1.42867e-38
-0.020011429 -0.13772571 1.2360001 1.2903766e-38
-0.017657144 -0.13772571 1.2360001 1.3642371e-38
-0.015302857 -0.13772571 1.2360001 1.5578479e-38
-0.012948572 -0.13772571 1.2360001 1.5485564e-38
-0.010594286 -0.13772571 1.2360001 1.4471412e-38
-0.0082400003 -0.13772571 1.2360001 1.5024233e-38
-0.0058857147 -0.13772571 1.2360001 1.5669602e-38
-0.0035457143 -0.13828287 1.2410001 1.3276483e-38
-0.0011819048 -0.13828287 1.2410001 8.7588973e-39
0.0011857143 -0.13872856 1.245 8.9468675e-39
0.003557143 -0.13872856 1.245 1.3187866e-38
0.0059285713 -0.13872856 1.245 1.4656535e-38
0.0083333328 -0.13928571 1.25 1.3826774e-38
0.010714286 -0.13928571 1.25 1.4009689e-38
0.01314762 -0.13984287 1.2550001 1.4101884e-38
0.015538097 -0.13984287 1.2550001 1.5022409e-38
0.017928572 -0.13984287 1.2550001 1.5575582e-38
-0.066209525 -0.13843809 1.2640001 1.6036548e-38
-0.063801907 -0.13843809 1.2640001 1.7603874e-38
-0.061151426 -0.13789047 1.2590001 1.5120055e-38
-0.058566671 -0.13745239 1.2550001 9.9571e-39
-0.056176193 -0.13745239 1.2550001 8.3057917e-39
-0.053571429 -0.13690476 1.25 1.0702878e-38
-0.051190477 -0.13690476 1.25 1.6312454e-38
-0.048614286 -0.13635714 1.245 1.7879779e-38
-0.046242855 -0.13635714 1.245 1.6958213e-38
-0.043730479 -0.13591906 1.2410001 1.216404e-38
-0.041200001 -0.13537145 1.2360001 1.152077e-38
-0.038845714 -0.13537145 1.2360001 1.1612965e-38
-0.036491431 -0.13537145 1.2360001 1.3914636e-38
-0.034137145 -0.13537145 1.2360001 1.5574157e-38
-0.031782858 -0.13537145 1.2360001 1.6129507e-38
-0.029428573 -0.13537145 1.2360001 1.5668529e-38
-0.02718381 -0.13591906 1.2410001 1.4381774e-38
-0.02482 -0.13591906 1.2410001 1.4012992e-38
-0.022365715 -0.13537145 1.2360001 1.3368328e-38
-0.020011429 -0.13537145 1.2360001 1.1616612e-38
-0.017657144 -0.13537145 1.2360001 1.1986076e-38
-0.015302857 -0.13537145 1.2360001 1.3737793e-38
-0.012948572 -0.13537145 1.2360001 1.5854713e-38
-0.010594286 -0.13537145 1.2360001 1.6223495e-38
-0.0082400003 -0.13537145 1.2360001 1.5394477e-38
-0.0059095239 -0.13591906 1.2410001 1.3458369e-38
-0.0035457143 -0.13591906 1.2410001 1.1157791e-38
-0.0011819048 -0.13591906 1.2410001 7.7465531e-39
0.0011857143 -0.13635714 1.245 7.1068926e-39
0.003557143 -0.13635714 1.245 1.2085457e-38
0.0059523811 -0.13690476 1.25 1.364636e-38
0.0083333328 -0.13690476 1.25 1.2908795e-38
0.010714286 -0.13690476 1.25 1.235053e-38
0.013095238 -0.13690476 1.25 1.4378834e-38
0.015538097 -0.13745239 1.2550001 1.5114251e-38
0.017928572 -0.13745239 1.2550001 1.5114251e-38
-0.063801907 -0.13603048 1.2640001 1.7511685e-38
-0.061151426 -0.1354924 1.2590001 1.5581024e-38
-0.058566671 -0.13506192 1.2550001 1.060246e-38
-0.056176193 -0.13506192 1.2550001 8.3998412e-39
-0.053571429 -0.13452381 1.25 8.3998412e-39
-0.051190477 -0.13452381 1.25 1.4195882e-38
-0.048809525 -0.13452381 1.25 1.6869555e-38
-0.046242855 -0.13398571 1.245 1.6590773e-38
-0.043871425 -0.13398571 1.245 1.2165382e-38
-0.041366667 -0.13355523 1.2410001 1.1336788e-38
-0.039002858 -0.13355523 1.2410001 1.1244592e-38
-0.036491431 -0.13301714 1.2360001 1.1888505e-38
-0.034137145 -0.13301714 1.2360001 1.3548027e-38
-0.031782858 -0.13301714 1.2360001 1.5853248e-38
-0.029428573 -0.13301714 1.2360001 1.7328378e-38
-0.02718381 -0.13355523 1.2410001 1.4749118e-38
-0.02482 -0.13355523 1.2410001 1.2905205e-38
-0.022456191 -0.13355523 1.2410001 1.1618395e-38
-0.020092381 -0.13355523 1.2410001 1.1434004e-38
-0.017728573 -0.13355523 1.2410001 1.143472e-38
-0.015364763 -0.13355523 1.2410001 1.1895698e-38
-0.013000953 -0.13355523 1.2410001 1.4657213e-38
-0.010637144 -0.13355523 1.2410001 1.6869909e-38
-0.0082400003 -0.13301714 1.2360001 1.5026397e-38
-0.0058857147 -0.13301714 1.2360001 9.6790502e-39
-0.0035457143 -0.13355523 1.2410001 7.844885e-39
-0.0011819048 -0.13355523 1.2410001 7.10732e-39
0.0011857143 -0.13398571 1.245 7.3831908e-39
0.003557143 -0.13398571 1.245 1.0702233e-38
0.0059285713 -0.13398571 1.245 1.3554841e-38
0.0083333328 -0.13452381 1.25 1.2540689e-38
0.010714286 -0.13452381 1.25 1.2718293e-38
0.013095238 -0.13452381 1.25 1.4654401e-38
0.015538097 -0.13506192 1.2550001 1.5022409e-38
0.017928572 -0.13506192 1.2550001 1.4653626e-38
-0.063801907 -0.13362285 1.2640001 1.7234748e-38
-0.061394289 -0.13362285 1.2640001 1.6042005e-38
-0.058566671 -0.13267143 1.2550001 1.2169788e-38
-0.056176193 -0.13267143 1.2550001 8.5845828e-39
-0.053785719 -0.13267143 1.2550001 7.9392134e-39
-0.051190477 -0.13214286 1.25 1.0421988e-38
-0.048809525 -0.13214286 1.25 1.5400552e-38
-0.046242855 -0.1316143 1.245 1.45647e-38
-0.043871425 -0.1316143 1.245 1.1891026e-38
-0.041366667 -0.13119143 1.2410001 1.161157e-38
-0.039002858 -0.13119143 1.2410001 1.1519374e-38
-0.03663905 -0.13119143 1.2410001 1.1243116e-38
-0.034137145 -0.13066287 1.2360001 1.2072877e-38
-0.031782858 -0.13066287 1.2360001 1.4562535e-38
-0.029428573 -0.13066287 1.2360001 1.6959621e-38
-0.02718381 -0.13119143 1.2410001 1.4198102e-38
-0.02482 -0.13119143 1.2410001 1.1432233e-38
-0.022528572 -0.1316143 1.245 1.1158496e-38
-0.020157143 -0.1316143 1.245 1.1250692e-38
-0.017728573 -0.13119143 1.2410001 1.1159579e-38
-0.015364763 -0.13119143 1.2410001 1.1067384e-38
-0.013000953 -0.13119143 1.2410001 1.2169389e-38
-0.010637144 -0.13119143 1.2410001 1.6041605e-38
-0.0082400003 -0.13066287 1.2360001 1.3923678e-38
-0.0058857147 -0.13066287 1.2360001 8.576332e-39
-0.0035457143 -0.13119143 1.2410001 6.9258056e-39
-0.0011857143 -0.1316143 1.245 6.557023e-39
0.0011857143 -0.1316143 1.245 7.0143858e-39
0.003557143 -0.1316143 1.245 1.2361732e-38
0.0059285713 -0.1316143 1.245 1.3739269e-38
0.0083333328 -0.13214286 1.25 1.2725117e-38
0.010757144 -0.13267143 1.2550001 1.2901941e-38
0.01314762 -0.13267143 1.2550001 1.4653658e-38
0.015538097 -0.13267143 1.2550001 1.4837298e-38
-0.063801907 -0.13121524 1.2640001 1.7233679e-38
-0.061394289 -0.13121524 1.2640001 1.6315335e-38
-0.058566671 -0.13028096 1.2550001 1.5669965e-38
-0.056176193 -0.13028096 1.2550001 1.042494e-38
-0.053785719 -0.13028096 1.2550001 9.3185927e-39
-0.051190477 -0.1297619 1.25 1.1985407e-38
-0.048809525 -0.1297619 1.25 1.7240558e-38
-0.046242855 -0.12924285 1.245 1.6407168e-38
-0.043871425 -0.12924285 1.245 1.1981777e-38
-0.041499998 -0.12924285 1.245 1.0875822e-38
-0.039002858 -0.12882763 1.2410001 1.0875822e-38
-0.03663905 -0.12882763 1.2410001 1.1059119e-38
-0.034275241 -0.12882763 1.2410001 1.1704488e-38
-0.031911429 -0.12882763 1.2410001 1.4377787e-38
-0.029547621 -0.12882763 1.2410001 1.6867069e-38
-0.027271429 -0.12924285 1.245 1.5210773e-38
-0.024900001 -0.12924285 1.245 1.1430752e-38
-0.022528572 -0.12924285 1.245 1.0698971e-38
-0.020157143 -0.12924285 1.245 1.0791167e-38
-0.017785713 -0.12924285 1.245 1.1251069e-38
-0.015414285 -0.12924285 1.245 1.1619851e-38
-0.013042857 -0.12924285 1.245 1.3365791e-38
-0.010671428 -0.12924285 1.245 1.6316051e-38
-0.0082733333 -0.12882763 1.2410001 1.5118969e-38
-0.0059095239 -0.12882763 1.2410001 1.0324797e-38
-0.003557143 -0.12924285 1.245 7.0176509e-39
-0.0011857143 -0.12924285 1.245 6.2800858e-39
0.0011857143 -0.12924285 1.245 8.7653769e-39
0.0035714286 -0.1297619 1.25 1.3928332e-38
0.0059523811 -0.1297619 1.25 1.5579947e-38
0.0083666677 -0.13028096 1.2550001 1.5395556e-38
0.010757144 -0.13028096 1.2550001 1.5762154e-38
0.01314762 -0.13028096 1.2550001 1.4287024e-38
0.015538097 -0.13028096 1.2550001 1.47451e-38
-0.063801907 -0.12880762 1.2640001 1.6956006e-38
-0.061394289 -0.12880762 1.2640001 1.6497198e-38
-0.058753334 -0.1282981 1.2590001 1.6589394e-38
-0.056355242 -0.1282981 1.2590001 1.3647076e-38
-0.053785719 -0.1278905 1.2550001 1.3001707e-38
-0.051395241 -0.1278905 1.2550001 1.4933496e-38
-0.048809525 -0.12738095 1.25 1.69618e-38
-0.046242855 -0.12687142 1.245 1.6407187e-38
-0.043871425 -0.12687142 1.245 1.3456927e-38
-0.041499998 -0.12687142 1.245 1.0140405e-38
-0.039002858 -0.12646382 1.2410001 1.0324797e-38
-0.03663905 -0.12646382 1.2410001 1.1612995e-38
-0.034275241 -0.12646382 1.2410001 1.2166169e-38
-0.031911429 -0.12646382 1.2410001 1.4560035e-38
-0.029547621 -0.12646382 1.2410001 1.6588339e-38
-0.027271429 -0.12687142 1.245 1.5118952e-38
-0.024900001 -0.12687142 1.245 1.2814062e-38
-0.022528572 -0.12687142 1.245 1.134364e-38
-0.020157143 -0.12687142 1.245 1.1067053e-38
-0.017785713 -0.12687142 1.245 1.1342887e-38
-0.015414285 -0.12687142 1.245 1.1896061e-38
-0.013042857 -0.12687142 1.245 1.4009745e-38
-0.010671428 -0.12687142 1.245 1.6499027e-38
-0.0082999999 -0.12687142 1.245 1.5948001e-38
-0.0059285713 -0.12687142 1.245 1.2536763e-38
-0.003557143 -0.12687142 1.245 8.3072925e-39
-0.0011904761 -0.12738095 1.25 7.4775318e-39
0.0011904761 -0.12738095 1.25 1.0053965e-38
0.0035714286 -0.12738095 1.25 1.4294964e-38
0.0059761908 -0.1278905 1.2550001 1.6500812e-38
0.0083666677 -0.1278905 1.2550001 1.5947638e-38
0.010757144 -0.1278905 1.2550001 1.622244e-38
0.01314762 -0.1278905 1.2550001 1.4194136e-38
-0.063801907 -0.12639999 1.2640001 1.6218791e-38
-0.061151426 -0.1259 1.2590001 1.5759621e-38
-0.058566671 -0.12550001 1.2550001 1.7142555e-38
-0.056176193 -0.12550001 1.2550001 1.6408995e-38
-0.053785719 -0.12550001 1.2550001 1.7054364e-38
-0.051395241 -0.12550001 1.2550001 1.7053998e-38
-0.048809525 -0.125 1.25 1.6132042e-38
-0.046428572 -0.125 1.25 1.6131314e-38
-0.043871425 -0.12450001 1.245 1.6131314e-38
-0.041499998 -0.12450001 1.245 1.2536075e-38
-0.039128572 -0.12450001 1.245 1.0876554e-38
-0.036757145 -0.12450001 1.245 1.207223e-38
-0.034275241 -0.12410001 1.2410001 1.6313229e-38
-0.031911429 -0.12410001 1.2410001 1.5484509e-38
-0.029547621 -0.12410001 1.2410001 1.5207922e-38
-0.027271429 -0.12450001 1.245 1.4841642e-38
-0.024900001 -0.12450001 1.245 1.4933838e-38
-0.022619048 -0.125 1.25 1.31843e-38
-0.020238096 -0.125 1.25 1.1616974e-38
-0.017857142 -0.125 1.25 1.2170854e-38
-0.01547619 -0.125 1.25 1.4475745e-38
-0.013042857 -0.12450001 1.245 1.5300484e-38
-0.010671428 -0.12450001 1.245 1.474731e-38
-0.0082999999 -0.12450001 1.245 1.5854344e-38
-0.0059285713 -0.12450001 1.245 1.6591909e-38
-0.003557143 -0.12450001 1.245 1.4843075e-38
-0.0011904761 -0.125 1.25 1.2722575e-38
0.0011904761 -0.125 1.25 1.272335e-38
0.0035714286 -0.125 1.25 1.4290676e-38
0.0059761908 -0.12550001 1.2550001 1.5579189e-38
0.0083666677 -0.12550001 1.2550001 1.5855776e-38
0.010757144 -0.12550001 1.2550001 1.6405719e-38
0.01314762 -0.12550001 1.2550001 1.4285219e-38
-0.060957149 -0.12310953 1.2550001 1.5205731e-38
-0.058566671 -0.12310953 1.2550001 1.58511e-38
-0.056176193 -0.12310953 1.2550001 1.7327332e-38
-0.053785719 -0.12310953 1.2550001 1.8249288e-38
-0.051395241 -0.12310953 1.2550001 1.6686665e-38
-0.048809525 -0.12261905 1.25 1.5027144e-38
-0.046428572 -0.12261905 1.25 1.5763959e-38
-0.04404762 -0.12261905 1.25 1.6317133e-38
-0.041666668 -0.12261905 1.25 1.5577433e-38
-0.039285716 -0.12261905 1.25 1.4286695e-38
-0.036757145 -0.12212857 1.245 1.4007592e-38
-0.034385715 -0.12212857 1.245 1.6220288e-38
-0.032014288 -0.12212857 1.245 1.520972e-38
-0.029642858 -0.12212857 1.245 1.373459e-38
-0.027271429 -0.12212857 1.245 1.3181743e-38
-0.024900001 -0.12212857 1.245 1.5025655e-38
-0.022619048 -0.12261905 1.25 1.4933143e-38
-0.020238096 -0.12261905 1.25 1.3550209e-38
-0.017857142 -0.12261905 1.25 1.3181426e-38
-0.01547619 -0.12261905 1.25 1.5394121e-38
-0.013095238 -0.12261905 1.25 1.5393761e-38
-0.010714286 -0.12261905 1.25 1.2996675e-38
-0.0083333328 -0.12261905 1.25 1.4375607e-38
-0.0059523811 -0.12261905 1.25 1.6588302e-38
-0.0035714286 -0.12261905 1.25 1.7050385e-38
-0.0011904761 -0.12261905 1.25 1.6589406e-38
0.0011904761 -0.12261905 1.25 1.42903e-38
0.0035857146 -0.12310953 1.2550001 1.3368344e-38
0.0059761908 -0.12310953 1.2550001 1.4103349e-38
0.0083666677 -0.12310953 1.2550001 1.5486283e-38
0.010791428 -0.1235019 1.2590001 1.5760376e-38
0.013189524 -0.1235019 1.2590001 1.4469637e-38
0.015649525 -0.12399238 1.2640001 1.4837286e-38
-0.060957149 -0.12071906 1.2550001 1.5112829e-38
-0.058566671 -0.12071906 1.2550001 1.4836242e-38
-0.056176193 -0.12071906 1.2550001 1.659081e-38
-0.053785719 -0.12071906 1.2550001 1.8158136e-38
-0.051395241 -0.12071906 1.2550001 1.6133118e-38
-0.048809525 -0.1202381 1.25 1.3643836e-38
-0.046428572 -0.1202381 1.25 1.3921499e-38
-0.04404762 -0.1202381 1.25 1.5212238e-38
-0.041666668 -0.1202381 1.25 1.6222087e-38
-0.039285716 -0.1202381 1.25 1.7328434e-38
-0.036757145 -0.11975715 1.245 1.6223132e-38
-0.034385715 -0.11975715 1.245 1.3180676e-38
-0.032014288 -0.11975715 1.245 9.6812348e-39
-0.029642858 -0.11975715 1.245 8.2061047e-39
-0.027380953 -0.1202381 1.25 9.0358654e-39
-0.025 -0.1202381 1.25 1.3737842e-38
-0.022619048 -0.1202381 1.25 1.5025695e-38
-0.020238096 -0.1202381 1.25 1.576326e-38
-0.017857142 -0.1202381 1.25 1.5854697e-38
-0.01547619 -0.1202381 1.25 1.3734198e-38
-0.013095238 -0.1202381 1.25 1.1981088e-38
-0.010714286 -0.1202381 1.25 1.1151327e-38
