# .PCD v0.7 - Point Cloud Data file format
VERSION 0.7
FIELDS x y z rgb
SIZE 4 4 4 4
TYPE F F F F
COUNT 1 1 1 1
WIDTH 1007
HEIGHT 1
VIEWPOINT 0 0 0 1 0 0 0
POINTS 1007
DATA ascii
-0.020948572 0.10689143 0.56400001 2.341769e-38
-0.019874286 0.10689143 0.56400001 2.341769e-38
-0.0188 0.10689143 0.56400001 2.2956359e-38
-0.017694285 0.1067019 0.56300002 1.659486e-38
-0.016621906 0.1067019 0.56300002 1.8715685e-38
-0.015521904 0.10651238 0.56200004 2.3509859e-38
-0.014451429 0.10651238 0.56200004 2.341769e-38
-0.013380953 0.10651238 0.56200004 2.341769e-38
-0.012310477 0.10651238 0.56200004 2.3326213e-38
-0.011240001 0.10651238 0.56200004 2.3234018e-38
-0.010169524 0.10651238 0.56200004 2.1488429e-38
-0.0090990486 0.10651238 0.56200004 1.8906951e-38
-0.0080285715 0.10651238 0.56200004 1.1922799e-38
-0.0069580958 0.10651238 0.56200004 7.4974092e-39
-0.0058876192 0.10651238 0.56200004 3.4634731e-39
-0.0048171435 0.10651238 0.56200004 3.8322556e-39
-0.0037466669 0.10651238 0.56200004 1.11834e-38
-0.0026761906 0.10651238 0.56200004 1.7724249e-38
-0.0016057143 0.10651238 0.56200004 2.2867037e-38
-0.00053523813 0.10651238 0.56200004 2.2958873e-38
0.00053523813 0.10651238 0.56200004 2.341769e-38
0.0016057143 0.10651238 0.56200004 2.341769e-38
0.0026809524 0.1067019 0.56300002 2.3050349e-38
0.0037533336 0.1067019 0.56300002 2.0653263e-38
0.0048342859 0.10689143 0.56400001 1.8632537e-38
0.0059190476 0.10708095 0.565 1.8540342e-38
0.0069952379 0.10708095 0.565 2.1116396e-38
0.0080714291 0.10708095 0.565 2.27752e-38
0.0091476189 0.10708095 0.565 2.341769e-38
0.010241905 0.10727049 0.56600004 2.341769e-38
0.011340001 0.10746001 0.56700003 2.341769e-38
0.012463809 0.10783905 0.56900001 2.341769e-38
0.013571429 0.10802858 0.57000005 2.341769e-38
0.014657144 0.10802858 0.57000005 2.341769e-38
0.015770478 0.1082181 0.57100004 2.2590813e-38
0.016917143 0.10859714 0.57300001 1.4293207e-38
0.01807143 0.1089762 0.57500005 7.6825067e-39
0.019200001 0.10916572 0.57600003 8.1434849e-39
0.020367619 0.10954476 0.57800001 8.3282251e-39
0.021505715 0.10973429 0.57900006 8.1438338e-39
0.022608573 0.10973429 0.57900006 8.1427394e-39
0.023752384 0.10992382 0.58000004 1.0632021e-38
0.024857145 0.10992382 0.58000004 1.5038379e-38
-0.046400953 0.11236857 0.58700001 1.2273525e-38
-0.04474286 0.11102858 0.58000004 1.3379872e-38
-0.043638099 0.11102858 0.58000004 1.5772668e-38
-0.042460002 0.11083715 0.57900006 1.6602429e-38
-0.041357145 0.11083715 0.57900006 1.3474254e-38
-0.040184762 0.11064571 0.57800001 9.3254507e-39
-0.038948573 0.11026286 0.57600003 7.4959378e-39
-0.037785716 0.11007144 0.57500005 8.2335029e-39
-0.03656286 0.10968857 0.57300001 8.1423863e-39
-0.035285715 0.10911429 0.57000005 8.1423863e-39
-0.034139998 0.10892286 0.56900001 6.6722784e-39
-0.032998096 0.10873143 0.56800002 7.041061e-39
-0.03191619 0.10873143 0.56800002 1.4760974e-38
-0.030834286 0.10873143 0.56800002 2.1213951e-38
-0.029700002 0.10854 0.56700003 2.3326213e-38
-0.028620003 0.10854 0.56700003 2.2680844e-38
-0.027540002 0.10854 0.56700003 1.9736712e-38
-0.026413336 0.10834858 0.56600004 1.8814755e-38
-0.025290476 0.10815714 0.565 2.2129472e-38
-0.024214284 0.10815714 0.565 2.2958873e-38
-0.023138095 0.10815714 0.565 2.341769e-38
-0.022061903 0.10815714 0.565 2.341769e-38
-0.020985713 0.10815714 0.565 2.341769e-38
-0.019909523 0.10815714 0.565 2.3325494e-38
-0.0188 0.10796572 0.56400001 1.9549449e-38
-0.017725714 0.10796572 0.56400001 1.3925516e-38
-0.016651429 0.10796572 0.56400001 1.5488451e-38
-0.015549525 0.10777429 0.56300002 2.1849949e-38
-0.014477143 0.10777429 0.56300002 2.3418043e-38
-0.013404762 0.10777429 0.56300002 2.3418043e-38
-0.012310477 0.10758286 0.56200004 2.341769e-38
-0.011240001 0.10758286 0.56200004 2.341769e-38
-0.010169524 0.10758286 0.56200004 2.3326213e-38
-0.0090990486 0.10758286 0.56200004 2.2773039e-38
-0.0080285715 0.10758286 0.56200004 1.606475e-38
-0.0069580958 0.10758286 0.56200004 9.5188607e-39
-0.0058876192 0.10758286 0.56200004 3.5531086e-39
-0.0048171435 0.10758286 0.56200004 5.3048255e-39
-0.0037466669 0.10758286 0.56200004 1.5044461e-38
-0.0026809524 0.10777429 0.56300002 2.0387479e-38
-0.0016085715 0.10777429 0.56300002 2.341769e-38
-0.00053523813 0.10758286 0.56200004 2.341769e-38
0.00053523813 0.10758286 0.56200004 2.341769e-38
0.0016085715 0.10777429 0.56300002 2.341769e-38
0.0026809524 0.10777429 0.56300002 2.1671737e-38
0.00376 0.10796572 0.56400001 1.9090259e-38
0.0048428569 0.10815714 0.565 1.6430285e-38
0.0059190476 0.10815714 0.565 1.5969307e-38
0.0069952379 0.10815714 0.565 1.74383e-38
0.0080714291 0.10815714 0.565 1.8729039e-38
0.0091638099 0.10834858 0.56600004 2.2404617e-38
0.010260001 0.10854 0.56700003 2.3234378e-38
0.01138 0.10892286 0.56900001 2.341769e-38
0.012463809 0.10892286 0.56900001 2.341769e-38
0.013571429 0.10911429 0.57000005 2.341769e-38
0.014657144 0.10911429 0.57000005 2.341769e-38
0.015770478 0.10930572 0.57100004 2.0475349e-38
0.016917143 0.10968857 0.57300001 1.0887003e-38
0.018102858 0.11026286 0.57600003 6.213845e-39
0.019233335 0.11045429 0.57700002 7.7811708e-39
0.020367619 0.11064571 0.57800001 9.0647055e-39
0.021505715 0.11083715 0.57900006 7.8661623e-39
0.022608573 0.11083715 0.57900006 8.4168081e-39
0.023752384 0.11102858 0.58000004 1.3303177e-38
0.025028573 0.11179429 0.58400005 1.7064145e-38
0.026185717 0.11198572 0.58500004 1.697195e-38
0.027346667 0.11217714 0.58600003 1.7981375e-38
-0.048885714 0.11406667 0.59000003 1.6875037e-38
-0.047680955 0.11387334 0.58900005 1.5492103e-38
-0.046400953 0.11348667 0.58700001 1.3562118e-38
-0.044897143 0.11252 0.58200002 1.5406031e-38
-0.043638099 0.11213334 0.58000004 1.8074297e-38
-0.042533338 0.11213334 0.58000004 1.9365035e-38
-0.041357145 0.11194001 0.57900006 1.5961e-38
-0.040254291 0.11194001 0.57900006 8.7697406e-39
-0.038948573 0.11136001 0.57600003 5.1986141e-39
-0.037785716 0.11116667 0.57500005 6.7659398e-39
-0.036626667 0.11097334 0.574 8.1413101e-39
-0.035409525 0.11058667 0.57200003 8.6022882e-39
-0.034200002 0.11020001 0.57000005 8.4193291e-39
-0.033056188 0.11000667 0.56900001 7.5895684e-39
-0.031972378 0.11000667 0.56900001 1.1082512e-38
-0.03088857 0.11000667 0.56900001 1.4678142e-38
-0.029752383 0.10981333 0.56800002 2.0561774e-38
-0.028620003 0.10962 0.56700003 2.3142534e-38
-0.027540002 0.10962 0.56700003 2.3326213e-38
-0.026413336 0.10942668 0.56600004 2.3234018e-38
-0.025335239 0.10942668 0.56600004 2.3326213e-38
-0.024214284 0.10923333 0.565 2.3326213e-38
-0.023138095 0.10923333 0.565 2.341769e-38
-0.022061903 0.10923333 0.565 2.2126951e-38
-0.020985713 0.10923333 0.565 1.8069676e-38
-0.019909523 0.10923333 0.565 1.6041373e-38
-0.018833334 0.10923333 0.565 1.5215526e-38
-0.017725714 0.10904 0.56400001 1.5215526e-38
-0.016651429 0.10904 0.56400001 1.5582153e-38
-0.015577144 0.10904 0.56400001 1.5674349e-38
-0.014502858 0.10904 0.56400001 1.9546141e-38
-0.013404762 0.10884666 0.56300002 2.3509835e-38
-0.012332381 0.10884666 0.56300002 2.341769e-38
-0.011260001 0.10884666 0.56300002 2.341769e-38
-0.010187619 0.10884666 0.56300002 2.341769e-38
-0.0091152377 0.10884666 0.56300002 2.341769e-38
-0.008042858 0.10884666 0.56300002 2.2499334e-38
-0.0069704764 0.10884666 0.56300002 2.0378834e-38
-0.0058980957 0.10884666 0.56300002 1.9004872e-38
-0.0048257145 0.10884666 0.56300002 2.0203415e-38
-0.0037533336 0.10884666 0.56300002 2.3050705e-38
-0.0026809524 0.10884666 0.56300002 2.3142542e-38
-0.0016114286 0.10904 0.56400001 2.341769e-38
-0.00053619052 0.10884666 0.56300002 2.341769e-38
0.00053619052 0.10884666 0.56300002 2.2774842e-38
0.0016114286 0.10904 0.56400001 2.111532e-38
0.0026857145 0.10904 0.56400001 1.8727604e-38
0.00376 0.10904 0.56400001 1.8358822e-38
0.0048428569 0.10923333 0.565 1.7258248e-38
0.0059190476 0.10923333 0.565 1.6981661e-38
0.0069952379 0.10923333 0.565 1.7440118e-38
0.0080714291 0.10923333 0.565 1.7163531e-38
0.009180001 0.10962 0.56700003 1.8632162e-38
0.010260001 0.10962 0.56700003 1.9000944e-38
0.01138 0.11000667 0.56900001 2.2035837e-38
0.012485716 0.11020001 0.57000005 2.3234379e-38
0.013571429 0.11020001 0.57000005 2.341769e-38
0.014657144 0.11020001 0.57000005 2.1850364e-38
0.015770478 0.11039334 0.57100004 1.9186014e-38
0.016917143 0.11078 0.57300001 1.1164994e-38
0.018165713 0.11174667 0.57800001 7.133293e-39
0.019300001 0.11194001 0.57900006 8.1474449e-39
0.020438096 0.11213334 0.58000004 8.9725127e-39
0.021579999 0.11232667 0.58100003 7.6817738e-39
0.022686668 0.11232667 0.58100003 1.025496e-38
0.023875238 0.11271333 0.583 1.6432067e-38
0.025028573 0.11290667 0.58400005 1.8814395e-38
0.026185717 0.1131 0.58500004 1.5310961e-38
0.027346667 0.11329334 0.58600003 1.6047447e-38
-0.048885714 0.11519048 0.59000003 1.6782123e-38
-0.047680955 0.11499525 0.58900005 1.5306993e-38
-0.04648 0.1148 0.588 1.4572305e-38
-0.045282859 0.11460476 0.58700001 1.7430369e-38
-0.043713335 0.11343334 0.58100003 1.8350533e-38
-0.042533338 0.1132381 0.58000004 1.9549076e-38
-0.041357145 0.11304287 0.57900006 1.6052504e-38
-0.040254291 0.11304287 0.57900006 9.4144191e-39
-0.039016195 0.11265238 0.57700002 5.1964477e-39
-0.037785716 0.11226191 0.57500005 6.9481647e-39
-0.036690477 0.11226191 0.57500005 8.2335029e-39
-0.035471432 0.11187143 0.57300001 8.6022854e-39
-0.034260001 0.11148096 0.57100004 8.6033644e-39
-0.033114288 0.11128572 0.57000005 7.8657994e-39
-0.032028574 0.11128572 0.57000005 7.8661301e-39
-0.03088857 0.11109048 0.56900001 8.9724776e-39
-0.029752383 0.11089524 0.56800002 1.7429618e-38
-0.028670477 0.11089524 0.56800002 2.2867008e-38
-0.027588572 0.11089524 0.56800002 2.341769e-38
-0.026460001 0.1107 0.56700003 2.341769e-38
-0.025335239 0.11050477 0.56600004 2.341769e-38
-0.024257144 0.11050477 0.56600004 2.341769e-38
-0.023179049 0.11050477 0.56600004 2.341769e-38
-0.022061903 0.11030952 0.565 1.982206e-38
-0.020985713 0.11030952 0.565 1.5677949e-38
-0.019909523 0.11030952 0.565 1.4571601e-38
-0.018833334 0.11030952 0.565 1.5583948e-38
-0.017757144 0.11030952 0.565 1.6321513e-38
-0.016651429 0.11011428 0.56400001 1.6136766e-38
-0.015577144 0.11011428 0.56400001 1.521481e-38
-0.014502858 0.11011428 0.56400001 1.5951254e-38
-0.013428572 0.11011428 0.56400001 1.9362492e-38
-0.012354285 0.11011428 0.56400001 2.2954544e-38
-0.011260001 0.10991906 0.56300002 2.3509158e-38
-0.010187619 0.10991906 0.56300002 2.341769e-38
-0.0091314288 0.11011428 0.56400001 2.341769e-38
-0.0080571426 0.11011428 0.56400001 2.341769e-38
-0.0069828574 0.11011428 0.56400001 2.2956712e-38
-0.0059085712 0.11011428 0.56400001 2.1853236e-38
-0.0048342859 0.11011428 0.56400001 2.2867029e-38
-0.00376 0.11011428 0.56400001 2.3326213e-38
-0.0026857145 0.11011428 0.56400001 2.3326213e-38
-0.0016114286 0.11011428 0.56400001 2.3326213e-38
-0.00053714286 0.11011428 0.56400001 2.2865235e-38
0.00053714286 0.11011428 0.56400001 2.0384242e-38
0.0016114286 0.11011428 0.56400001 1.8540329e-38
0.0026904761 0.11030952 0.565 1.661467e-38
0.0037666666 0.11030952 0.565 1.7075649e-38
0.0048428569 0.11030952 0.565 1.7258248e-38
0.0059190476 0.11030952 0.565 1.7166052e-38
0.0069952379 0.11030952 0.565 1.7073856e-38
0.0080857147 0.11050477 0.56600004 1.6797269e-38
0.009180001 0.1107 0.56700003 1.5325016e-38
0.010278095 0.11089524 0.56800002 1.4587451e-38
0.01138 0.11109048 0.56900001 1.8998786e-38
0.012463809 0.11109048 0.56900001 2.2224189e-38
0.013571429 0.11128572 0.57000005 2.3234378e-38
0.014657144 0.11128572 0.57000005 2.1021683e-38
0.015825715 0.11187143 0.57300001 1.5138432e-38
0.017064763 0.11284763 0.57800001 9.883281e-39
0.018197145 0.11304287 0.57900006 7.3176745e-39
0.019300001 0.11304287 0.57900006 8.1474351e-39
0.020438096 0.1132381 0.58000004 8.6959286e-39
0.021579999 0.11343334 0.58100003 7.4051898e-39
0.022725716 0.11362857 0.58200002 1.0623755e-38
0.023957144 0.11421429 0.58500004 1.6800862e-38
0.025071429 0.11421429 0.58500004 1.863073e-38
0.026230477 0.11440953 0.58600003 1.4574122e-38
-0.04905143 0.11670857 0.59200001 1.678175e-38
-0.047761906 0.11631429 0.59000003 1.5491011e-38
-0.04648 0.11592 0.588 1.5676491e-38
-0.045282859 0.11572286 0.58700001 1.8718947e-38
-0.043939054 0.11513144 0.58400005 1.9453997e-38
-0.042533338 0.11434286 0.58000004 1.9822779e-38
-0.041428573 0.11434286 0.58000004 1.7521877e-38
-0.040254291 0.11414573 0.57900006 1.429503e-38
-0.039016195 0.11375143 0.57700002 8.3221154e-39
-0.03785143 0.11355429 0.57600003 8.0455285e-39
-0.036690477 0.11335715 0.57500005 7.8647372e-39
-0.035533335 0.11316 0.574 8.2335197e-39
-0.03444 0.11316 0.574 8.2349476e-39
-0.033230476 0.11276572 0.57200003 8.5115345e-39
-0.032084763 0.11256858 0.57100004 8.6030043e-39
-0.030942859 0.11237144 0.57000005 7.2200698e-39
-0.029804762 0.11217429 0.56900001 9.8829531e-39
-0.028670477 0.11197715 0.56800002 1.8364945e-38
-0.027588572 0.11197715 0.56800002 2.3417687e-38
-0.026506668 0.11197715 0.56800002 2.3417687e-38
-0.025380002 0.11178 0.56700003 2.341769e-38
-0.024257144 0.11158287 0.56600004 1.8715713e-38
-0.023179049 0.11158287 0.56600004 1.484499e-38
-0.022061903 0.11138572 0.565 1.4752795e-38
-0.020985713 0.11138572 0.565 1.5124046e-38
-0.019909523 0.11138572 0.565 1.5953807e-38
-0.018833334 0.11138572 0.565 1.6413709e-38
-0.017757144 0.11138572 0.565 1.65981e-38
-0.016680952 0.11138572 0.565 1.6505548e-38
-0.015604762 0.11138572 0.565 1.6321157e-38
-0.014528572 0.11138572 0.565 1.6320797e-38
-0.013452381 0.11138572 0.565 1.5859819e-38
-0.01237619 0.11138572 0.565 1.7609337e-38
-0.01128 0.11118857 0.56400001 2.0743989e-38
-0.010205715 0.11118857 0.56400001 2.2863081e-38
-0.0091314288 0.11118857 0.56400001 2.3508809e-38
-0.0080571426 0.11118857 0.56400001 2.341769e-38
-0.0069828574 0.11118857 0.56400001 2.341769e-38
-0.0059085712 0.11118857 0.56400001 2.341769e-38
-0.0048342859 0.11118857 0.56400001 2.341769e-38
-0.00376 0.11118857 0.56400001 2.341769e-38
-0.0026904761 0.11138572 0.565 2.341769e-38
-0.0016142856 0.11138572 0.565 2.2406778e-38
-0.00053809525 0.11138572 0.565 2.047067e-38
0.00053809525 0.11138572 0.565 1.8085122e-38
0.0016142856 0.11138572 0.565 1.790073e-38
0.0026904761 0.11138572 0.565 1.6799074e-38
0.0037666666 0.11138572 0.565 1.689127e-38
0.0048428569 0.11138572 0.565 1.7258248e-38
0.0059190476 0.11138572 0.565 1.7258248e-38
0.0070076198 0.11158287 0.56600004 1.7073859e-38
0.0081000002 0.11178 0.56700003 1.7166055e-38
0.0091961902 0.11197715 0.56800002 1.6337736e-38
0.01029619 0.11217429 0.56900001 1.5323584e-38
0.01138 0.11217429 0.56900001 1.8079357e-38
0.012463809 0.11217429 0.56900001 2.1765011e-38
0.013571429 0.11237144 0.57000005 2.3050705e-38
0.014657144 0.11237144 0.57000005 2.0745815e-38
0.015908571 0.11355429 0.57600003 1.4404123e-38
0.017064763 0.11394858 0.57800001 7.4894512e-39
0.018197145 0.11414573 0.57900006 3.5495479e-39
0.019333335 0.11434286 0.58000004 5.1168736e-39
0.020508572 0.11473715 0.58200002 7.2247656e-39
0.021617142 0.11473715 0.58200002 8.6077e-39
0.022803811 0.11513144 0.58400005 1.4119304e-38
0.023957144 0.11532858 0.58500004 1.8268088e-38
0.025071429 0.11532858 0.58500004 1.835412e-38
0.026230477 0.11552572 0.58600003 1.45741e-38
-0.04905143 0.11783619 0.59200001 1.6136033e-38
-0.047842856 0.11763714 0.59100002 1.5490664e-38
-0.046559051 0.11723906 0.58900005 1.6320777e-38
-0.045359999 0.11703999 0.588 1.9086646e-38
-0.044089526 0.11664191 0.58600003 1.9178126e-38
-0.042826667 0.11624382 0.58400005 1.8348365e-38
-0.041428573 0.11544763 0.58000004 1.6786444e-38
-0.040254291 0.11524858 0.57900006 1.6141075e-38
-0.039016195 0.11485048 0.57700002 1.1542874e-38
-0.03785143 0.11465143 0.57600003 9.1457874e-39
-0.036754288 0.11465143 0.57600003 7.4963036e-39
-0.035595242 0.11445239 0.57500005 8.3260643e-39
-0.03444 0.11425333 0.574 8.3267803e-39
-0.033346668 0.11425333 0.574 8.6033672e-39
-0.032140952 0.11385524 0.57200003 8.2360266e-39
-0.031051429 0.11385524 0.57200003 6.2999184e-39
-0.029909525 0.11365619 0.57100004 7.6802969e-39
-0.02877143 0.11345715 0.57000005 1.6070099e-38
-0.027685717 0.11345715 0.57000005 2.2958154e-38
-0.026553333 0.11325809 0.56900001 2.3142544e-38
-0.025469523 0.11325809 0.56900001 2.341769e-38
-0.024342857 0.11305905 0.56800002 1.5027888e-38
-0.023260953 0.11305905 0.56800002 1.4565477e-38
-0.022100953 0.11266096 0.56600004 1.5764021e-38
-0.021022858 0.11266096 0.56600004 1.5768337e-38
-0.019944763 0.11266096 0.56600004 1.6229315e-38
-0.018866668 0.11266096 0.56600004 1.6320797e-38
-0.017788572 0.11266096 0.56600004 1.668958e-38
-0.016710477 0.11266096 0.56600004 1.6597744e-38
-0.015632382 0.11266096 0.56600004 1.668994e-38
-0.014528572 0.1124619 0.565 1.6414072e-38
-0.013452381 0.1124619 0.565 1.5953094e-38
-0.01237619 0.1124619 0.565 1.5400974e-38
-0.011299999 0.1124619 0.565 1.6415126e-38
-0.010223809 0.1124619 0.565 2.0740767e-38
-0.0091476189 0.1124619 0.565 2.3507356e-38
-0.0080714291 0.1124619 0.565 2.341769e-38
-0.0069952379 0.1124619 0.565 2.341769e-38
-0.0059190476 0.1124619 0.565 2.341769e-38
-0.0048428569 0.1124619 0.565 2.341769e-38
-0.0037666666 0.1124619 0.565 2.3326213e-38
-0.0026904761 0.1124619 0.565 2.2496453e-38
-0.0016142856 0.1124619 0.565 2.0199853e-38
-0.00053809525 0.1124619 0.565 1.8724723e-38
0.00053809525 0.1124619 0.565 1.6799783e-38
0.0016142856 0.1124619 0.565 1.7168566e-38
0.0026904761 0.1124619 0.565 1.6982742e-38
0.0037666666 0.1124619 0.565 1.7074938e-38
0.0048428569 0.1124619 0.565 1.7350083e-38
0.0059295241 0.11266096 0.56600004 1.7350083e-38
0.0070200004 0.11286 0.56700003 1.6798351e-38
0.0081285713 0.11325809 0.56900001 1.6798351e-38
0.0092123812 0.11325809 0.56900001 1.6429932e-38
0.010314287 0.11345715 0.57000005 1.5507975e-38
0.01144 0.11385524 0.57200003 1.7067733e-38
0.012551429 0.11405428 0.57300001 2.1122163e-38
0.013642858 0.11405428 0.57300001 2.2774842e-38
0.014811429 0.11465143 0.57600003 2.1852885e-38
0.01596381 0.11504953 0.57800001 1.4313762e-38
0.017123811 0.11544763 0.58000004 7.4912855e-39
0.018228572 0.11544763 0.58000004 4.5572328e-39
0.019366667 0.11564668 0.58100003 4.8338197e-39
0.02054381 0.11604476 0.583 5.660995e-39
0.02169143 0.11624382 0.58400005 9.9941896e-39
0.022842858 0.11644286 0.58500004 1.7800643e-38
0.024039049 0.11684096 0.58700001 1.8077229e-38
0.025157144 0.11684096 0.58700001 1.7155224e-38
0.026319999 0.11703999 0.588 1.5219116e-38
-0.047842856 0.11876286 0.59100002 1.4752743e-38
-0.046638098 0.11856191 0.59000003 1.6320046e-38
-0.045437146 0.11836096 0.58900005 1.7610785e-38
-0.044239998 0.11816 0.588 1.5397765e-38
-0.042973336 0.1177581 0.58600003 1.2170918e-38
-0.041714288 0.1173562 0.58400005 1.2912831e-38
-0.040393334 0.11675333 0.58100003 1.9089938e-38
-0.039151434 0.11635144 0.57900006 1.669894e-38
-0.037982855 0.11615048 0.57800001 9.5076812e-39
-0.036754288 0.11574858 0.57600003 5.5666722e-39
-0.035595242 0.11554763 0.57500005 7.2261935e-39
-0.034500003 0.11554763 0.57500005 8.6015693e-39
-0.033346668 0.11534666 0.574 8.693765e-39
-0.03219714 0.11514571 0.57300001 8.2360294e-39
-0.031051429 0.11494477 0.57200003 6.9452906e-39
-0.029909525 0.11474382 0.57100004 6.2105968e-39
-0.028821906 0.11474382 0.57100004 1.3125269e-38
-0.027734287 0.11474382 0.57100004 2.2589361e-38
-0.026600001 0.11454286 0.57000005 2.3234372e-38
-0.025514288 0.11454286 0.57000005 2.3233636e-38
-0.024385713 0.1143419 0.56900001 1.4659443e-38
-0.023260953 0.11414096 0.56800002 1.4293935e-38
-0.022140002 0.11394001 0.56700003 1.567687e-38
-0.021060001 0.11394001 0.56700003 1.5860895e-38
-0.019980002 0.11394001 0.56700003 1.6045286e-38
-0.018900001 0.11394001 0.56700003 1.632116e-38
-0.017820001 0.11394001 0.56700003 1.6597747e-38
-0.016740002 0.11394001 0.56700003 1.6597747e-38
-0.015632382 0.11373906 0.56600004 1.6874334e-38
-0.014554287 0.11373906 0.56600004 1.6782854e-38
-0.013476192 0.11373906 0.56600004 1.6967246e-38
-0.012398096 0.11373906 0.56600004 1.6782138e-38
-0.011320001 0.11373906 0.56600004 1.5767986e-38
-0.010241905 0.11373906 0.56600004 1.6963986e-38
-0.0091638099 0.11373906 0.56600004 2.1112789e-38
-0.0080714291 0.11353809 0.565 2.341769e-38
-0.0069952379 0.11353809 0.565 2.341769e-38
-0.0059190476 0.11353809 0.565 2.341769e-38
-0.0048514288 0.11373906 0.56600004 2.341769e-38
-0.0037733337 0.11373906 0.56600004 2.3050705e-38
-0.0026952382 0.11373906 0.56600004 2.083801e-38
-0.001617143 0.11373906 0.56600004 1.8452818e-38
-0.00053904764 0.11373906 0.56600004 1.8545014e-38
0.00053904764 0.11373906 0.56600004 1.753519e-38
0.001617143 0.11373906 0.56600004 1.753519e-38
0.0026952382 0.11373906 0.56600004 1.6983459e-38
0.0037733337 0.11373906 0.56600004 1.6983459e-38
0.0048600002 0.11394001 0.56700003 1.7442279e-38
0.0059400005 0.11394001 0.56700003 1.7350083e-38
0.0070323814 0.11414096 0.56800002 1.6797995e-38
0.0081428578 0.11454286 0.57000005 1.6890191e-38
0.0092285722 0.11454286 0.57000005 1.6245552e-38
0.010332381 0.11474382 0.57100004 1.5692378e-38
0.01148 0.11534666 0.574 1.8815497e-38
0.012573333 0.11534666 0.574 2.1856847e-38
0.013690477 0.11554763 0.57500005 2.3326213e-38
0.014837143 0.11594953 0.57700002 2.3326213e-38
0.01596381 0.11615048 0.57800001 2.0659398e-38
0.017123811 0.11655239 0.58000004 1.6326205e-38
0.018228572 0.11655239 0.58000004 7.3184606e-39
0.019400001 0.11695429 0.58200002 4.1838092e-39
0.020579049 0.1173562 0.58400005 5.7524998e-39
0.021728573 0.11755715 0.58500004 1.2943759e-38
0.022881905 0.1177581 0.58600003 1.8631837e-38
0.024039049 0.11795904 0.58700001 1.688012e-38
0.025199998 0.11816 0.588 1.5038334e-38
0.026319999 0.11816 0.588 1.4853943e-38
-0.047842856 0.11988857 0.59100002 1.502933e-38
-0.046638098 0.11968572 0.59000003 1.5857648e-38
-0.045437146 0.11948287 0.58900005 1.6134235e-38
-0.044315241 0.11948287 0.58900005 1.4570137e-38
-0.043120001 0.11928 0.588 1.1251094e-38
-0.041857142 0.11887429 0.58600003 1.3555597e-38
-0.040532384 0.11826571 0.583 2.0378073e-38
-0.039219052 0.11765715 0.58000004 1.7896067e-38
-0.038048577 0.1174543 0.57900006 1.1350177e-38
-0.036818095 0.11704857 0.57700002 3.9125724e-39
-0.035657145 0.11684573 0.57600003 6.0330719e-39
-0.034500003 0.11664287 0.57500005 8.693765e-39
-0.033346668 0.11644 0.574 8.693765e-39
-0.03219714 0.11623715 0.57300001 7.4999035e-39
-0.031051429 0.11603429 0.57200003 6.1169691e-39
-0.029961905 0.11603429 0.57200003 3.7296105e-39
-0.028821906 0.11583143 0.57100004 1.2119413e-38
-0.027734287 0.11583143 0.57100004 2.1024213e-38
-0.026600001 0.11562858 0.57000005 2.2683366e-38
-0.025514288 0.11562858 0.57000005 2.0654705e-38
-0.024385713 0.11542571 0.56900001 1.4569793e-38
-0.023260953 0.11522286 0.56800002 1.3834752e-38
-0.022140002 0.11502 0.56700003 1.5402078e-38
-0.021060001 0.11502 0.56700003 1.5953094e-38
-0.019980002 0.11502 0.56700003 1.622968e-38
-0.018900001 0.11502 0.56700003 1.6413353e-38
-0.017820001 0.11502 0.56700003 1.668994e-38
-0.016740002 0.11502 0.56700003 1.668994e-38
-0.015660001 0.11502 0.56700003 1.6782135e-38
-0.014580001 0.11502 0.56700003 1.6690661e-38
-0.013500001 0.11502 0.56700003 1.6875053e-38
-0.012420001 0.11502 0.56700003 1.6966527e-38
-0.011320001 0.11481715 0.56600004 1.6413353e-38
-0.010241905 0.11481715 0.56600004 1.576868e-38
-0.0091638099 0.11481715 0.56600004 1.6875027e-38
-0.0080857147 0.11481715 0.56600004 2.2310263e-38
-0.0070076198 0.11481715 0.56600004 2.3509167e-38
-0.0059295241 0.11481715 0.56600004 2.341769e-38
-0.0048514288 0.11481715 0.56600004 2.341769e-38
-0.0037733337 0.11481715 0.56600004 2.2682646e-38
-0.0027000001 0.11502 0.56700003 1.9824581e-38
-0.0016200001 0.11502 0.56700003 1.7074212e-38
-0.00054000004 0.11502 0.56700003 1.7627386e-38
0.00054000004 0.11502 0.56700003 1.7534834e-38
0.0016200001 0.11502 0.56700003 1.7442639e-38
0.0027000001 0.11502 0.56700003 1.6891626e-38
0.0037800004 0.11502 0.56700003 1.6983821e-38
0.0048685712 0.11522286 0.56800002 1.7442279e-38
0.005960952 0.11542571 0.56900001 1.7257887e-38
0.0070447619 0.11542571 0.56900001 1.7073496e-38
0.0081571434 0.11583143 0.57100004 1.6981301e-38
0.0092447624 0.11583143 0.57100004 1.5877122e-38
0.010350476 0.11603429 0.57200003 1.6061513e-38
0.01148 0.11644 0.574 2.1024935e-38
0.012573333 0.11644 0.574 2.2591531e-38
0.013690477 0.11664287 0.57500005 2.341769e-38
0.014837143 0.11704857 0.57700002 2.341769e-38
0.01596381 0.11725143 0.57800001 2.3234378e-38
0.017094286 0.1174543 0.57900006 2.1390465e-38
0.01826 0.11786 0.58100003 1.5231763e-38
0.019433334 0.11826571 0.583 9.2390466e-39
0.020614285 0.11867144 0.58500004 8.783783e-39
0.021765715 0.11887429 0.58600003 1.6067238e-38
0.022881905 0.11887429 0.58600003 2.0013317e-38
0.024039049 0.11907715 0.58700001 1.5772318e-38
0.025199998 0.11928 0.588 1.3292005e-38
0.026319999 0.11928 0.588 1.4306157e-38
-0.047842856 0.12101429 0.59100002 1.5674336e-38
-0.046717145 0.12101429 0.59100002 1.4753118e-38
-0.045514286 0.12080953 0.59000003 1.4476531e-38
-0.044390481 0.12080953 0.59000003 1.3004616e-38
-0.043193337 0.12060477 0.58900005 1.0054356e-38
-0.041999999 0.1204 0.588 1.1342581e-38
-0.040601909 0.11958096 0.58400005 1.788847e-38
-0.039286669 0.11896668 0.58100003 1.8995565e-38
-0.038048577 0.11855715 0.57900006 1.7981413e-38
-0.036818095 0.11814763 0.57700002 1.1821596e-38
-0.035657145 0.11794286 0.57600003 8.0415754e-39
-0.034560002 0.11794286 0.57600003 5.2000617e-39
-0.033404768 0.1177381 0.57500005 5.8454311e-39
-0.032253332 0.11753333 0.574 5.7517907e-39
-0.031105714 0.11732857 0.57300001 5.1986169e-39
-0.029961905 0.11712381 0.57200003 8.2299576e-39
-0.028821906 0.11691906 0.57100004 1.7080683e-38
-0.027734287 0.11691906 0.57100004 2.3326213e-38
-0.026646668 0.11691906 0.57100004 2.3326213e-38
-0.025559049 0.11691906 0.57100004 2.3326213e-38
-0.024428573 0.11671429 0.57000005 1.5212998e-38
-0.023301905 0.11650952 0.56900001 1.2272121e-38
-0.022179047 0.11630476 0.56800002 1.4208229e-38
-0.021097142 0.11630476 0.56800002 1.6044576e-38
-0.020015238 0.11630476 0.56800002 1.6413358e-38
-0.018933333 0.11630476 0.56800002 1.6413356e-38
-0.017851429 0.11630476 0.56800002 1.6689943e-38
-0.016769523 0.11630476 0.56800002 1.6597744e-38
-0.015687618 0.11630476 0.56800002 1.6597744e-38
-0.014580001 0.11610001 0.56700003 1.6598466e-38
-0.013500001 0.11610001 0.56700003 1.6598466e-38
-0.012420001 0.11610001 0.56700003 1.6782857e-38
-0.011340001 0.11610001 0.56700003 1.6690661e-38
-0.010260001 0.11610001 0.56700003 1.5217336e-38
-0.009180001 0.11610001 0.56700003 1.4940749e-38
-0.0081000002 0.11610001 0.56700003 2.0836931e-38
-0.0070200004 0.11610001 0.56700003 2.3326213e-38
-0.0059400005 0.11610001 0.56700003 2.341769e-38
-0.0048600002 0.11610001 0.56700003 2.341769e-38
-0.0037800004 0.11610001 0.56700003 2.2498973e-38
-0.0027047619 0.11630476 0.56800002 1.9640909e-38
-0.0016200001 0.11610001 0.56700003 1.689091e-38
-0.00054000004 0.11610001 0.56700003 1.7259691e-38
0.00054095237 0.11630476 0.56800002 1.7442639e-38
0.0016228572 0.11630476 0.56800002 1.7534834e-38
0.0027047619 0.11630476 0.56800002 1.7167134e-38
0.0037866668 0.11630476 0.56800002 1.7074938e-38
0.0048771431 0.11650952 0.56900001 1.7074935e-38
0.005960952 0.11650952 0.56900001 1.6798348e-38
0.0070571434 0.11671429 0.57000005 1.6522124e-38
0.0081571434 0.11691906 0.57100004 1.5784559e-38
0.0092609534 0.11712381 0.57200003 1.7806377e-38
0.010368572 0.11732857 0.57300001 2.057115e-38
0.011500001 0.1177381 0.57500005 2.3234378e-38
0.012617144 0.11794286 0.57600003 2.3234378e-38
0.013738095 0.11814763 0.57700002 2.341769e-38
0.014837143 0.11814763 0.57700002 2.341769e-38
0.01596381 0.11835238 0.57800001 2.3326213e-38
0.017094286 0.11855715 0.57900006 2.3234018e-38
0.018197145 0.11855715 0.57900006 2.2683365e-38
0.019433334 0.11937619 0.583 2.0286278e-38
0.020614285 0.11978572 0.58500004 1.9184244e-38
0.021765715 0.11999048 0.58600003 2.0198396e-38
0.022881905 0.11999048 0.58600003 1.9000594e-38
0.024039049 0.12019524 0.58700001 1.5036182e-38
0.025157144 0.12019524 0.58700001 1.3567173e-38
0.026319999 0.1204 0.588 1.4950107e-38
-0.047923807 0.12234667 0.59200001 1.5857651e-38
-0.046796191 0.12234667 0.59200001 1.4477598e-38
-0.045514286 0.12193335 0.59000003 1.4293207e-38
-0.044315241 0.12172668 0.58900005 1.3004619e-38
-0.043193337 0.12172668 0.58900005 1.1345097e-38
-0.041999999 0.12152 0.588 1.2171233e-38
-0.040671431 0.12090001 0.58500004 1.6043449e-38
-0.039421905 0.12048667 0.583 1.8993019e-38
-0.038114291 0.11986668 0.58000004 1.9914975e-38
-0.036881905 0.11945333 0.57800001 1.6144386e-38
-0.035780951 0.11945333 0.57800001 9.3219096e-39
-0.034620002 0.11924667 0.57700002 3.26824e-39
-0.03346286 0.11904 0.57600003 4.3745876e-39
-0.032309525 0.11883334 0.57500005 5.5673994e-39
-0.031159999 0.11862666 0.574 7.0425295e-39
-0.030014286 0.11842 0.57300001 1.5497526e-38
-0.028872382 0.11821334 0.57200003 2.1673176e-38
-0.027782857 0.11821334 0.57200003 2.3326213e-38
-0.026693335 0.11821334 0.57200003 2.3326213e-38
-0.02560381 0.11821334 0.57200003 2.3050705e-38
-0.02447143 0.11800667 0.57100004 1.7518968e-38
-0.023342859 0.1178 0.57000005 1.3651475e-38
-0.022218095 0.11759333 0.56900001 1.4204649e-38
-0.021134285 0.11759333 0.56900001 1.5584314e-38
-0.020050475 0.11759333 0.56900001 1.6229683e-38
-0.018966667 0.11759333 0.56900001 1.6413356e-38
-0.017882857 0.11759333 0.56900001 1.6597747e-38
-0.016769523 0.11738667 0.56800002 1.6597747e-38
-0.015687618 0.11738667 0.56800002 1.6782138e-38
-0.014605715 0.11738667 0.56800002 1.6598823e-38
-0.013523811 0.11738667 0.56800002 1.6506627e-38
-0.012441905 0.11738667 0.56800002 1.6598466e-38
-0.01136 0.11738667 0.56800002 1.6229683e-38
-0.010278095 0.11738667 0.56800002 1.393055e-38
-0.0091961902 0.11738667 0.56800002 1.5682267e-38
-0.0081000002 0.11718 0.56700003 2.0928771e-38
-0.0070200004 0.11718 0.56700003 2.3325856e-38
-0.0059400005 0.11718 0.56700003 2.341769e-38
-0.0048600002 0.11718 0.56700003 2.341769e-38
-0.0037800004 0.11718 0.56700003 2.213127e-38
-0.0027047619 0.11738667 0.56800002 1.9457597e-38
-0.0016228572 0.11738667 0.56800002 1.7073856e-38
-0.00054095237 0.11738667 0.56800002 1.7442639e-38
0.00054095237 0.11738667 0.56800002 1.6890907e-38
0.0016257142 0.11759333 0.56900001 1.7259689e-38
0.0027095238 0.11759333 0.56900001 1.7534834e-38
0.0037933334 0.11759333 0.56900001 1.7350443e-38
0.004885715 0.1178 0.57000005 1.6890907e-38
0.0059714289 0.1178 0.57000005 1.6706516e-38
0.0070695239 0.11800667 0.57100004 1.6430645e-38
0.008171428 0.11821334 0.57200003 1.5969667e-38
0.0092609534 0.11821334 0.57200003 1.9093871e-38
0.010386666 0.11862666 0.574 2.158134e-38
0.01152 0.11904 0.57600003 2.3326213e-38
0.012617144 0.11904 0.57600003 2.1666692e-38
0.013738095 0.11924667 0.57700002 2.1297181e-38
0.014837143 0.11924667 0.57700002 2.3509876e-38
0.01596381 0.11945333 0.57800001 2.341769e-38
0.017094286 0.11966001 0.57900006 2.341769e-38
0.018197145 0.11966001 0.57900006 2.3326213e-38
0.019500002 0.12090001 0.58500004 2.3049626e-38
0.020649524 0.12110667 0.58600003 2.1117491e-38
0.021802856 0.12131333 0.58700001 1.9918948e-38
0.022920953 0.12131333 0.58700001 1.8445257e-38
0.024039049 0.12131333 0.58700001 1.4849627e-38
0.025157144 0.12131333 0.58700001 1.3750475e-38
0.026319999 0.12152 0.588 1.5409997e-38
-0.046796191 0.12347428 0.59200001 1.5029332e-38
-0.045514286 0.12305715 0.59000003 1.5213724e-38
-0.044315241 0.12284859 0.58900005 1.4477951e-38
-0.043193337 0.12284859 0.58900005 1.2265256e-38
-0.041999999 0.12264 0.588 1.2080148e-38
-0.040671431 0.12201429 0.58500004 1.2448931e-38
-0.039489526 0.12180573 0.58400005 1.512008e-38
-0.038180001 0.12118001 0.58100003 2.2034753e-38
-0.037009526 0.12097144 0.58000004 1.9643812e-38
-0.035842858 0.12076286 0.57900006 1.2268162e-38
-0.034680001 0.12055428 0.57800001 6.671547e-39
-0.033520956 0.12034572 0.57700002 9.3452202e-39
-0.032309525 0.11992858 0.57500005 1.651489e-38
-0.031214288 0.11992858 0.57500005 2.0387106e-38
-0.030066665 0.11972 0.574 2.2958154e-38
-0.028922858 0.11951143 0.57300001 2.3142544e-38
-0.02783143 0.11951143 0.57300001 2.341769e-38
-0.026693335 0.11930286 0.57200003 2.341769e-38
-0.02560381 0.11930286 0.57200003 2.3326213e-38
-0.02447143 0.1190943 0.57100004 2.2957431e-38
-0.023383811 0.1190943 0.57100004 1.8351671e-38
-0.022218095 0.11867714 0.56900001 1.3741889e-38
-0.021134285 0.11867714 0.56900001 1.3283746e-38
-0.020050475 0.11867714 0.56900001 1.4851072e-38
-0.018966667 0.11867714 0.56900001 1.6228611e-38
-0.017882857 0.11867714 0.56900001 1.6413003e-38
-0.016799048 0.11867714 0.56900001 1.6505554e-38
-0.015715238 0.11867714 0.56900001 1.6782141e-38
-0.014631429 0.11867714 0.56900001 1.6690659e-38
-0.013547619 0.11867714 0.56900001 1.6690659e-38
-0.012441905 0.11846858 0.56800002 1.6137851e-38
-0.01136 0.11846858 0.56800002 1.5031503e-38
-0.010278095 0.11846858 0.56800002 1.5125847e-38
-0.0091961902 0.11846858 0.56800002 2.1210758e-38
-0.0081142858 0.11846858 0.56800002 2.341769e-38
-0.0070323814 0.11846858 0.56800002 2.341769e-38
-0.005950476 0.11846858 0.56800002 2.341769e-38
-0.0048685712 0.11846858 0.56800002 2.341769e-38
-0.0037866668 0.11846858 0.56800002 2.2682643e-38
-0.0027047619 0.11846858 0.56800002 2.1115317e-38
-0.0016228572 0.11846858 0.56800002 1.7350446e-38
-0.00054095237 0.11846858 0.56800002 1.7073859e-38
0.00054190477 0.11867714 0.56900001 1.689091e-38
0.0016257142 0.11867714 0.56900001 1.7259691e-38
0.0027095238 0.11867714 0.56900001 1.7442639e-38
0.0037933334 0.11867714 0.56900001 1.7442639e-38
0.004885715 0.11888573 0.57000005 1.689091e-38
0.0059714289 0.11888573 0.57000005 1.6337736e-38
0.0070819049 0.11930286 0.57200003 1.7624143e-38
0.0081857145 0.11951143 0.57300001 1.9468048e-38
0.0092771426 0.11951143 0.57300001 2.3142182e-38
0.010404763 0.11992858 0.57500005 2.3234378e-38
0.01152 0.12013715 0.57600003 2.3326213e-38
0.012617144 0.12013715 0.57600003 1.7610084e-38
0.013738095 0.12034572 0.57700002 1.5952693e-38
0.014862857 0.12055428 0.57800001 1.6782453e-38
0.01596381 0.12055428 0.57800001 1.9545474e-38
0.017094286 0.12076286 0.57900006 2.3141103e-38
0.018322857 0.12159714 0.583 2.341769e-38
0.019500002 0.12201429 0.58500004 2.341769e-38
0.020649524 0.12222286 0.58600003 2.3234378e-38
0.021802856 0.12243143 0.58700001 2.0007531e-38
0.022920953 0.12243143 0.58700001 1.5961012e-38
0.024039049 0.12243143 0.58700001 1.3840513e-38
0.025199998 0.12264 0.588 1.4486974e-38
-0.046875242 0.12481239 0.59300005 1.5305556e-38
-0.045514286 0.12418097 0.59000003 1.5582143e-38
-0.044315241 0.12397048 0.58900005 1.521302e-38
-0.043120001 0.12376 0.588 1.2723738e-38
-0.041999999 0.12376 0.588 1.1989748e-38
-0.040740956 0.12333906 0.58600003 1.1344378e-38
-0.039557148 0.12312857 0.58500004 1.4011906e-38
-0.038311429 0.12270762 0.583 2.1387556e-38
-0.037073337 0.12228667 0.58100003 2.0289172e-38
-0.035904765 0.1220762 0.58000004 1.3743282e-38
-0.034680001 0.12165523 0.57800001 1.0804153e-38
-0.033579048 0.12165523 0.57800001 1.3846608e-38
-0.032421906 0.12144477 0.57700002 2.0101171e-38
-0.031214288 0.12102382 0.57500005 2.2867037e-38
-0.030066665 0.12081333 0.574 2.3326213e-38
-0.028922858 0.12060286 0.57300001 2.3326213e-38
-0.02783143 0.12060286 0.57300001 2.3326213e-38
-0.026740002 0.12060286 0.57300001 2.3049626e-38
-0.02560381 0.12039238 0.57200003 2.3326213e-38
-0.024514288 0.12039238 0.57200003 2.3326213e-38
-0.023383811 0.12018191 0.57100004 2.2958154e-38
-0.022296192 0.12018191 0.57100004 1.8163981e-38
-0.021208571 0.12018191 0.57100004 1.3101905e-38
-0.020085717 0.11997144 0.57000005 1.3931666e-38
-0.019000003 0.11997144 0.57000005 1.5767983e-38
-0.017914288 0.11997144 0.57000005 1.6413353e-38
-0.016799048 0.11976095 0.56900001 1.6413356e-38
-0.015715238 0.11976095 0.56900001 1.6689943e-38
-0.014631429 0.11976095 0.56900001 1.6597744e-38
-0.013547619 0.11976095 0.56900001 1.6321157e-38
-0.012463809 0.11976095 0.56900001 1.5493194e-38
-0.01138 0.11976095 0.56900001 1.5493194e-38
-0.01029619 0.11976095 0.56900001 1.6782854e-38
-0.0092123812 0.11976095 0.56900001 2.2775202e-38
-0.0081142858 0.11955048 0.56800002 2.341769e-38
-0.0070323814 0.11955048 0.56800002 2.341769e-38
-0.005950476 0.11955048 0.56800002 2.341769e-38
-0.0048685712 0.11955048 0.56800002 2.341769e-38
-0.0037866668 0.11955048 0.56800002 2.3234378e-38
-0.0027095238 0.11976095 0.56900001 2.1943639e-38
-0.0016257142 0.11976095 0.56900001 1.974103e-38
-0.00054190477 0.11976095 0.56900001 1.8358096e-38
0.00054285716 0.11997144 0.57000005 1.652321e-38
0.0016285715 0.11997144 0.57000005 1.6707602e-38
0.0027142861 0.11997144 0.57000005 1.6799067e-38
0.0038066669 0.12018191 0.57100004 1.6891263e-38
0.0048942859 0.12018191 0.57100004 1.6706869e-38
0.0059819054 0.12018191 0.57100004 1.6153695e-38
0.0070819049 0.12039238 0.57200003 1.8358825e-38
0.0081857145 0.12060286 0.57300001 2.0938492e-38
0.0092933336 0.12081333 0.574 2.3326213e-38
0.010422857 0.12123429 0.57600003 2.3326213e-38
0.01154 0.12144477 0.57700002 2.341769e-38
0.012639049 0.12144477 0.57700002 1.6226431e-38
0.013761904 0.12165523 0.57800001 1.3280837e-38
0.014862857 0.12165523 0.57800001 1.4110598e-38
0.015991431 0.12186573 0.57900006 1.6777434e-38
0.017182857 0.12249715 0.58200002 1.9727694e-38
0.018322857 0.12270762 0.583 2.2679033e-38
0.019500002 0.12312857 0.58500004 2.3509514e-38
0.020684762 0.12354953 0.58700001 2.3326213e-38
0.021802856 0.12354953 0.58700001 1.9269606e-38
0.02299905 0.12397048 0.58900005 1.4580602e-38
0.024120953 0.12397048 0.58900005 1.3474254e-38
0.025328573 0.12439144 0.59100002 1.4854675e-38
-0.047033336 0.12636667 0.59500003 1.5672538e-38
-0.045668572 0.12572953 0.59200001 1.7608646e-38
-0.044465717 0.12551714 0.59100002 1.6965065e-38
-0.043120001 0.12487999 0.588 1.2447479e-38
-0.041999999 0.12487999 0.588 1.1712811e-38
-0.040740956 0.12445524 0.58600003 1.1897202e-38
-0.039489526 0.12403049 0.58400005 1.2907739e-38
-0.038311429 0.1238181 0.583 1.6964346e-38
-0.037200954 0.1238181 0.583 1.8073953e-38
-0.035966668 0.12339333 0.58100003 1.9917866e-38
-0.0348 0.12318096 0.58000004 2.0380269e-38
-0.033637147 0.12296859 0.57900006 2.2224182e-38
-0.03253429 0.12296859 0.57900006 2.3142182e-38
-0.03137714 0.12275618 0.57800001 2.3234378e-38
-0.030119048 0.12211905 0.57500005 2.3049989e-38
-0.028922858 0.12169428 0.57300001 2.2496815e-38
-0.02783143 0.12169428 0.57300001 1.9458338e-38
-0.026740002 0.12169428 0.57300001 1.7614425e-38
-0.025648572 0.12169428 0.57300001 1.9548733e-38
-0.024514288 0.12148191 0.57200003 2.2683366e-38
-0.023424761 0.12148191 0.57200003 2.3326213e-38
-0.022335239 0.12148191 0.57200003 2.3234018e-38
-0.021208571 0.12126953 0.57100004 1.9917894e-38
-0.020085717 0.12105715 0.57000005 1.5215917e-38
-0.019000003 0.12105715 0.57000005 1.4481917e-38
-0.017914288 0.12105715 0.57000005 1.5403873e-38
-0.016828572 0.12105715 0.57000005 1.6230043e-38
-0.015742857 0.12105715 0.57000005 1.6045652e-38
-0.014631429 0.12084476 0.56900001 1.567687e-38
-0.013547619 0.12084476 0.56900001 1.5308087e-38
-0.012463809 0.12084476 0.56900001 1.6228614e-38
-0.01138 0.12084476 0.56900001 2.2221319e-38
-0.01029619 0.12084476 0.56900001 2.341769e-38
-0.0092123812 0.12084476 0.56900001 2.341769e-38
-0.0081285713 0.12084476 0.56900001 2.341769e-38
-0.0070323814 0.12063238 0.56800002 2.341769e-38
-0.005950476 0.12063238 0.56800002 2.341769e-38
-0.0048685712 0.12063238 0.56800002 2.341769e-38
-0.0037866668 0.12063238 0.56800002 2.341769e-38
-0.0027095238 0.12084476 0.56900001 2.341769e-38
-0.0016257142 0.12084476 0.56900001 2.2682643e-38
-0.00054190477 0.12084476 0.56900001 2.2682643e-38
0.00054285716 0.12105715 0.57000005 2.0753743e-38
0.0016314286 0.12126953 0.57100004 1.8633244e-38
0.0027190479 0.12126953 0.57100004 1.6706872e-38
0.0038066669 0.12126953 0.57100004 1.6614676e-38
0.0049028574 0.12148191 0.57200003 1.7808175e-38
0.0059923814 0.12148191 0.57200003 1.9652077e-38
0.0070942859 0.12169428 0.57300001 2.3050705e-38
0.0082 0.12190667 0.574 2.3142542e-38
0.0093095247 0.12211905 0.57500005 2.341769e-38
0.010440952 0.12254381 0.57700002 2.129719e-38
0.01154 0.12254381 0.57700002 1.8993016e-38
0.012660953 0.12275618 0.57800001 1.4936408e-38
0.013761904 0.12275618 0.57800001 1.4570875e-38
0.014862857 0.12275618 0.57800001 1.5031853e-38
0.015991431 0.12296859 0.57900006 1.4937134e-38
0.017182857 0.12360572 0.58200002 1.3830786e-38
0.018417144 0.12445524 0.58600003 1.6227132e-38
0.019533332 0.12445524 0.58600003 2.3418032e-38
0.020684762 0.12466762 0.58700001 2.3050705e-38
0.021839999 0.12487999 0.588 1.7795554e-38
0.02296 0.12487999 0.588 1.3384958e-38
0.024080001 0.12487999 0.588 1.3200566e-38
-0.047033336 0.1275 0.59500003 1.5856204e-38
-0.045822859 0.12728572 0.59400004 1.7607921e-38
-0.044616193 0.12707144 0.59300005 1.7056933e-38
-0.043413334 0.12685713 0.59200001 1.2447151e-38
-0.042214286 0.12664287 0.59100002 1.1803562e-38
-0.040740956 0.12557143 0.58600003 1.2448931e-38
-0.039489526 0.12514286 0.58400005 1.263188e-38
-0.038311429 0.12492857 0.583 1.4199206e-38
-0.037200954 0.12492857 0.583 1.7242002e-38
-0.035966668 0.12450001 0.58100003 2.1390806e-38
-0.0348 0.12428573 0.58000004 2.2589011e-38
-0.03369524 0.12428573 0.58000004 2.3234379e-38
-0.03253429 0.12407143 0.57900006 2.3326213e-38
-0.03137714 0.12385715 0.57800001 2.3141822e-38
-0.03017143 0.12342858 0.57600003 2.2221668e-38
-0.028973334 0.123 0.574 2.111532e-38
-0.02788 0.123 0.574 1.6611063e-38
-0.026786666 0.123 0.574 1.5043738e-38
-0.025648572 0.12278572 0.57300001 1.8261572e-38
-0.024557142 0.12278572 0.57300001 2.2224189e-38
-0.023424761 0.12257144 0.57200003 2.341769e-38
-0.022335239 0.12257144 0.57200003 2.341769e-38
-0.021245714 0.12257144 0.57200003 2.3050705e-38
-0.020120952 0.12235714 0.57100004 1.9086293e-38
-0.019033333 0.12235714 0.57100004 1.4115704e-38
-0.017945714 0.12235714 0.57100004 1.4300095e-38
-0.016858097 0.12235714 0.57100004 1.530987e-38
-0.015742857 0.12214287 0.57000005 1.5217674e-38
-0.014657144 0.12214287 0.57000005 1.5308806e-38
-0.013571429 0.12214287 0.57000005 1.6599545e-38
-0.012485716 0.12214287 0.57000005 1.8808987e-38
-0.01138 0.12192857 0.56900001 2.3234378e-38
-0.01029619 0.12192857 0.56900001 2.341769e-38
-0.0092123812 0.12192857 0.56900001 2.341769e-38
-0.0081285713 0.12192857 0.56900001 2.341769e-38
-0.0070447619 0.12192857 0.56900001 2.3141103e-38
-0.005960952 0.12192857 0.56900001 2.240497e-38
-0.0048771431 0.12192857 0.56900001 2.3234372e-38
-0.0037933334 0.12192857 0.56900001 2.3417687e-38
-0.0027095238 0.12192857 0.56900001 2.3417687e-38
-0.0016257142 0.12192857 0.56900001 2.341769e-38
-0.00054285716 0.12214287 0.57000005 2.341769e-38
0.00054285716 0.12214287 0.57000005 2.2407857e-38
0.0016314286 0.12235714 0.57100004 2.0471749e-38
0.0027238096 0.12257144 0.57200003 1.6706869e-38
0.0038133336 0.12257144 0.57200003 1.6061499e-38
0.0049114288 0.12278572 0.57300001 1.8174433e-38
0.0060028569 0.12278572 0.57300001 2.0938492e-38
0.0071066665 0.123 0.574 2.3326213e-38
0.0082142865 0.1232143 0.57500005 2.3326213e-38
0.0093257148 0.12342858 0.57600003 2.341769e-38
0.010440952 0.12364287 0.57700002 1.7885952e-38
0.01156 0.12385715 0.57800001 1.6410825e-38
0.012660953 0.12385715 0.57800001 1.5581064e-38
0.013785715 0.12407143 0.57900006 1.5125131e-38
0.014888573 0.12407143 0.57900006 1.5217326e-38
0.016046667 0.12450001 0.58100003 1.466415e-38
0.017271431 0.12535715 0.58500004 1.2728042e-38
0.018417144 0.12557143 0.58600003 1.2271344e-38
0.019533332 0.12557143 0.58600003 2.1673146e-38
0.020719999 0.126 0.588 2.2683365e-38
0.021877145 0.1262143 0.58900005 1.7520409e-38
0.02296 0.126 0.588 1.2649545e-38
0.024080001 0.126 0.588 1.2833936e-38
-0.047033336 0.12863334 0.59500003 1.5212629e-38
-0.045822859 0.12841715 0.59400004 1.6411172e-38
-0.044616193 0.12820096 0.59300005 1.677998e-38
-0.043413334 0.12798476 0.59200001 1.4198503e-38
-0.042214286 0.12776856 0.59100002 1.2173786e-38
-0.040949523 0.12733619 0.58900005 1.2450373e-38
-0.039557148 0.12647144 0.58500004 1.2541852e-38
-0.038377147 0.12625524 0.58400005 1.217307e-38
-0.037200954 0.12603904 0.583 1.2357126e-38
-0.036028571 0.12582286 0.58200002 2.0654733e-38
-0.03486 0.12560667 0.58100003 2.2496462e-38
-0.03369524 0.12539048 0.58000004 2.323402e-38
-0.032590479 0.12539048 0.58000004 2.2497532e-38
-0.031431429 0.1251743 0.57900006 1.9731663e-38
-0.03017143 0.12452573 0.57600003 1.6422e-38
-0.029023811 0.12430953 0.57500005 1.6329805e-38
-0.027928574 0.12430953 0.57500005 1.5414328e-38
-0.026786666 0.12409334 0.574 1.5045545e-38
-0.025693333 0.12409334 0.574 1.6514915e-38
-0.024557142 0.12387714 0.57300001 1.8174436e-38
-0.023424761 0.12366096 0.57200003 2.2404973e-38
-0.022335239 0.12366096 0.57200003 2.3234375e-38
-0.021245714 0.12366096 0.57200003 2.341769e-38
-0.020156192 0.12366096 0.57200003 2.341769e-38
-0.019066667 0.12366096 0.57200003 2.2037289e-38
-0.017977145 0.12366096 0.57200003 1.6689943e-38
-0.01688762 0.12366096 0.57200003 1.4575892e-38
-0.015770478 0.12344477 0.57100004 1.5590044e-38
-0.014682857 0.12344477 0.57100004 1.9916054e-38
-0.013571429 0.12322859 0.57000005 2.3142542e-38
-0.012485716 0.12322859 0.57000005 2.341769e-38
-0.011400001 0.12322859 0.57000005 2.341769e-38
-0.010314287 0.12322859 0.57000005 2.341769e-38
-0.0092123812 0.12301237 0.56900001 2.341769e-38
-0.0081285713 0.12301237 0.56900001 2.3234378e-38
-0.0070447619 0.12301237 0.56900001 1.7241662e-38
-0.005960952 0.12301237 0.56900001 1.3846583e-38
-0.0048771431 0.12301237 0.56900001 1.4584148e-38
-0.0037933334 0.12301237 0.56900001 2.0194077e-38
-0.0027142861 0.12322859 0.57000005 2.2867033e-38
-0.0016285715 0.12322859 0.57000005 2.341769e-38
-0.00054285716 0.12322859 0.57000005 2.341769e-38
0.00054380955 0.12344477 0.57100004 2.3326213e-38
0.0016342858 0.12366096 0.57200003 2.3141822e-38
0.0027238096 0.12366096 0.57200003 2.1671737e-38
0.0038200002 0.12387714 0.57300001 2.0473193e-38
0.0049114288 0.12387714 0.57300001 2.1762134e-38
0.0060028569 0.12387714 0.57300001 2.2683366e-38
0.0071190479 0.12430953 0.57500005 2.341769e-38
0.0082285721 0.12452573 0.57600003 2.2864516e-38
0.0093257148 0.12452573 0.57600003 2.0468499e-38
0.010459048 0.12495811 0.57800001 1.5121152e-38
0.01156 0.12495811 0.57800001 1.4663434e-38
0.012682858 0.1251743 0.57900006 1.5493194e-38
0.013809524 0.12539048 0.58000004 1.5492125e-38
0.014914286 0.12539048 0.58000004 1.5492125e-38
0.016129524 0.12625524 0.58400005 1.5032942e-38
0.017300952 0.12668762 0.58600003 1.3557812e-38
0.018417144 0.12668762 0.58600003 1.2638745e-38
0.019566666 0.12690382 0.58700001 2.0936339e-38
0.020719999 0.12712 0.588 2.2223829e-38
0.021877145 0.12733619 0.58900005 1.7706243e-38
0.02296 0.12712 0.588 1.2557363e-38
0.024080001 0.12712 0.588 1.3018342e-38
-0.047033336 0.12976667 0.59500003 1.4385036e-38
-0.045822859 0.12954858 0.59400004 1.4846015e-38
-0.044691432 0.12954858 0.59400004 1.6137122e-38
-0.043413334 0.12911239 0.59200001 1.5215166e-38
-0.042214286 0.12889428 0.59100002 1.2543666e-38
-0.040949523 0.12845811 0.58900005 1.2082688e-38
-0.039557148 0.12758572 0.58500004 1.2267063e-38
-0.038377147 0.12736763 0.58400005 1.1437303e-38
-0.037264764 0.12736763 0.58400005 1.2265246e-38
-0.036028571 0.12693143 0.58200002 2.0562853e-38
-0.03486 0.12671334 0.58100003 2.2312424e-38
-0.03369524 0.12649524 0.58000004 2.2220229e-38
-0.032590479 0.12649524 0.58000004 2.0747982e-38
-0.031431429 0.12627716 0.57900006 1.7244548e-38
-0.030223809 0.12584096 0.57700002 1.4951537e-38
-0.029074287 0.12562287 0.57600003 1.5135928e-38
-0.027977144 0.12562287 0.57600003 1.4678565e-38
-0.026833337 0.12540478 0.57500005 1.5323934e-38
-0.025738096 0.12540478 0.57500005 1.5414688e-38
-0.024557142 0.12496858 0.57300001 1.5691275e-38
-0.023465713 0.12496858 0.57300001 1.9550152e-38
-0.022374285 0.12496858 0.57300001 2.2223826e-38
-0.021245714 0.12475048 0.57200003 2.341769e-38
-0.020156192 0.12475048 0.57200003 2.341769e-38
-0.019066667 0.12475048 0.57200003 2.3326213e-38
-0.017977145 0.12475048 0.57200003 1.8993019e-38
-0.01688762 0.12475048 0.57200003 1.439115e-38
-0.015770478 0.12453238 0.57100004 1.6142867e-38
-0.014682857 0.12453238 0.57100004 2.1849645e-38
-0.013595238 0.12453238 0.57100004 2.3509167e-38
-0.01250762 0.12453238 0.57100004 2.341769e-38
-0.011420001 0.12453238 0.57100004 2.341769e-38
-0.010314287 0.1243143 0.57000005 2.341769e-38
-0.0092285722 0.1243143 0.57000005 2.3325494e-38
