# .PCD v0.7 - Point Cloud Data file format
VERSION 0.7
FIELDS x y z rgb
SIZE 4 4 4 4
TYPE F F F F
COUNT 1 1 1 1
WIDTH 1048
HEIGHT 1
VIEWPOINT 0 0 0 1 0 0 0
POINTS 1048
DATA ascii
-0.16428667 -0.18899144 1.2970001 1.364277e-38
-0.16181619 -0.18899144 1.2970001 1.3734237e-38
-0.15934572 -0.18899144 1.2970001 1.3826433e-38
-0.15687525 -0.18899144 1.2970001 1.3734966e-38
-0.15440476 -0.18899144 1.2970001 1.3734966e-38
-0.1519343 -0.18899144 1.2970001 1.3734966e-38
-0.14946382 -0.18899144 1.2970001 1.3919357e-38
-0.14699334 -0.18899144 1.2970001 1.4011199e-38
-0.14508 -0.18972 1.302 1.4103395e-38
-0.14260001 -0.18972 1.302 1.4103388e-38
-0.14012 -0.18972 1.302 1.4287779e-38
-0.13764 -0.18972 1.302 1.4195591e-38
-0.13516 -0.18972 1.302 1.3919004e-38
-0.13268001 -0.18972 1.302 1.41963e-38
-0.1302 -0.18972 1.302 1.4380691e-38
-0.12772 -0.18972 1.302 1.4564714e-38
-0.12524 -0.18972 1.302 1.4564714e-38
-0.12276001 -0.18972 1.302 1.4748752e-38
-0.12028001 -0.18972 1.302 1.4748752e-38
-0.1178 -0.18972 1.302 1.4657628e-38
-0.11532 -0.18972 1.302 1.4565433e-38
-0.11284 -0.18972 1.302 1.4473597e-38
-0.11036 -0.18972 1.302 1.4381401e-38
-0.10705143 -0.18826286 1.2920001 1.3552369e-38
-0.10386191 -0.18695144 1.2830001 1.3828956e-38
-0.1014181 -0.18695144 1.2830001 1.3183234e-38
-0.098974295 -0.18695144 1.2830001 1.1892495e-38
-0.096530482 -0.18695144 1.2830001 1.1062715e-38
-0.094086677 -0.18695144 1.2830001 9.5875846e-39
-0.091642864 -0.18695144 1.2830001 1.4104149e-38
-0.17717621 -0.18450764 1.2830001 6.7364271e-39
-0.17473239 -0.18450764 1.2830001 9.4035633e-39
-0.17228858 -0.18450764 1.2830001 1.2999193e-38
-0.17050667 -0.18522668 1.2880001 1.3734956e-38
-0.16857524 -0.18580191 1.2920001 1.3734956e-38
-0.1661143 -0.18580191 1.2920001 1.3733899e-38
-0.16428667 -0.18652095 1.2970001 1.391829e-38
-0.16181619 -0.18652095 1.2970001 1.364312e-38
-0.15934572 -0.18652095 1.2970001 1.4104098e-38
-0.15687525 -0.18652095 1.2970001 1.3828253e-38
-0.15440476 -0.18652095 1.2970001 1.3920448e-38
-0.1519343 -0.18652095 1.2970001 1.3828603e-38
-0.15004 -0.18724 1.302 1.4012994e-38
-0.14756 -0.18724 1.302 1.4379982e-38
-0.14508 -0.18724 1.302 1.4748764e-38
-0.14314763 -0.18795906 1.307 1.4748417e-38
-0.1406581 -0.18795906 1.307 1.4656221e-38
-0.13816857 -0.18795906 1.307 1.4933156e-38
-0.13567904 -0.18795906 1.307 1.5209743e-38
-0.13318951 -0.18795906 1.307 1.5209039e-38
-0.1302 -0.18724 1.302 1.4932452e-38
-0.12772 -0.18724 1.302 1.502606e-38
-0.12524 -0.18724 1.302 1.4933865e-38
-0.12276001 -0.18724 1.302 1.511754e-38
-0.12028001 -0.18724 1.302 1.5486322e-38
-0.1178 -0.18724 1.302 1.5485954e-38
-0.11532 -0.18724 1.302 1.5209367e-38
-0.11284 -0.18724 1.302 1.4842755e-38
-0.11036 -0.18724 1.302 1.3736408e-38
-0.10705143 -0.18580191 1.2920001 1.2171583e-38
-0.10345715 -0.18378858 1.2780001 1.2909148e-38
-0.10023239 -0.18235047 1.268 1.2632949e-38
-0.097817145 -0.18235047 1.268 8.3919505e-39
-0.095401898 -0.18235047 1.268 8.2056451e-39
-0.091666669 -0.1797619 1.25 9.865151e-39
-0.090285718 -0.18177524 1.2640001 1.6406509e-38
-0.087878101 -0.18177524 1.2640001 2.3228986e-38
-0.17579524 -0.18064477 1.273 3.7815006e-39
-0.17337048 -0.18064477 1.273 5.2558516e-39
-0.17161715 -0.1813543 1.2780001 9.865633e-39
-0.16918287 -0.1813543 1.2780001 1.1798831e-38
-0.16805334 -0.18277335 1.2880001 1.3458352e-38
-0.1661143 -0.18334097 1.2920001 1.3736057e-38
-0.16428667 -0.18405049 1.2970001 1.3275079e-38
-0.16181619 -0.18405049 1.2970001 1.3183584e-38
-0.15934572 -0.18405049 1.2970001 1.4382127e-38
-0.15687525 -0.18405049 1.2970001 1.4289957e-38
-0.15440476 -0.18405049 1.2970001 1.3828979e-38
-0.15252002 -0.18476 1.302 1.3277956e-38
-0.15004 -0.18476 1.302 1.3646738e-38
-0.14756 -0.18476 1.302 1.4565462e-38
-0.14508 -0.18476 1.302 1.6224983e-38
-0.14314763 -0.18546954 1.307 1.5579264e-38
-0.14119619 -0.18617906 1.312 1.502609e-38
-0.13869715 -0.18617906 1.312 1.5211185e-38
-0.1361981 -0.18617906 1.312 1.677851e-38
-0.13318951 -0.18546954 1.307 1.4936771e-38
-0.13069999 -0.18546954 1.307 1.3000663e-38
-0.12772 -0.18476 1.302 1.2452155e-38
-0.12524 -0.18476 1.302 1.3097525e-38
-0.12276001 -0.18476 1.302 1.4290663e-38
-0.12028001 -0.18476 1.302 1.5212619e-38
-0.11146668 -0.17482668 1.2320001 1.4106622e-38
-0.10912001 -0.17482668 1.2320001 1.309247e-38
-0.10712001 -0.17539428 1.2360001 1.3460915e-38
-0.10476572 -0.17539428 1.2360001 1.2538959e-38
-0.10241143 -0.17539428 1.2360001 1.235378e-38
-0.10046192 -0.17610382 1.2410001 1.2814758e-38
-0.098809525 -0.17738095 1.25 1.1344013e-38
-0.096428573 -0.17738095 1.25 4.2449492e-39
-0.094047621 -0.17738095 1.25 8.4660848e-40
-0.091666669 -0.17738095 1.25 5.7329713e-39
-0.090285718 -0.17936763 1.2640001 1.5670373e-38
-0.087878101 -0.17936763 1.2640001 2.2861632e-38
-0.085470475 -0.17936763 1.2640001 2.2494655e-38
-0.175 -0.175 1.25 1.6596707e-38
-0.17261904 -0.175 1.25 4.3346884e-39
-0.17023809 -0.175 1.25 4.9806407e-39
-0.16906573 -0.17626001 1.2590001 8.2074794e-39
-0.16732953 -0.17696001 1.2640001 7.7480048e-39
-0.16492191 -0.17696001 1.2640001 1.2081199e-38
-0.16495715 -0.17962001 1.2830001 1.2448578e-38
-0.16428667 -0.18158001 1.2970001 1.0328078e-38
-0.16181619 -0.18158001 1.2970001 1.0880102e-38
-0.15025429 -0.17122 1.223 1.3000601e-38
-0.14792477 -0.17122 1.223 1.4198821e-38
-0.14607145 -0.17178002 1.2270001 1.3553451e-38
-0.14373431 -0.17178002 1.2270001 1.1438006e-38
-0.14139715 -0.17178002 1.2270001 1.2636549e-38
-0.13906002 -0.17178002 1.2270001 1.4474348e-38
-0.14508 -0.18228 1.302 1.5304109e-38
-0.13394763 -0.17122 1.223 1.484385e-38
-0.1316181 -0.17122 1.223 1.3460915e-38
-0.13922571 -0.18437999 1.317 1.3554164e-38
-0.1361981 -0.18368 1.312 1.5305881e-38
-0.13369904 -0.18368 1.312 1.3651793e-38
-0.13069999 -0.18298002 1.307 1.0609337e-38
-0.11997048 -0.17122 1.223 9.5105328e-39
-0.11764096 -0.17122 1.223 1.1354445e-38
-0.11568858 -0.17178002 1.2270001 1.3280487e-38
-0.11381335 -0.17248002 1.2320001 1.2911704e-38
-0.11146668 -0.17248002 1.2320001 1.2451067e-38
-0.10912001 -0.17248002 1.2320001 1.1621306e-38
-0.10712001 -0.17304002 1.2360001 1.2174492e-38
-0.10476572 -0.17304002 1.2360001 1.2543275e-38
-0.10241143 -0.17304002 1.2360001 1.3274343e-38
-0.10046192 -0.17374 1.2410001 1.3182148e-38
-0.098414287 -0.1743 1.245 1.1158526e-38
-0.096042857 -0.1743 1.245 3.8750709e-39
-0.093671434 -0.1743 1.245 3.8456114e-40
-0.091299996 -0.1743 1.245 5.547508e-39
-0.089285716 -0.175 1.25 1.4751278e-38
-0.086904764 -0.175 1.25 2.1573755e-38
-0.085470475 -0.17696001 1.2640001 2.0929134e-38
-0.1743 -0.17192857 1.245 1.7887093e-38
-0.17192857 -0.17192857 1.245 4.7953134e-39
-0.16955714 -0.17192857 1.245 2.5010893e-39
-0.16785714 -0.17261904 1.25 7.2952621e-39
-0.16547619 -0.17261904 1.25 9.4064724e-39
-0.16244286 -0.17192857 1.245 1.2909906e-38
-0.1589143 -0.17068571 1.2360001 1.1989735e-38
-0.15605335 -0.17013335 1.2320001 6.3658018e-39
-0.15308286 -0.16944288 1.2270001 4.4394102e-39
-0.15025429 -0.16889048 1.223 6.8364966e-39
-0.14792477 -0.16889048 1.223 1.0791898e-38
-0.14607145 -0.16944288 1.2270001 1.3649963e-38
-0.14373431 -0.16944288 1.2270001 1.4567613e-38
-0.14139715 -0.16944288 1.2270001 1.5489569e-38
-0.13906002 -0.16944288 1.2270001 1.5027878e-38
-0.13672288 -0.16944288 1.2270001 1.3368357e-38
-0.13394763 -0.16889048 1.223 9.9585952e-39
-0.1316181 -0.16889048 1.223 8.2990738e-39
-0.12928857 -0.16889048 1.223 9.774522e-39
-0.12695906 -0.16889048 1.223 1.4015521e-38
-0.12462953 -0.16889048 1.223 1.4291417e-38
-0.12230001 -0.16889048 1.223 1.46602e-38
-0.11997048 -0.16889048 1.223 1.4388241e-38
-0.11764096 -0.16889048 1.223 1.5033611e-38
-0.11568858 -0.16944288 1.2270001 1.3833663e-38
-0.11381335 -0.17013335 1.2320001 1.1897555e-38
-0.11146668 -0.17013335 1.2320001 9.5995082e-39
-0.10947429 -0.17068571 1.2360001 9.2307257e-39
-0.10712001 -0.17068571 1.2360001 1.0518218e-38
-0.10476572 -0.17068571 1.2360001 1.1901152e-38
-0.10241143 -0.17068571 1.2360001 1.309393e-38
-0.10046192 -0.1713762 1.2410001 1.1526605e-38
-0.098098099 -0.1713762 1.2410001 8.0306958e-39
-0.095734291 -0.1713762 1.2410001 3.0521318e-39
-0.093370475 -0.1713762 1.2410001 5.7220061e-40
-0.091299996 -0.17192857 1.245 5.1819821e-39
-0.088928573 -0.17192857 1.245 1.4292083e-38
-0.086904764 -0.17261904 1.25 1.9270647e-38
-0.084523812 -0.17261904 1.25 1.8991593e-38
-0.082471438 -0.17330955 1.2550001 1.8069637e-38
-0.1743 -0.16955714 1.245 1.8348421e-38
-0.17192857 -0.16955714 1.245 5.9942069e-39
-0.16955714 -0.16955714 1.245 2.8914393e-40
-0.16785714 -0.17023809 1.25 6.0974686e-39
-0.16481429 -0.16955714 1.245 1.0693599e-38
-0.16244286 -0.16955714 1.245 1.1984337e-38
-0.1589143 -0.16833144 1.2360001 9.7784821e-39
-0.15605335 -0.16778667 1.2320001 5.3530919e-39
-0.15308286 -0.16710572 1.2270001 1.042915e-39
-0.15074573 -0.16710572 1.2270001 1.4116975e-39
-0.14840858 -0.16710572 1.2270001 8.306554e-39
-0.14607145 -0.16710572 1.2270001 1.217877e-38
-0.14373431 -0.16710572 1.2270001 1.5487046e-38
-0.14139715 -0.16710572 1.2270001 1.6040219e-38
-0.13906002 -0.16710572 1.2270001 1.5120787e-38
-0.13672288 -0.16710572 1.2270001 1.1156375e-38
-0.13438572 -0.16710572 1.2270001 9.9581818e-39
-0.1316181 -0.16656096 1.223 9.0362255e-39
-0.12928857 -0.16656096 1.223 9.1291246e-39
-0.12695906 -0.16656096 1.223 1.1434015e-38
-0.12462953 -0.16656096 1.223 1.4472518e-38
-0.12230001 -0.16656096 1.223 1.6685213e-38
-0.11997048 -0.16656096 1.223 1.6503002e-38
-0.11764096 -0.16656096 1.223 1.613422e-38
-0.11568858 -0.16710572 1.2270001 1.3007134e-38
-0.11381335 -0.16778667 1.2320001 1.0333461e-38
-0.11146668 -0.16778667 1.2320001 8.4063531e-39
-0.10947429 -0.16833144 1.2360001 8.1297662e-39
-0.10712001 -0.16833144 1.2360001 8.5882136e-39
-0.10476572 -0.16833144 1.2360001 1.0432126e-38
-0.10241143 -0.16833144 1.2360001 1.1901155e-38
-0.10046192 -0.1690124 1.2410001 9.6884599e-39
-0.098098099 -0.1690124 1.2410001 4.2585937e-39
-0.095734291 -0.1690124 1.2410001 1.3083335e-39
-0.093370475 -0.1690124 1.2410001 5.7256074e-40
-0.091299996 -0.16955714 1.245 5.9199073e-39
-0.088928573 -0.16955714 1.245 1.4106988e-38
-0.086904764 -0.17023809 1.25 1.8624574e-38
-0.084861912 -0.17091906 1.2550001 1.8439139e-38
-0.082471438 -0.17091906 1.2550001 1.7885965e-38
-0.175 -0.16785714 1.25 1.8347691e-38
-0.17261904 -0.16785714 1.25 7.7451938e-39
-0.17023809 -0.16785714 1.25 5.6832041e-40
-0.16785714 -0.16785714 1.25 3.7951675e-39
-0.16481429 -0.16718571 1.245 9.223844e-39
-0.16244286 -0.16718571 1.245 1.0237996e-38
-0.1589143 -0.16597714 1.2360001 8.3994545e-39
-0.15605335 -0.16544002 1.2320001 4.8038249e-39
-0.15308286 -0.16476859 1.2270001 1.7790731e-39
-0.15074573 -0.16476859 1.2270001 1.7790731e-39
-0.14840858 -0.16476859 1.2270001 2.9718556e-39
-0.14607145 -0.16476859 1.2270001 6.4752895e-39
-0.14373431 -0.16476859 1.2270001 1.3647403e-38
-0.14139715 -0.16476859 1.2270001 1.4384968e-38
-0.13906002 -0.16476859 1.2270001 1.3830362e-38
-0.13672288 -0.16476859 1.2270001 9.1283847e-39
-0.13438572 -0.16476859 1.2270001 8.7618064e-39
-0.13204859 -0.16476859 1.2270001 9.5915671e-39
-0.12928857 -0.16423143 1.223 9.957128e-39
-0.12695906 -0.16423143 1.223 9.3117586e-39
-0.12503716 -0.16476859 1.2270001 9.1280736e-39
-0.12270001 -0.16476859 1.2270001 1.4383225e-38
-0.12036287 -0.16476859 1.2270001 1.5399169e-38
-0.11802572 -0.16476859 1.2270001 1.3924039e-38
-0.11616001 -0.16544002 1.2320001 1.0889862e-38
-0.11418286 -0.16597714 1.2360001 9.8757098e-39
-0.11182857 -0.16597714 1.2360001 9.2339585e-39
-0.10947429 -0.16597714 1.2360001 8.7729804e-39
-0.10712001 -0.16597714 1.2360001 8.7711797e-39
-0.10476572 -0.16597714 1.2360001 9.9697229e-39
-0.10282572 -0.16664857 1.2410001 1.1533073e-38
-0.10046192 -0.16664857 1.2410001 9.5047693e-39
-0.098098099 -0.16664857 1.2410001 2.9718556e-39
-0.096042857 -0.16718571 1.245 4.8257356e-40
-0.093671434 -0.16718571 1.245 1.2179932e-39
-0.091299996 -0.16718571 1.245 8.2248611e-39
-0.088928573 -0.16718571 1.245 1.4107361e-38
-0.086904764 -0.16785714 1.25 1.8440555e-38
-0.084861912 -0.16852859 1.2550001 1.8715716e-38
-0.082471438 -0.16852859 1.2550001 1.8070346e-38
-0.1810562 -0.16666763 1.2590001 1.705874e-38
-0.1786581 -0.16666763 1.2590001 1.8349479e-38
-0.175 -0.16547619 1.25 1.7979993e-38
-0.17261904 -0.16547619 1.25 8.6682347e-39
-0.17023809 -0.16547619 1.25 2.4060967e-39
-0.16785714 -0.16547619 1.25 4.8953787e-39
-0.16547619 -0.16547619 1.25 7.9352856e-39
-0.16244286 -0.16481429 1.245 9.5026113e-39
-0.15955715 -0.16428477 1.2410001 5.3639001e-39
-0.15656 -0.16362287 1.2360001 3.5199875e-39
-0.15370668 -0.16309334 1.2320001 2.7910516e-39
-0.15074573 -0.16243143 1.2270001 2.8832473e-39
-0.14840858 -0.16243143 1.2270001 1.2266056e-39
-0.14607145 -0.16243143 1.2270001 3.9002789e-39
-0.14373431 -0.16243143 1.2270001 1.0426713e-38
-0.14139715 -0.16243143 1.2270001 1.2915995e-38
-0.13906002 -0.16243143 1.2270001 1.134329e-38
-0.13672288 -0.16243143 1.2270001 8.3930295e-39
-0.13438572 -0.16243143 1.2270001 9.2213454e-39
-0.13204859 -0.16243143 1.2270001 1.0143302e-38
-0.12971143 -0.16243143 1.2270001 1.0326264e-38
-0.12737429 -0.16243143 1.2270001 9.1277205e-39
-0.12503716 -0.16243143 1.2270001 7.9345176e-39
-0.12270001 -0.16243143 1.2270001 1.3835038e-38
-0.12036287 -0.16243143 1.2270001 1.4480472e-38
-0.11802572 -0.16243143 1.2270001 1.3189733e-38
-0.11616001 -0.16309334 1.2320001 8.5914604e-39
-0.11418286 -0.16362287 1.2360001 8.7758516e-39
-0.11182857 -0.16362287 1.2360001 9.8785993e-39
-0.10947429 -0.16362287 1.2360001 9.0488386e-39
-0.10712001 -0.16362287 1.2360001 8.955208e-39
-0.10518952 -0.16428477 1.2410001 1.0614729e-38
-0.10282572 -0.16428477 1.2410001 1.1626338e-38
-0.10046192 -0.16428477 1.2410001 1.0796577e-38
-0.098414287 -0.16481429 1.245 4.3544369e-39
-0.096042857 -0.16481429 1.245 5.7441606e-40
-0.093671434 -0.16481429 1.245 2.0472985e-39
-0.091299996 -0.16481429 1.245 9.3307532e-39
-0.089285716 -0.16547619 1.25 1.429031e-38
-0.086904764 -0.16547619 1.25 1.7978135e-38
-0.084523812 -0.16547619 1.25 1.8162186e-38
-0.08214286 -0.16547619 1.25 1.7516817e-38
-0.079761907 -0.16547619 1.25 1.7057283e-38
-0.1810562 -0.16426952 1.2590001 1.7702675e-38
-0.1786581 -0.16426952 1.2590001 1.8809023e-38
-0.17570001 -0.16374762 1.2550001 1.843989e-38
-0.17261904 -0.16309524 1.25 1.2078391e-38
-0.17023809 -0.16309524 1.25 4.344007e-39
-0.16785714 -0.16309524 1.25 5.1737677e-39
-0.16547619 -0.16309524 1.25 9.4075388e-39
-0.16244286 -0.16244286 1.245 1.1896821e-38
-0.15955715 -0.16192096 1.2410001 9.5969649e-39
-0.15656 -0.16126858 1.2360001 5.3559659e-39
-0.15370668 -0.16074668 1.2320001 1.8701897e-39
-0.15136001 -0.16074668 1.2320001 1.7779941e-39
-0.14840858 -0.16009429 1.2270001 1.5928868e-39
-0.14607145 -0.16009429 1.2270001 5.280712e-39
-0.14373431 -0.16009429 1.2270001 1.2359935e-38
-0.14139715 -0.16009429 1.2270001 1.4203847e-38
-0.13906002 -0.16009429 1.2270001 1.3001717e-38
-0.13672288 -0.16009429 1.2270001 8.1153482e-39
-0.13438572 -0.16009429 1.2270001 8.0249602e-39
-0.13204859 -0.16009429 1.2270001 8.9469165e-39
-0.12971143 -0.16009429 1.2270001 9.5883455e-39
-0.12737429 -0.16009429 1.2270001 8.6663892e-39
-0.12503716 -0.16009429 1.2270001 9.2220489e-39
-0.12270001 -0.16009429 1.2270001 1.4753787e-38
-0.12036287 -0.16009429 1.2270001 1.5307709e-38
-0.11850668 -0.16074668 1.2320001 1.4754535e-38
-0.11616001 -0.16074668 1.2320001 1.0982448e-38
-0.11418286 -0.16126858 1.2360001 9.5995139e-39
-0.11182857 -0.16126858 1.2360001 8.7747726e-39
-0.10947429 -0.16126858 1.2360001 8.5903814e-39
-0.10755334 -0.16192096 1.2410001 1.0794444e-38
-0.10518952 -0.16192096 1.2410001 1.2269575e-38
-0.10315715 -0.16244286 1.245 1.309606e-38
-0.10078571 -0.16244286 1.245 1.374143e-38
-0.098414287 -0.16244286 1.245 1.0331694e-38
-0.096042857 -0.16244286 1.245 7.012651e-39
-0.093671434 -0.16244286 1.245 6.923279e-39
-0.091666669 -0.16309524 1.25 1.07033e-38
-0.089285716 -0.16309524 1.25 1.32776e-38
-0.086904764 -0.16309524 1.25 1.6965425e-38
-0.084523812 -0.16309524 1.25 1.7332778e-38
-0.08214286 -0.16309524 1.25 1.68718e-38
-0.079761907 -0.16309524 1.25 1.6688138e-38
-0.1810562 -0.16187143 1.2590001 1.7240971e-38
-0.1786581 -0.16187143 1.2590001 1.8070732e-38
-0.17570001 -0.16135716 1.2550001 1.8530643e-38
-0.17330955 -0.16135716 1.2550001 1.2353536e-38
-0.17091906 -0.16135716 1.2550001 6.5523988e-39
-0.16852859 -0.16135716 1.2550001 7.1977682e-39
-0.16547619 -0.16071428 1.25 1.0326617e-38
-0.16244286 -0.16007142 1.245 1.2354921e-38
-0.15955715 -0.15955715 1.2410001 1.0241987e-38
-0.15656 -0.1589143 1.2360001 6.6463572e-39
-0.15420572 -0.1589143 1.2360001 1.5932371e-39
-0.15136001 -0.15840001 1.2320001 1.0400633e-39
-0.14901336 -0.15840001 1.2320001 2.2353695e-39
-0.14607145 -0.15775716 1.2270001 7.9514986e-39
-0.14373431 -0.15775716 1.2270001 1.3646383e-38
-0.14139715 -0.15775716 1.2270001 1.4844926e-38
-0.13906002 -0.15775716 1.2270001 1.3647471e-38
-0.13672288 -0.15775716 1.2270001 9.9596462e-39
-0.13438572 -0.15775716 1.2270001 8.4830769e-39
-0.13204859 -0.15775716 1.2270001 8.7596638e-39
-0.12971143 -0.15775716 1.2270001 9.2202244e-39
-0.12737429 -0.15775716 1.2270001 1.0510963e-38
-0.12554666 -0.15840001 1.2320001 1.1523031e-38
-0.12320001 -0.15840001 1.2320001 1.5210857e-38
-0.12085334 -0.15840001 1.2320001 1.6227124e-38
-0.11850668 -0.15840001 1.2320001 1.5766146e-38
-0.11653715 -0.1589143 1.2360001 1.2824904e-38
-0.11464477 -0.15955715 1.2410001 1.0520013e-38
-0.11228096 -0.15955715 1.2410001 8.4070691e-39
-0.10991714 -0.15955715 1.2410001 8.683656e-39
-0.10755334 -0.15955715 1.2410001 1.1898266e-38
-0.10518952 -0.15955715 1.2410001 1.2267048e-38
-0.10315715 -0.16007142 1.245 1.3274328e-38
-0.10078571 -0.16007142 1.245 1.4011893e-38
-0.098414287 -0.16007142 1.245 1.3920811e-38
-0.096428573 -0.16071428 1.25 1.078616e-38
-0.094047621 -0.16071428 1.25 8.8539698e-39
-0.091666669 -0.16071428 1.25 1.1343252e-38
-0.089285716 -0.16071428 1.25 1.2173423e-38
-0.086904764 -0.16071428 1.25 1.5953444e-38
-0.084523812 -0.16071428 1.25 1.6503028e-38
-0.08214286 -0.16071428 1.25 1.6134245e-38
-0.1810562 -0.15947334 1.2590001 1.5859488e-38
-0.1786581 -0.15947334 1.2590001 1.6320466e-38
-0.17626001 -0.15947334 1.2590001 1.6964387e-38
-0.17330955 -0.15896668 1.2550001 1.1709236e-38
-0.17091906 -0.15896668 1.2550001 8.1172161e-39
-0.16852859 -0.15896668 1.2550001 8.3016074e-39
-0.16547619 -0.15833333 1.25 8.7614589e-39
-0.16309524 -0.15833333 1.25 8.8536545e-39
-0.15955715 -0.15719333 1.2410001 9.4986806e-39
-0.15719333 -0.15719333 1.2410001 1.2448941e-38
-0.15420572 -0.15656 1.2360001 9.5984124e-39
-0.15136001 -0.15605335 1.2320001 6.6481523e-39
-0.14901336 -0.15605335 1.2320001 8.2140683e-39
-0.14666668 -0.15605335 1.2320001 1.3192632e-38
-0.14373431 -0.15542001 1.2270001 1.4476862e-38
-0.14139715 -0.15542001 1.2270001 1.410808e-38
-0.13906002 -0.15542001 1.2270001 1.4475793e-38
-0.13672288 -0.15542001 1.2270001 1.4567989e-38
-0.13438572 -0.15542001 1.2270001 1.19876e-38
-0.13258669 -0.15605335 1.2320001 8.3919701e-39
-0.12971143 -0.15542001 1.2270001 9.1284464e-39
-0.12737429 -0.15542001 1.2270001 1.475238e-38
-0.12554666 -0.15605335 1.2320001 1.5119377e-38
-0.12320001 -0.15605335 1.2320001 1.3920834e-38
-0.12085334 -0.15605335 1.2320001 1.3190037e-38
-0.11850668 -0.15605335 1.2320001 1.3651015e-38
-0.11653715 -0.15656 1.2360001 1.4018768e-38
-0.11464477 -0.15719333 1.2410001 1.4203159e-38
-0.11228096 -0.15719333 1.2410001 1.383543e-38
-0.10991714 -0.15719333 1.2410001 1.3282257e-38
-0.10755334 -0.15719333 1.2410001 1.374e-38
-0.10518952 -0.15719333 1.2410001 1.0513153e-38
-0.10315715 -0.1577 1.245 9.0365758e-39
-0.10078571 -0.1577 1.245 9.6819452e-39
-0.098414287 -0.1577 1.245 1.0786891e-38
-0.096042857 -0.1577 1.245 1.207763e-38
-0.094047621 -0.15833333 1.25 9.5007938e-39
-0.091666669 -0.15833333 1.25 1.0975924e-38
-0.089285716 -0.15833333 1.25 1.2632969e-38
-0.086904764 -0.15833333 1.25 1.6228599e-38
-0.084523812 -0.15833333 1.25 1.6502311e-38
-0.08214286 -0.15833333 1.25 1.5856942e-38
-0.1786581 -0.15707524 1.2590001 1.558505e-38
-0.17626001 -0.15707524 1.2590001 1.5123005e-38
-0.17386191 -0.15707524 1.2590001 1.1527375e-38
-0.17146382 -0.15707524 1.2590001 9.1306422e-39
-0.16852859 -0.1565762 1.2550001 7.4711209e-39
-0.16547619 -0.15595238 1.25 7.8380607e-39
-0.16309524 -0.15595238 1.25 7.4692781e-39
-0.16007142 -0.15532857 1.245 9.8641715e-39
-0.15719333 -0.15482953 1.2410001 1.3367605e-38
-0.15482953 -0.15482953 1.2410001 1.2541477e-38
-0.15185143 -0.15420572 1.2360001 1.1158542e-38
-0.14949715 -0.15420572 1.2360001 1.1805359e-38
-0.14666668 -0.15370668 1.2320001 1.3741468e-38
-0.14432001 -0.15370668 1.2320001 1.2910985e-38
-0.14197333 -0.15370668 1.2320001 1.2265616e-38
-0.13962668 -0.15370668 1.2320001 1.3923678e-38
-0.13728002 -0.15370668 1.2320001 1.5214417e-38
-0.13493334 -0.15370668 1.2320001 1.4660187e-38
-0.13258669 -0.15370668 1.2320001 1.1709927e-38
-0.13024001 -0.15370668 1.2320001 1.1249309e-38
-0.12789334 -0.15370668 1.2320001 1.5490308e-38
-0.12554666 -0.15370668 1.2320001 1.6319345e-38
-0.12320001 -0.15370668 1.2320001 1.1064194e-38
-0.12085334 -0.15370668 1.2320001 8.6764309e-39
-0.11850668 -0.15370668 1.2320001 1.0059365e-38
-0.11653715 -0.15420572 1.2360001 1.4476474e-38
-0.11464477 -0.15482953 1.2410001 1.5859408e-38
-0.11228096 -0.15482953 1.2410001 1.5764724e-38
-0.10991714 -0.15482953 1.2410001 1.5027159e-38
-0.10755334 -0.15482953 1.2410001 1.4015874e-38
-0.10518952 -0.15482953 1.2410001 8.2075494e-39
-0.10315715 -0.15532857 1.245 7.3777565e-39
-0.10078571 -0.15532857 1.245 7.9309303e-39
-0.098414287 -0.15532857 1.245 1.0233674e-38
-0.096042857 -0.15532857 1.245 1.1524413e-38
-0.094047621 -0.15595238 1.25 9.6855242e-39
-0.091666669 -0.15595238 1.25 1.125285e-38
-0.089285716 -0.15595238 1.25 1.2633325e-38
-0.086904764 -0.15595238 1.25 1.5860172e-38
-0.084523812 -0.15595238 1.25 1.6133169e-38
-0.08214286 -0.15595238 1.25 1.5579995e-38
-0.17626001 -0.15467715 1.2590001 1.4661654e-38
-0.17386191 -0.15467715 1.2590001 1.2172372e-38
-0.17146382 -0.15467715 1.2590001 8.6718192e-39
-0.16852859 -0.15418573 1.2550001 3.6010596e-39
-0.16547619 -0.15357143 1.25 4.1570752e-39
-0.16309524 -0.15357143 1.25 4.6180534e-39
-0.16007142 -0.15295714 1.245 6.3611201e-39
-0.15719333 -0.15246572 1.2410001 1.0970902e-38
-0.15482953 -0.15246572 1.2410001 1.2262019e-38
-0.15246572 -0.15246572 1.2410001 1.456691e-38
-0.15010192 -0.15246572 1.2410001 1.2912045e-38
-0.14714286 -0.15185143 1.2360001 1.1344719e-38
-0.14478858 -0.15185143 1.2360001 1.0057958e-38
-0.14243428 -0.15185143 1.2360001 9.412589e-39
-0.14008002 -0.15185143 1.2360001 1.0979173e-38
-0.13772571 -0.15185143 1.2360001 1.2915282e-38
-0.13537145 -0.15185143 1.2360001 1.4567635e-38
-0.13301714 -0.15185143 1.2360001 1.6134961e-38
-0.13024001 -0.15136001 1.2320001 1.6135642e-38
-0.12789334 -0.15136001 1.2320001 1.4752708e-38
-0.12554666 -0.15136001 1.2320001 1.1163224e-38
-0.12320001 -0.15136001 1.2320001 7.1988121e-39
-0.12085334 -0.15136001 1.2320001 4.171475e-39
-0.11889143 -0.15185143 1.2360001 3.5261055e-39
-0.11653715 -0.15185143 1.2360001 8.4016265e-39
-0.11464477 -0.15246572 1.2410001 1.2734821e-38
-0.11264285 -0.15295714 1.245 1.4476146e-38
-0.11027143 -0.15295714 1.245 1.3277603e-38
-0.10789999 -0.15295714 1.245 1.1712037e-38
-0.10552857 -0.15295714 1.245 7.8398207e-39
-0.10315715 -0.15295714 1.245 7.1944961e-39
-0.10078571 -0.15295714 1.245 7.2866918e-39
-0.098809525 -0.15357143 1.25 8.3905058e-39
-0.096428573 -0.15357143 1.25 1.1064179e-38
-0.094047621 -0.15357143 1.25 1.0052509e-38
-0.091666669 -0.15357143 1.25 1.171203e-38
-0.089285716 -0.15357143 1.25 1.3001382e-38
-0.086904764 -0.15357143 1.25 1.6320424e-38
-0.084523812 -0.15357143 1.25 1.631756e-38
-0.17510477 -0.15336761 1.268 1.383154e-38
-0.17214477 -0.15288381 1.2640001 8.0318574e-39
-0.16906573 -0.15227905 1.2590001 2.1313371e-39
-0.16613811 -0.15179525 1.2550001 4.2467443e-39
-0.16374762 -0.15179525 1.2550001 5.7218744e-39
-0.16071428 -0.15119047 1.25 6.1792134e-39
-0.1577 -0.15058571 1.245 8.5762997e-39
-0.15482953 -0.15010192 1.2410001 1.1800297e-38
-0.15246572 -0.15010192 1.2410001 1.4842752e-38
-0.15010192 -0.15010192 1.2410001 1.2728392e-38
-0.1477381 -0.15010192 1.2410001 1.0054719e-38
-0.14537428 -0.15010192 1.2410001 8.4963907e-39
-0.14243428 -0.14949715 1.2360001 8.7729776e-39
-0.14008002 -0.14949715 1.2360001 9.3250569e-39
-0.13772571 -0.14949715 1.2360001 1.0154818e-38
-0.13537145 -0.14949715 1.2360001 1.3464515e-38
-0.13301714 -0.14949715 1.2360001 1.632258e-38
-0.13066287 -0.14949715 1.2360001 1.6412267e-38
-0.12830856 -0.14949715 1.2360001 1.1433703e-38
-0.12554666 -0.14901336 1.2320001 7.4825821e-39
-0.12320001 -0.14901336 1.2320001 5.7308651e-39
-0.12085334 -0.14901336 1.2320001 2.7961061e-39
-0.11889143 -0.14949715 1.2360001 2.0585411e-39
-0.11653715 -0.14949715 1.2360001 3.9888311e-39
-0.11501428 -0.15058571 1.245 9.4283733e-39
-0.11264285 -0.15058571 1.245 1.3098629e-38
-0.11027143 -0.15058571 1.245 1.1992281e-38
-0.10789999 -0.15058571 1.245 9.3164025e-39
-0.10552857 -0.15058571 1.245 7.3802943e-39
-0.10315715 -0.15058571 1.245 7.6536694e-39
-0.10078571 -0.15058571 1.245 7.5614738e-39
-0.098809525 -0.15119047 1.25 8.482686e-39
-0.096428573 -0.15119047 1.25 1.0603185e-38
-0.094047621 -0.15119047 1.25 9.8666784e-39
-0.091666669 -0.15119047 1.25 1.15262e-38
-0.089285716 -0.15119047 1.25 1.3460915e-38
-0.086904764 -0.15119047 1.25 1.6042393e-38
-0.084523812 -0.15119047 1.25 1.585873e-38
-0.17510477 -0.15095238 1.268 1.5029718e-38
-0.17214477 -0.15047619 1.2640001 1.1344414e-38
-0.16906573 -0.14988096 1.2590001 3.7843719e-39
-0.16613811 -0.14940478 1.2550001 4.7066336e-39
-0.16374762 -0.14940478 1.2550001 6.366155e-39
-0.16071428 -0.14880952 1.25 6.3625677e-39
-0.1577 -0.14821428 1.245 7.1001327e-39
-0.15482953 -0.1477381 1.2410001 8.8525657e-39
-0.15246572 -0.1477381 1.2410001 1.3554543e-38
-0.15010192 -0.1477381 1.2410001 1.1992972e-38
-0.1477381 -0.1477381 1.2410001 9.5958859e-39
-0.14537428 -0.1477381 1.2410001 8.5885863e-39
-0.14301048 -0.1477381 1.2410001 9.1417601e-39
-0.14064667 -0.1477381 1.2410001 9.3250752e-39
-0.13828287 -0.1477381 1.2410001 9.3250752e-39
-0.13591906 -0.1477381 1.2410001 1.1713151e-38
-0.13301714 -0.14714286 1.2360001 1.5585368e-38
-0.13066287 -0.14714286 1.2360001 1.4756686e-38
-0.12830856 -0.14714286 1.2360001 6.9200574e-39
-0.1259543 -0.14714286 1.2360001 1.3238501e-39
-0.12320001 -0.14666668 1.2320001 3.1677627e-39
-0.12085334 -0.14666668 1.2320001 4.7271697e-39
-0.11889143 -0.14714286 1.2360001 3.897409e-39
-0.11653715 -0.14714286 1.2360001 4.5402449e-39
-0.11501428 -0.14821428 1.245 7.7670919e-39
-0.11264285 -0.14821428 1.245 1.3005317e-38
-0.11027143 -0.14821428 1.245 1.1530186e-38
-0.10789999 -0.14821428 1.245 9.1309575e-39
-0.10552857 -0.14821428 1.245 6.9182624e-39
-0.10315715 -0.14821428 1.245 7.8373572e-39
-0.10119048 -0.14880952 1.25 9.0359004e-39
-0.098809525 -0.14880952 1.25 1.087797e-38
-0.096428573 -0.14880952 1.25 1.2168709e-38
-0.094047621 -0.14880952 1.25 1.0142573e-38
-0.091666669 -0.14880952 1.25 1.1433312e-38
-0.089285716 -0.14880952 1.25 1.3276521e-38
-0.086904764 -0.14880952 1.25 1.5212629e-38
-0.084523812 -0.14880952 1.25 1.5027878e-38
-0.1745524 -0.14806858 1.2640001 1.5765125e-38
-0.17214477 -0.14806858 1.2640001 1.2540816e-38
-0.16906573 -0.14748287 1.2590001 5.2573607e-39
-0.16666763 -0.14748287 1.2590001 4.7988293e-39
-0.16374762 -0.1470143 1.2550001 6.4583506e-39
-0.16135716 -0.1470143 1.2550001 5.7200303e-39
-0.15833333 -0.14642857 1.25 6.8263778e-39
-0.15482953 -0.14537428 1.2410001 8.8529132e-39
-0.15246572 -0.14537428 1.2410001 1.355489e-38
-0.15010192 -0.14537428 1.2410001 1.1808944e-38
-0.1477381 -0.14537428 1.2410001 9.6884445e-39
-0.14537428 -0.14537428 1.2410001 8.4960306e-39
-0.14301048 -0.14537428 1.2410001 8.9570087e-39
-0.14064667 -0.14537428 1.2410001 8.9562898e-39
-0.13828287 -0.14537428 1.2410001 9.1406811e-39
-0.13591906 -0.14537428 1.2410001 1.1162486e-38
-0.13301714 -0.14478858 1.2360001 1.4942507e-38
-0.13066287 -0.14478858 1.2360001 1.328625e-38
-0.12830856 -0.14478858 1.2360001 6.0949911e-39
-0.1259543 -0.14478858 1.2360001 1.6915466e-39
-0.1236 -0.14478858 1.2360001 3.351068e-39
-0.12124572 -0.14478858 1.2360001 4.9097589e-39
-0.11889143 -0.14478858 1.2360001 3.8034113e-39
-0.11653715 -0.14478858 1.2360001 3.6207997e-39
-0.11501428 -0.14584285 1.245 8.6915593e-39
-0.11264285 -0.14584285 1.245 1.2822027e-38
-0.11027143 -0.14584285 1.245 1.2453244e-38
-0.10789999 -0.14584285 1.245 9.5008288e-39
-0.10552857 -0.14584285 1.245 6.458373e-39
-0.10315715 -0.14584285 1.245 8.1128273e-39
-0.10119048 -0.14642857 1.25 1.0786501e-38
-0.098809525 -0.14642857 1.25 1.2442782e-38
-0.09681429 -0.1470143 1.2550001 1.142863e-38
-0.094423823 -0.1470143 1.2550001 9.8677322e-39
-0.092033342 -0.1470143 1.2550001 1.1988232e-38
-0.08964286 -0.1470143 1.2550001 1.3368001e-38
-0.087252386 -0.1470143 1.2550001 1.4843131e-38
-0.1745524 -0.14566095 1.2640001 1.6134623e-38
-0.17214477 -0.14566095 1.2640001 1.4843885e-38
-0.16906573 -0.14508477 1.2590001 7.4682342e-39
-0.16613811 -0.14462382 1.2550001 7.2845338e-39
-0.16374762 -0.14462382 1.2550001 8.0220988e-39
-0.16135716 -0.14462382 1.2550001 8.3883253e-39
-0.15833333 -0.14404762 1.25 1.1154194e-38
-0.15532857 -0.14347143 1.245 1.2169813e-38
-0.15295714 -0.14347143 1.245 1.4474704e-38
-0.15010192 -0.14301048 1.2410001 1.235996e-38
-0.1477381 -0.14301048 1.2410001 1.1530199e-38
-0.14537428 -0.14301048 1.2410001 9.8764483e-39
-0.14301048 -0.14301048 1.2410001 9.3232745e-39
-0.14064667 -0.14301048 1.2410001 9.5073126e-39
-0.13828287 -0.14301048 1.2410001 1.0982443e-38
-0.13591906 -0.14301048 1.2410001 1.3187925e-38
-0.13301714 -0.14243428 1.2360001 1.5769403e-38
-0.13066287 -0.14243428 1.2360001 1.4848175e-38
-0.12830856 -0.14243428 1.2360001 1.2819871e-38
-0.1259543 -0.14243428 1.2360001 6.8430154e-39
-0.1236 -0.14243428 1.2360001 3.9849509e-39
-0.12124572 -0.14243428 1.2360001 1.8759547e-39
-0.11889143 -0.14243428 1.2360001 2.5213241e-39
-0.11653715 -0.14243428 1.2360001 7.2982006e-39
-0.11464477 -0.14301048 1.2410001 1.2553352e-38
-0.11264285 -0.14347143 1.245 1.5030386e-38
-0.11027143 -0.14347143 1.245 1.5030386e-38
-0.10789999 -0.14347143 1.245 1.281736e-38
-0.10552857 -0.14347143 1.245 9.0373395e-39
-0.10357143 -0.14404762 1.25 9.8663295e-39
-0.10119048 -0.14404762 1.25 1.2908785e-38
-0.098809525 -0.14404762 1.25 1.1342551e-38
-0.096428573 -0.14404762 1.25 6.4561828e-39
-0.094423823 -0.14462382 1.2550001 5.9999158e-39
-0.092033342 -0.14462382 1.2550001 1.1255067e-38
-0.08964286 -0.14462382 1.2550001 1.3828619e-38
-0.1745524 -0.14325333 1.2640001 1.5675084e-38
-0.17146382 -0.14268668 1.2590001 1.4935377e-38
-0.16906573 -0.14268668 1.2590001 8.7582695e-39
-0.16613811 -0.14223334 1.2550001 8.0238616e-39
-0.16374762 -0.14223334 1.2550001 8.0238616e-39
-0.16135716 -0.14223334 1.2550001 8.3897673e-39
-0.15833333 -0.14166667 1.25 1.2722962e-38
-0.15532857 -0.1411 1.245 1.3091779e-38
-0.15295714 -0.1411 1.245 1.2722997e-38
-0.15010192 -0.14064667 1.2410001 1.2635056e-38
-0.1477381 -0.14064667 1.2410001 1.3003838e-38
-0.14537428 -0.14064667 1.2410001 1.1255423e-38
-0.14301048 -0.14064667 1.2410001 9.6880969e-39
-0.14064667 -0.14064667 1.2410001 8.9555738e-39
-0.13828287 -0.14064667 1.2410001 1.1721443e-38
-0.13591906 -0.14064667 1.2410001 1.4476865e-38
-0.13355523 -0.14064667 1.2410001 1.4845647e-38
-0.13066287 -0.14008002 1.2360001 1.5398413e-38
-0.12830856 -0.14008002 1.2360001 1.4937435e-38
-0.1259543 -0.14008002 1.2360001 1.1811487e-38
-0.1236 -0.14008002 1.2360001 6.5563364e-39
-0.12124572 -0.14008002 1.2360001 2.7013447e-39
-0.11889143 -0.14008002 1.2360001 4.8218442e-39
-0.11653715 -0.14008002 1.2360001 1.1436924e-38
-0.11464477 -0.14064667 1.2410001 1.447938e-38
-0.11264285 -0.1411 1.245 1.502967e-38
-0.11027143 -0.1411 1.245 1.4568692e-38
-0.10789999 -0.1411 1.245 1.4109168e-38
-0.10552857 -0.1411 1.245 1.2357451e-38
-0.10357143 -0.14166667 1.25 1.0972727e-38
-0.10119048 -0.14166667 1.25 1.1894684e-38
-0.098809525 -0.14166667 1.25 1.0698618e-38
-0.096428573 -0.14166667 1.25 4.6137065e-39
-0.094423823 -0.14223334 1.2550001 4.714153e-39
-0.092033342 -0.14223334 1.2550001 1.0706869e-38
-0.08964286 -0.14223334 1.2550001 1.3920095e-38
-0.1745524 -0.14084572 1.2640001 1.5488888e-38
-0.17214477 -0.14084572 1.2640001 1.493573e-38
-0.16906573 -0.14028858 1.2590001 8.9430139e-39
-0.16666763 -0.14028858 1.2590001 6.8282247e-39
-0.16374762 -0.13984287 1.2550001 8.6721373e-39
-0.16135716 -0.13984287 1.2550001 1.0234421e-38
-0.15833333 -0.13928571 1.25 1.3553464e-38
-0.15532857 -0.13872856 1.245 1.1711363e-38
-0.15295714 -0.13872856 1.245 6.5484079e-39
-0.15058571 -0.13872856 1.245 7.2019973e-39
-0.1477381 -0.13828287 1.2410001 1.2088366e-38
-0.14537428 -0.13828287 1.2410001 1.3096458e-38
-0.14301048 -0.13828287 1.2410001 1.2819871e-38
-0.14064667 -0.13828287 1.2410001 1.4110572e-38
-0.13828287 -0.13828287 1.2410001 1.5493507e-38
-0.13591906 -0.13828287 1.2410001 1.4475793e-38
-0.13355523 -0.13828287 1.2410001 1.0972359e-38
-0.13119143 -0.13828287 1.2410001 1.1435774e-38
-0.12830856 -0.13772571 1.2360001 1.4754817e-38
-0.1259543 -0.13772571 1.2360001 1.4663068e-38
-0.1236 -0.13772571 1.2360001 1.3741112e-38
-0.12124572 -0.13772571 1.2360001 1.2824137e-38
-0.11889143 -0.13772571 1.2360001 1.3838289e-38
-0.11653715 -0.13772571 1.2360001 1.4479743e-38
-0.11501428 -0.13872856 1.245 1.3189004e-38
-0.11264285 -0.13872856 1.245 1.1163234e-38
-0.11027143 -0.13872856 1.245 1.0241278e-38
-0.10789999 -0.13872856 1.245 1.1529496e-38
-0.10595238 -0.13928571 1.25 1.3834386e-38
-0.10357143 -0.13928571 1.25 1.410808e-38
-0.10119048 -0.13928571 1.25 1.0235863e-38
-0.098809525 -0.13928571 1.25 5.6368688e-39
-0.096428573 -0.13928571 1.25 2.5022174e-39
-0.094724767 -0.14028858 1.2590001 4.1620764e-39
-0.092326671 -0.14028858 1.2590001 9.6938142e-39
-0.089928575 -0.14028858 1.2590001 1.3919742e-38
-0.1745524 -0.13843809 1.2640001 1.5304497e-38
-0.17214477 -0.13843809 1.2640001 1.4660935e-38
-0.16906573 -0.13789047 1.2590001 8.6682193e-39
-0.16666763 -0.13789047 1.2590001 5.1712117e-39
-0.16426952 -0.13789047 1.2590001 7.3839068e-39
-0.16135716 -0.13745239 1.2550001 1.1247842e-38
-0.15896668 -0.13745239 1.2550001 1.2354189e-38
-0.15595238 -0.13690476 1.25 1.0055788e-38
-0.15295714 -0.13635714 1.245 4.2474632e-39
-0.15058571 -0.13635714 1.245 2.6026499e-39
-0.14821428 -0.13635714 1.245 7.7656051e-39
-0.14537428 -0.13591906 1.2410001 1.3463764e-38
-0.14301048 -0.13591906 1.2410001 1.4846698e-38
-0.14064667 -0.13591906 1.2410001 1.5580708e-38
-0.13828287 -0.13591906 1.2410001 1.5396317e-38
-0.13635714 -0.13635714 1.245 1.383113e-38
-0.13355523 -0.13591906 1.2410001 9.036957e-39
-0.13119143 -0.13591906 1.2410001 9.1287322e-39
-0.12882763 -0.13591906 1.2410001 1.2171188e-38
-0.12646382 -0.13591906 1.2410001 1.5485954e-38
-0.12410001 -0.13591906 1.2410001 1.6039128e-38
-0.12124572 -0.13537145 1.2360001 1.5397011e-38
-0.11889143 -0.13537145 1.2360001 1.6134576e-38
-0.11700858 -0.13591906 1.2410001 1.4480472e-38
-0.11501428 -0.13635714 1.245 1.1069234e-38
-0.11264285 -0.13635714 1.245 9.7853246e-39
-0.11027143 -0.13635714 1.245 9.0477596e-39
-0.10833333 -0.13690476 1.25 1.0518195e-38
-0.10595238 -0.13690476 1.25 1.337626e-38
-0.10357143 -0.13690476 1.25 1.3648563e-38
-0.10119048 -0.13690476 1.25 7.655847e-39
-0.099204771 -0.13745239 1.2550001 2.4204292e-39
-0.097122863 -0.13789047 1.2590001 1.4984729e-39
-0.094724767 -0.13789047 1.2590001 4.6205589e-39
-0.089928575 -0.13789047 1.2590001 1.3828265e-38
-0.17146382 -0.1354924 1.2590001 1.5027913e-38
-0.16906573 -0.1354924 1.2590001 1.0971305e-38
-0.16666763 -0.1354924 1.2590001 5.0815623e-39
-0.16374762 -0.13506192 1.2550001 5.634736e-39
-0.16135716 -0.13506192 1.2550001 9.4107463e-39
-0.15896668 -0.13506192 1.2550001 1.0056116e-38
-0.15595238 -0.13452381 1.25 7.9388631e-39
-0.15357143 -0.13452381 1.25 4.5276248e-39
-0.15119047 -0.13452381 1.25 2.3286666e-39
-0.14821428 -0.13398571 1.245 2.6974491e-39
-0.14584285 -0.13398571 1.245 8.3994545e-39
-0.14347143 -0.13398571 1.245 1.3931192e-38
-0.1411 -0.13398571 1.245 1.5488147e-38
-0.13872856 -0.13398571 1.245 1.1708126e-38
-0.13635714 -0.13398571 1.245 8.7614589e-39
-0.13355523 -0.13355523 1.2410001 9.1302414e-39
-0.13119143 -0.13355523 1.2410001 9.7727368e-39
-0.12882763 -0.13355523 1.2410001 9.219563e-39
-0.12646382 -0.13355523 1.2410001 1.0419852e-38
-0.12410001 -0.13355523 1.2410001 1.4753047e-38
-0.12173619 -0.13355523 1.2410001 1.5304121e-38
-0.11937238 -0.13355523 1.2410001 1.5488513e-38
-0.11700858 -0.13355523 1.2410001 1.3559212e-38
-0.11501428 -0.13398571 1.245 1.0885539e-38
-0.11264285 -0.13398571 1.245 9.3261542e-39
-0.11027143 -0.13398571 1.245 8.9573716e-39
-0.10833333 -0.13452381 1.25 1.0518195e-38
-0.10595238 -0.13452381 1.25 1.2546499e-38
-0.10398573 -0.13506192 1.2550001 1.2268483e-38
-0.10159525 -0.13506192 1.2550001 5.3538107e-39
-0.099520952 -0.1354924 1.2590001 1.0393473e-39
-0.097122863 -0.1354924 1.2590001 8.5495602e-40
-0.095100954 -0.13603048 1.2640001 5.8165937e-39
-0.16906573 -0.1330943 1.2590001 1.1615949e-38
-0.16666763 -0.1330943 1.2590001 6.2761524e-39
-0.16374762 -0.13267143 1.2550001 5.9995655e-39
-0.16135716 -0.13267143 1.2550001 7.6630021e-39
-0.15896668 -0.13267143 1.2550001 8.5849584e-39
-0.15595238 -0.13214286 1.25 4.1686009e-39
-0.15357143 -0.13214286 1.25 2.7856664e-39
-0.15119047 -0.13214286 1.25 1.7790731e-39
-0.14821428 -0.1316143 1.245 1.2258993e-39
-0.14584285 -0.1316143 1.245 3.1565383e-39
-0.14347143 -0.1316143 1.245 1.1269754e-38
-0.1411 -0.1316143 1.245 1.4845677e-38
-0.13872856 -0.1316143 1.245 1.01437e-38
-0.13635714 -0.1316143 1.245 8.5766795e-39
-0.13355523 -0.13119143 1.2410001 9.7752227e-39
-0.13119143 -0.13119143 1.2410001 1.0326614e-38
-0.12882763 -0.13119143 1.2410001 9.2202664e-39
-0.12646382 -0.13119143 1.2410001 8.7628294e-39
-0.12410001 -0.13119143 1.2410001 1.3925785e-38
-0.12173619 -0.13119143 1.2410001 1.4568351e-38
-0.11937238 -0.13119143 1.2410001 1.4568351e-38
-0.11700858 -0.13119143 1.2410001 1.098208e-38
-0.11501428 -0.1316143 1.245 9.8757322e-39
-0.11264285 -0.1316143 1.245 9.3257912e-39
-0.11027143 -0.1316143 1.245 9.1414e-39
-0.10833333 -0.13214286 1.25 1.0518561e-38
-0.10595238 -0.13214286 1.25 1.2362474e-38
-0.10398573 -0.13267143 1.2550001 1.1717117e-38
-0.10159525 -0.13267143 1.2550001 5.7244009e-39
-0.099520952 -0.1330943 1.2590001 2.4161384e-39
-0.097122863 -0.1330943 1.2590001 2.6927253e-39
-0.095401898 -0.13404572 1.268 7.1962562e-39
-0.16973716 -0.13121524 1.2640001 1.1985079e-38
-0.16666763 -0.13069619 1.2590001 7.1952809e-39
-0.16426952 -0.13069619 1.2590001 6.6421071e-39
-0.16187143 -0.13069619 1.2590001 8.4902642e-39
-0.15947334 -0.13069619 1.2590001 1.0610764e-38
-0.1565762 -0.13028096 1.2550001 7.6655538e-39
-0.15418573 -0.13028096 1.2550001 4.1621199e-39
-0.15179525 -0.13028096 1.2550001 1.1358617e-39
-0.14821428 -0.12924285 1.245 1.2280573e-39
-0.14584285 -0.12924285 1.245 3.432105e-39
-0.14347143 -0.12924285 1.245 1.0162386e-38
-0.1411 -0.12924285 1.245 1.4110948e-38
-0.13872856 -0.12924285 1.245 9.2245796e-39
-0.13635714 -0.12924285 1.245 7.6586987e-39
-0.13355523 -0.12882763 1.2410001 8.580655e-39
-0.13119143 -0.12882763 1.2410001 9.8659862e-39
-0.12882763 -0.12882763 1.2410001 9.1284211e-39
-0.12646382 -0.12882763 1.2410001 8.7607176e-39
-0.12410001 -0.12882763 1.2410001 1.3370499e-38
-0.12173619 -0.12882763 1.2410001 1.5030376e-38
-0.11937238 -0.12882763 1.2410001 1.5214768e-38
-0.11700858 -0.12882763 1.2410001 1.2177754e-38
-0.11501428 -0.12924285 1.245 1.0333842e-38
-0.11264285 -0.12924285 1.245 8.8666151e-39
-0.11027143 -0.12924285 1.245 8.8666151e-39
-0.10833333 -0.1297619 1.25 1.1346527e-38
-0.10595238 -0.1297619 1.25 1.3098244e-38
-0.10398573 -0.13028096 1.2550001 1.3371594e-38
-0.10191905 -0.13069619 1.2590001 1.134329e-38
-0.099520952 -0.13069619 1.2590001 7.5697554e-39
-0.097508572 -0.13121524 1.2640001 6.2790166e-39
-0.095401898 -0.13163048 1.268 7.8427172e-39
-0.092986666 -0.13163048 1.268 1.2083716e-38
-0.16973716 -0.12880762 1.2640001 1.2261306e-38
-0.16666763 -0.1282981 1.2590001 9.9614566e-39
-0.16426952 -0.1282981 1.2590001 8.3941309e-39
-0.16187143 -0.1282981 1.2590001 9.5929894e-39
-0.15947334 -0.1282981 1.2590001 1.1344706e-38
-0.1565762 -0.1278905 1.2550001 9.0474065e-39
-0.15418573 -0.1278905 1.2550001 4.8064075e-39
-0.15119047 -0.12738095 1.25 9.5145503e-40
-0.14821428 -0.12687142 1.245 1.1358463e-39
-0.14584285 -0.12687142 1.245 3.8008848e-39
-0.14347143 -0.12687142 1.245 1.0807753e-38
-0.1411 -0.12687142 1.245 1.4204594e-38
-0.13872856 -0.12687142 1.245 1.1162138e-38
-0.13635714 -0.12687142 1.245 8.0278848e-39
-0.13355523 -0.12646382 1.2410001 7.6591022e-39
-0.13119143 -0.12646382 1.2410001 8.6685024e-39
-0.12924285 -0.12687142 1.245 8.9450893e-39
-0.12687142 -0.12687142 1.245 9.3128376e-39
-0.12450001 -0.12687142 1.245 1.4383597e-38
-0.12212857 -0.12687142 1.245 1.548992e-38
-0.11975715 -0.12687142 1.245 1.5582115e-38
-0.11738571 -0.12687142 1.245 1.3099348e-38
-0.11501428 -0.12687142 1.245 1.0610066e-38
-0.11309524 -0.12738095 1.25 8.498899e-39
-0.11071429 -0.12738095 1.25 8.9598772e-39
-0.10876667 -0.1278905 1.2550001 1.1806786e-38
-0.10637619 -0.1278905 1.2550001 1.2636547e-38
-0.10431714 -0.1282981 1.2590001 1.3922567e-38
-0.10191905 -0.1282981 1.2590001 1.3185002e-38
-0.09991619 -0.12880762 1.2640001 1.0883763e-38
-0.097508572 -0.12880762 1.2640001 8.4866769e-39
-0.095401898 -0.12921523 1.268 8.6713694e-39
-0.092986666 -0.12921523 1.268 1.2174803e-38
-0.090928569 -0.12972476 1.273 1.3828606e-38
-0.16973716 -0.12639999 1.2640001 1.2261303e-38
-0.16732953 -0.12639999 1.2640001 9.8674631e-39
-0.16426952 -0.1259 1.2590001 9.1298981e-39
-0.16187143 -0.1259 1.2590001 9.5004308e-39
-0.15947334 -0.1259 1.2590001 1.0422387e-38
-0.1565762 -0.12550001 1.2550001 1.0239113e-38
-0.15418573 -0.12550001 1.2550001 1.0054721e-38
-0.15119047 -0.125 1.25 8.5845954e-39
-0.14821428 -0.12450001 1.245 8.7689867e-39
-0.14584285 -0.12450001 1.245 1.0425309e-38
-0.14347143 -0.12450001 1.245 1.3652156e-38
-0.1411 -0.12450001 1.245 1.4386459e-38
-0.13872856 -0.12450001 1.245 1.4663046e-38
-0.13635714 -0.12450001 1.245 1.2541518e-38
-0.13398571 -0.12450001 1.245 9.0380836e-39
-0.1316143 -0.12450001 1.245 8.6706702e-39
-0.12924285 -0.12450001 1.245 1.0975561e-38
-0.12687142 -0.12450001 1.245 1.2907038e-38
-0.12450001 -0.12450001 1.245 1.5580711e-38
-0.12212857 -0.12450001 1.245 1.5030739e-38
-0.11975715 -0.12450001 1.245 1.5215131e-38
-0.11738571 -0.12450001 1.245 1.4571588e-38
-0.11501428 -0.12450001 1.245 1.3649632e-38
-0.11309524 -0.125 1.25 1.2730518e-38
-0.11071429 -0.125 1.25 1.3191496e-38
-0.10876667 -0.12550001 1.2550001 1.346236e-38
-0.10637619 -0.12550001 1.2550001 1.0143317e-38
-0.10431714 -0.1259 1.2590001 1.0236852e-38
-0.10191905 -0.1259 1.2590001 1.3002721e-38
-0.09991619 -0.12639999 1.2640001 1.2540048e-38
-0.097817145 -0.1268 1.268 1.0142961e-38
-0.095401898 -0.1268 1.268 9.0380136e-39
-0.093353339 -0.12729999 1.273 1.1803882e-38
-0.090928569 -0.12729999 1.273 1.3734953e-38
-0.16973716 -0.12399238 1.2640001 1.3276174e-38
-0.16732953 -0.12399238 1.2640001 9.4093619e-39
-0.16492191 -0.12399238 1.2640001 7.381058e-39
-0.1625143 -0.12399238 1.2640001 8.6670772e-39
-0.16010667 -0.12399238 1.2640001 9.220251e-39
-0.15707524 -0.1235019 1.2590001 1.1247829e-38
-0.15467715 -0.1235019 1.2590001 1.1985394e-38
-0.15179525 -0.12310953 1.2550001 1.0880854e-38
-0.14880952 -0.12261905 1.25 1.2540376e-38
-0.14642857 -0.12261905 1.25 1.3187925e-38
-0.14404762 -0.12261905 1.25 1.2726947e-38
-0.1411 -0.12212857 1.245 1.3370502e-38
-0.13872856 -0.12212857 1.245 1.4661241e-38
-0.13635714 -0.12212857 1.245 1.5672541e-38
-0.13398571 -0.12212857 1.245 1.189252e-38
-0.1316143 -0.12212857 1.245 9.9592608e-39
-0.12924285 -0.12212857 1.245 1.3186108e-38
-0.12687142 -0.12212857 1.245 1.5762929e-38
-0.12450001 -0.12212857 1.245 1.4195603e-38
-0.12212857 -0.12212857 1.245 1.263365e-38
-0.11975715 -0.12212857 1.245 1.3463411e-38
-0.11738571 -0.12212857 1.245 1.4571916e-38
-0.11501428 -0.12212857 1.245 1.4848503e-38
-0.11309524 -0.12261905 1.25 1.4752736e-38
-0.11071429 -0.12261905 1.25 1.466054e-38
-0.10876667 -0.12310953 1.2550001 1.4198833e-38
-0.10671524 -0.1235019 1.2590001 8.1139217e-39
-0.10431714 -0.1235019 1.2590001 8.2971218e-39
-0.10232381 -0.12399238 1.2640001 1.1616165e-38
-0.09991619 -0.12399238 1.2640001 1.2906309e-38
-0.097817145 -0.12438476 1.268 1.0417027e-38
-0.095401898 -0.12438476 1.268 8.8528796e-39
-0.092986666 -0.12438476 1.268 1.2264118e-38
-0.090571426 -0.12438476 1.268 1.3733884e-38
-0.088156193 -0.12438476 1.268 1.3641688e-38
-0.16973716 -0.12158477 1.2640001 1.4013726e-38
-0.16732953 -0.12158477 1.2640001 1.1157469e-38
-0.16492191 -0.12158477 1.2640001 5.6257313e-39
-0.1625143 -0.12158477 1.2640001 5.7207856e-39
-0.16010667 -0.12158477 1.2640001 5.8129812e-39
-0.15707524 -0.12110382 1.2590001 7.2838079e-39
-0.15467715 -0.12110382 1.2590001 1.2907741e-38
-0.15179525 -0.12071906 1.2550001 1.3737126e-38
-0.14880952 -0.1202381 1.25 1.4751278e-38
-0.14642857 -0.1202381 1.25 1.1990827e-38
-0.14404762 -0.1202381 1.25 1.0515697e-38
-0.1411 -0.11975715 1.245 1.0333826e-38
-0.13872856 -0.11975715 1.245 1.1716761e-38
-0.13635714 -0.11975715 1.245 1.3832219e-38
-0.13398571 -0.11975715 1.245 1.5307349e-38
-0.1316143 -0.11975715 1.245 1.5766134e-38
-0.12924285 -0.11975715 1.245 1.6319308e-38
-0.12687142 -0.11975715 1.245 1.3463821e-38
-0.12450001 -0.11975715 1.245 9.4072137e-39
-0.12212857 -0.11975715 1.245 6.1028818e-39
-0.11975715 -0.11975715 1.245 5.3653168e-39
-0.11738571 -0.11975715 1.245 9.507244e-39
-0.11501428 -0.11975715 1.245 1.402483e-38
-0.11309524 -0.1202381 1.25 1.5397749e-38
-0.11071429 -0.1202381 1.25 1.3369445e-38
-0.10876667 -0.12071906 1.2550001 1.180245e-38
-0.10671524 -0.12110382 1.2590001 7.8380382e-39
-0.10431714 -0.12110382 1.2590001 7.563231e-39
-0.10232381 -0.12158477 1.2640001 8.7617742e-39
-0.09991619 -0.12158477 1.2640001 1.0329103e-38
-0.097817145 -0.12196951 1.268 8.9461683e-39
-0.095401898 -0.12196951 1.268 8.9443802e-39
-0.092986666 -0.12196951 1.268 1.2447814e-38
-0.090571426 -0.12196951 1.268 1.3826435e-38
-0.16852096 -0.12002572 1.273 1.134151e-38
-0.16544381 -0.11955428 1.268 5.3487941e-39
-0.16302858 -0.11955428 1.268 4.3389301e-39
-0.16061333 -0.11955428 1.268 5.4452777e-39
-0.15769906 -0.11917715 1.2640001 6.8238541e-39
-0.15467715 -0.11870572 1.2590001 1.1710222e-38
-0.15227905 -0.11870572 1.2590001 1.3829332e-38
-0.14880952 -0.11785714 1.25 1.4198114e-38
-0.14642857 -0.11785714 1.25 1.1255054e-38
-0.14404762 -0.11785714 1.25 9.9643153e-39
-0.14166667 -0.11785714 1.25 8.6818581e-39
-0.13928571 -0.11785714 1.25 8.5896625e-39
-0.13635714 -0.11738571 1.245 1.226812e-38
-0.13398571 -0.11738571 1.245 1.521838e-38
-0.1316143 -0.11738571 1.245 1.6687762e-38
-0.12924285 -0.11738571 1.245 1.5765806e-38
-0.12687142 -0.11738571 1.245 1.0891667e-38
-0.12450001 -0.11738571 1.245 5.7287113e-39
-0.12212857 -0.11738571 1.245 1.8773742e-39
-0.11975715 -0.11738571 1.245 1.4163961e-39
-0.11738571 -0.11738571 1.245 4.6323928e-39
-0.11501428 -0.11738571 1.245 1.0993891e-38
-0.11309524 -0.11785714 1.25 1.4571601e-38
-0.11071429 -0.11785714 1.25 1.2174515e-38
-0.10876667 -0.11832858 1.2550001 9.2242069e-39
-0.10671524 -0.11870572 1.2590001 7.2880987e-39
-0.10431714 -0.11870572 1.2590001 8.0217008e-39
-0.10232381 -0.11917715 1.2640001 9.8656134e-39
-0.10023239 -0.11955428 1.268 1.0512084e-38
-0.097817145 -0.11955428 1.268 8.8525629e-39
-0.095401898 -0.11955428 1.268 8.3926147e-39
-0.092986666 -0.11955428 1.268 1.2264831e-38
-0.090571426 -0.11955428 1.268 1.3549132e-38
-0.16918287 -0.11806287 1.2780001 1.2909173e-38
-0.1660962 -0.11760096 1.273 5.9023056e-39
-0.16367142 -0.11760096 1.273 4.615517e-39
-0.16061333 -0.11713905 1.268 5.8140602e-39
-0.15769906 -0.11676953 1.2640001 5.9026685e-39
-0.15529144 -0.11676953 1.2640001 8.760733e-39
-0.15227905 -0.11630762 1.2590001 1.2815874e-38
-0.14880952 -0.11547619 1.25 1.3830026e-38
-0.14642857 -0.11547619 1.25 1.1438359e-38
-0.14404762 -0.11547619 1.25 1.0424207e-38
