# .PCD v0.7 - Point Cloud Data file format
VERSION 0.7
FIELDS x y z rgb
SIZE 4 4 4 4
TYPE F F F F
COUNT 1 1 1 1
WIDTH 954
HEIGHT 1
VIEWPOINT 0 0 0 1 0 0 0
POINTS 954
DATA ascii
-0.13303715 -0.030433334 0.91300005 1.8992297e-38
-0.13129809 -0.030433334 0.91300005 1.8992297e-38
-0.12984286 -0.0305 0.91500002 1.8992297e-38
-0.12810001 -0.0305 0.91500002 1.890082e-38
-0.12635714 -0.0305 0.91500002 1.8808625e-38
-0.12434191 -0.030433334 0.91300005 1.8807906e-38
-0.12260286 -0.030433334 0.91300005 1.8992297e-38
-0.12086381 -0.030433334 0.91300005 1.8992653e-38
-0.11912477 -0.030433334 0.91300005 1.8900457e-38
-0.11738572 -0.030433334 0.91300005 1.8900457e-38
-0.11564668 -0.030433334 0.91300005 1.8716066e-38
-0.11390762 -0.030433334 0.91300005 1.8439123e-38
-0.11216858 -0.030433334 0.91300005 1.8439123e-38
-0.11042953 -0.030433334 0.91300005 1.8347283e-38
-0.10833333 -0.030333333 0.91000003 1.8070697e-38
-0.1066 -0.030333333 0.91000003 1.7978501e-38
-0.10486667 -0.030333333 0.91000003 1.7886305e-38
-0.10313334 -0.030333333 0.91000003 1.7425324e-38
-0.10117715 -0.030266669 0.90800005 1.7240933e-38
-0.099228576 -0.030200001 0.90600002 1.6964702e-38
-0.097502857 -0.030200001 0.90600002 1.6872507e-38
-0.095460005 -0.030100001 0.90300006 1.68718e-38
-0.093532376 -0.030033333 0.90100002 1.7148387e-38
-0.086517148 -0.028300002 0.84900004 1.7700842e-38
-0.084900007 -0.028300002 0.84900004 1.8346211e-38
-0.088580005 -0.030100001 0.90300006 1.9176325e-38
-0.086860001 -0.030100001 0.90300006 1.7793391e-38
-0.16679335 -0.027940001 0.88900006 1.696327e-38
-0.16510001 -0.027940001 0.88900006 1.6870333e-38
-0.16340667 -0.027940001 0.88900006 1.6685942e-38
-0.16207714 -0.028002858 0.89100003 1.6410459e-38
-0.16091999 -0.028097145 0.89400005 1.6871437e-38
-0.15921715 -0.028097145 0.89400005 1.6779602e-38
-0.15821905 -0.028222859 0.89800006 1.7332776e-38
-0.15650858 -0.028222859 0.89800006 1.7333132e-38
-0.15479811 -0.028222859 0.89800006 1.7425327e-38
-0.15359905 -0.028317144 0.90100002 1.7516451e-38
-0.15188286 -0.028317144 0.90100002 1.7977429e-38
-0.15050001 -0.028380001 0.90300006 1.7977782e-38
-0.14927429 -0.028474286 0.90600002 1.843876e-38
-0.1478743 -0.028537145 0.90800005 1.8254372e-38
-0.14614478 -0.028537145 0.90800005 1.8623154e-38
-0.14473334 -0.0286 0.91000003 1.8623868e-38
-0.14347143 -0.028694287 0.91300005 1.8808259e-38
-0.14173238 -0.028694287 0.91300005 1.8808262e-38
-0.13999334 -0.028694287 0.91300005 1.8992653e-38
-0.13825428 -0.028694287 0.91300005 1.8992297e-38
-0.13651524 -0.028694287 0.91300005 1.8900101e-38
-0.13507143 -0.028757144 0.91500002 1.89923e-38
-0.13332859 -0.028757144 0.91500002 1.8900104e-38
-0.13158572 -0.028757144 0.91500002 1.8900101e-38
-0.12984286 -0.028757144 0.91500002 1.8992297e-38
-0.12810001 -0.028757144 0.91500002 1.8808625e-38
-0.12635714 -0.028757144 0.91500002 1.8808625e-38
-0.12461428 -0.028757144 0.91500002 1.8807906e-38
-0.12287143 -0.028757144 0.91500002 1.8900101e-38
-0.12086381 -0.028694287 0.91300005 1.8807906e-38
-0.11912477 -0.028694287 0.91300005 1.8807906e-38
-0.11738572 -0.028694287 0.91300005 1.8623514e-38
-0.11564668 -0.028694287 0.91300005 1.8346928e-38
-0.11390762 -0.028694287 0.91300005 1.8162892e-38
-0.11216858 -0.028694287 0.91300005 1.8162892e-38
-0.11042953 -0.028694287 0.91300005 1.7793754e-38
-0.10833333 -0.0286 0.91000003 1.7701558e-38
-0.1066 -0.0286 0.91000003 1.7609e-38
-0.10486667 -0.0286 0.91000003 1.7516804e-38
-0.10290667 -0.028537145 0.90800005 1.7608637e-38
-0.10095429 -0.028474286 0.90600002 1.7700832e-38
-0.099228576 -0.028474286 0.90600002 1.8345839e-38
-0.097180009 -0.028380001 0.90300006 1.9728773e-38
-0.095248573 -0.028317144 0.90100002 1.9914609e-38
-0.088134289 -0.026682859 0.84900004 2.0099e-38
-0.086517148 -0.026682859 0.84900004 1.8992675e-38
-0.084900007 -0.026682859 0.84900004 1.8162915e-38
-0.083282866 -0.026682859 0.84900004 1.7334208e-38
-0.16214001 -0.025006669 0.84700006 1.3921149e-38
-0.16014762 -0.024947621 0.84500003 1.5856155e-38
-0.15741238 -0.024770476 0.83900005 1.7239089e-38
-0.15544285 -0.024711428 0.83700001 1.7331314e-38
-0.15384857 -0.024711428 0.83700001 1.6962532e-38
-0.16207714 -0.026305715 0.89100003 1.6594495e-38
-0.16091999 -0.026394285 0.89400005 1.6871081e-38
-0.15921715 -0.026394285 0.89400005 1.6595564e-38
-0.15821905 -0.026512383 0.89800006 1.7240933e-38
-0.15650858 -0.026512383 0.89800006 1.7424964e-38
-0.15479811 -0.026512383 0.89800006 1.751716e-38
-0.15359905 -0.026600951 0.90100002 1.7608284e-38
-0.15188286 -0.026600951 0.90100002 1.7977066e-38
-0.15050001 -0.026660001 0.90300006 1.7885586e-38
-0.14927429 -0.026748572 0.90600002 1.8069978e-38
-0.1478743 -0.026807619 0.90800005 1.8069981e-38
-0.14614478 -0.026807619 0.90800005 1.8530959e-38
-0.14521049 -0.026955239 0.91300005 1.8439479e-38
-0.14347143 -0.026955239 0.91300005 1.8716066e-38
-0.14173238 -0.026955239 0.91300005 1.8716066e-38
-0.13999334 -0.026955239 0.91300005 1.8900457e-38
-0.13825428 -0.026955239 0.91300005 1.8900101e-38
-0.13681428 -0.027014285 0.91500002 1.8992297e-38
-0.13507143 -0.027014285 0.91500002 1.89923e-38
-0.13332859 -0.027014285 0.91500002 1.89923e-38
-0.13158572 -0.027014285 0.91500002 1.8992653e-38
-0.13026859 -0.02710286 0.91800004 1.8992653e-38
-0.12852 -0.02710286 0.91800004 1.8992653e-38
-0.12677144 -0.02710286 0.91800004 1.8900457e-38
-0.12461428 -0.027014285 0.91500002 1.8807906e-38
-0.12287143 -0.027014285 0.91500002 1.8807906e-38
-0.12112857 -0.027014285 0.91500002 1.8716063e-38
-0.11912477 -0.026955239 0.91300005 1.8623868e-38
-0.11738572 -0.026955239 0.91300005 1.8439832e-38
-0.11564668 -0.026955239 0.91300005 1.8255441e-38
-0.11390762 -0.026955239 0.91300005 1.8070694e-38
-0.11216858 -0.026955239 0.91300005 1.7978498e-38
-0.11042953 -0.026955239 0.91300005 1.7701551e-38
-0.10869049 -0.026955239 0.91300005 1.7701551e-38
-0.1066 -0.026866667 0.91000003 1.7793025e-38
-0.10486667 -0.026866667 0.91000003 1.7977416e-38
-0.10290667 -0.026807619 0.90800005 1.8437681e-38
-0.10095429 -0.026748572 0.90600002 1.8898659e-38
-0.099228576 -0.026748572 0.90600002 1.9266736e-38
-0.097180009 -0.026660001 0.90300006 2.0188692e-38
-0.095248573 -0.026600951 0.90100002 2.0467427e-38
-0.088134289 -0.025065714 0.84900004 1.9361079e-38
-0.086517148 -0.025065714 0.84900004 1.8073227e-38
-0.084900007 -0.025065714 0.84900004 1.7151271e-38
-0.083282866 -0.025065714 0.84900004 1.5033646e-38
-0.081665717 -0.025065714 0.84900004 1.3374124e-38
-0.16214001 -0.023393335 0.84700006 1.1063085e-38
-0.16014762 -0.023338096 0.84500003 1.2722207e-38
-0.15741238 -0.023172382 0.83900005 1.5580271e-38
-0.15544285 -0.023117144 0.83700001 1.7054364e-38
-0.15384857 -0.023117144 0.83700001 1.7976321e-38
-0.15225428 -0.023117144 0.83700001 1.7607567e-38
-0.16128001 -0.024746668 0.89600003 1.8345132e-38
-0.15957333 -0.024746668 0.89600003 1.7977056e-38
-0.15821905 -0.024801906 0.89800006 1.7884861e-38
-0.15703143 -0.024884764 0.90100002 1.7793025e-38
-0.15531525 -0.024884764 0.90100002 1.7885221e-38
-0.15359905 -0.024884764 0.90100002 1.7793028e-38
-0.15222001 -0.024940003 0.90300006 1.7793028e-38
-0.15100001 -0.025022857 0.90600002 1.7701198e-38
-0.14927429 -0.025022857 0.90600002 1.7701198e-38
-0.1478743 -0.025078095 0.90800005 1.7793394e-38
-0.14614478 -0.025078095 0.90800005 1.8254372e-38
-0.14521049 -0.025216192 0.91300005 1.8070697e-38
-0.14347143 -0.025216192 0.91300005 1.8439479e-38
-0.14173238 -0.025216192 0.91300005 1.8439479e-38
-0.14030001 -0.025271429 0.91500002 1.8531675e-38
-0.13855714 -0.025271429 0.91500002 1.8531319e-38
-0.13681428 -0.025271429 0.91500002 1.8623514e-38
-0.13507143 -0.025271429 0.91500002 1.8623514e-38
-0.13332859 -0.025271429 0.91500002 1.8623514e-38
-0.13158572 -0.025271429 0.91500002 1.8439476e-38
-0.13026859 -0.025354287 0.91800004 1.8439476e-38
-0.12852 -0.025354287 0.91800004 1.8439479e-38
-0.12677144 -0.025354287 0.91800004 1.8439479e-38
-0.12461428 -0.025271429 0.91500002 1.8531312e-38
-0.12287143 -0.025271429 0.91500002 1.8623507e-38
-0.12112857 -0.025271429 0.91500002 1.8530593e-38
-0.11938572 -0.025271429 0.91500002 1.8622789e-38
-0.11738572 -0.025216192 0.91300005 1.8623507e-38
-0.11564668 -0.025216192 0.91300005 1.9268877e-38
-0.11390762 -0.025216192 0.91300005 1.9361433e-38
-0.11216858 -0.025216192 0.91300005 1.9638019e-38
-0.11042953 -0.025216192 0.91300005 2.0190833e-38
-0.10869049 -0.025216192 0.91300005 2.0651811e-38
-0.10695143 -0.025216192 0.91300005 2.1204263e-38
-0.10486667 -0.025133334 0.91000003 2.1849633e-38
-0.10290667 -0.025078095 0.90800005 2.1573777e-38
-0.10117715 -0.025078095 0.90800005 2.1850364e-38
-0.092328578 -0.023282859 0.84300005 1.9639487e-38
-0.090722859 -0.023282859 0.84300005 1.641264e-38
-0.08932858 -0.023338096 0.84500003 1.1811529e-38
-0.087926671 -0.023393335 0.84700006 1.0336399e-38
-0.086517148 -0.023448572 0.84900004 1.2641206e-38
-0.084900007 -0.023448572 0.84900004 1.3839749e-38
-0.083282866 -0.023448572 0.84900004 1.4573374e-38
-0.082146674 -0.023586666 0.85400003 1.3282635e-38
-0.080708571 -0.023641907 0.85600007 1.4015871e-38
-0.16214001 -0.021780001 0.84700006 1.0970902e-38
-0.16014762 -0.021728572 0.84500003 9.7723094e-39
-0.15778762 -0.021625714 0.84100002 1.2814765e-38
-0.15581429 -0.021574287 0.83900005 1.5486296e-38
-0.15421619 -0.021574287 0.83900005 1.7606795e-38
-0.1526181 -0.021574287 0.83900005 1.7424255e-38
-0.16128001 -0.02304 0.89600003 1.8254016e-38
-0.15957333 -0.02304 0.89600003 1.8254709e-38
-0.15821905 -0.02309143 0.89800006 1.8254709e-38
-0.15703143 -0.023168571 0.90100002 1.8162173e-38
-0.15531525 -0.023168571 0.90100002 1.8069978e-38
-0.15394001 -0.023220003 0.90300006 1.7977429e-38
-0.15222001 -0.023220003 0.90300006 1.8069625e-38
-0.15100001 -0.023297142 0.90600002 1.7977782e-38
-0.14960383 -0.023348572 0.90800005 1.7885586e-38
-0.1478743 -0.023348572 0.90800005 1.7885586e-38
-0.14646667 -0.023400001 0.91000003 1.8162173e-38
-0.14521049 -0.023477143 0.91300005 1.8069978e-38
-0.14347143 -0.023477143 0.91300005 1.843876e-38
-0.14204286 -0.02352857 0.91500002 1.8255088e-38
-0.14030001 -0.02352857 0.91500002 1.8531675e-38
-0.13855714 -0.02352857 0.91500002 1.8531319e-38
-0.13681428 -0.02352857 0.91500002 1.8623514e-38
-0.13551429 -0.023605715 0.91800004 1.871571e-38
-0.13332859 -0.02352857 0.91500002 1.8623514e-38
-0.13158572 -0.02352857 0.91500002 1.8162889e-38
-0.13026859 -0.023605715 0.91800004 1.8347281e-38
-0.12852 -0.023605715 0.91800004 1.8439476e-38
-0.12677144 -0.023605715 0.91800004 1.8439476e-38
-0.12461428 -0.02352857 0.91500002 1.8714987e-38
-0.12287143 -0.02352857 0.91500002 1.8807183e-38
-0.12112857 -0.02352857 0.91500002 1.8898306e-38
-0.11938572 -0.02352857 0.91500002 1.9543676e-38
-0.11738572 -0.023477143 0.91300005 1.9820981e-38
-0.11564668 -0.023477143 0.91300005 2.0466351e-38
-0.11390762 -0.023477143 0.91300005 2.0743664e-38
-0.11216858 -0.023477143 0.91300005 2.0743664e-38
-0.11042953 -0.023477143 0.91300005 2.1020238e-38
-0.10869049 -0.023477143 0.91300005 2.138902e-38
-0.10695143 -0.023477143 0.91300005 2.1942197e-38
-0.10486667 -0.023400001 0.91000003 2.1389023e-38
-0.095086671 -0.021574287 0.83900005 2.0837985e-38
-0.093488574 -0.021574287 0.83900005 2.1206768e-38
-0.091890484 -0.021574287 0.83900005 1.7159575e-38
-0.090722859 -0.021677144 0.84300005 1.2088815e-38
-0.08932858 -0.021728572 0.84500003 6.48319e-39
-0.087926671 -0.021780001 0.84700006 7.8661245e-39
-0.086517148 -0.021831429 0.84900004 1.2089156e-38
-0.084900007 -0.021831429 0.84900004 1.3287699e-38
-0.083282866 -0.021831429 0.84900004 1.4573746e-38
-0.082146674 -0.02196 0.85400003 1.2268856e-38
-0.080708571 -0.022011429 0.85600007 1.3094984e-38
-0.07926286 -0.022062857 0.85800004 1.4754506e-38
-0.16214001 -0.020166667 0.84700006 1.1523712e-38
-0.16014762 -0.020119047 0.84500003 1.0050012e-38
-0.1585381 -0.020119047 0.84500003 8.6670772e-39
-0.15581429 -0.019976191 0.83900005 1.0785357e-38
-0.15421619 -0.019976191 0.83900005 1.4012204e-38
-0.1526181 -0.019976191 0.83900005 1.4748783e-38
-0.16128001 -0.021333335 0.89600003 1.5301956e-38
-0.15957333 -0.021333335 0.89600003 1.6596594e-38
-0.15821905 -0.021380953 0.89800006 1.7795137e-38
-0.15703143 -0.021452382 0.90100002 1.8530593e-38
-0.15531525 -0.021452382 0.90100002 1.9821332e-38
-0.15394001 -0.021500001 0.90300006 1.963695e-38
-0.15222001 -0.021500001 0.90300006 2.0005733e-38
-0.15100001 -0.021571428 0.90600002 2.0098284e-38
-0.14960383 -0.021619048 0.90800005 2.0467067e-38
-0.1478743 -0.021619048 0.90800005 2.0467064e-38
-0.14646667 -0.021666666 0.91000003 2.055926e-38
-0.14521049 -0.021738095 0.91300005 2.0559623e-38
-0.14347143 -0.021738095 0.91300005 2.0559623e-38
-0.14204286 -0.021785714 0.91500002 2.0928761e-38
-0.14030001 -0.021785714 0.91500002 2.1297544e-38
-0.13855714 -0.021785714 0.91500002 2.1297188e-38
-0.13681428 -0.021785714 0.91500002 2.1297188e-38
-0.13551429 -0.021857142 0.91800004 2.2126939e-38
-0.13332859 -0.021785714 0.91500002 2.231133e-38
-0.13158572 -0.021785714 0.91500002 2.22195e-38
-0.13026859 -0.021857142 0.91800004 2.2403891e-38
-0.12852 -0.021857142 0.91800004 2.2587927e-38
-0.12677144 -0.021857142 0.91800004 2.2864513e-38
-0.12461428 -0.021785714 0.91500002 2.3141103e-38
-0.11132286 -0.019738097 0.82900006 2.341769e-38
-0.10974382 -0.019738097 0.82900006 2.2957075e-38
-0.11938572 -0.021785714 0.91500002 2.2957075e-38
-0.11764286 -0.021785714 0.91500002 2.2680844e-38
-0.11564668 -0.021738095 0.91300005 2.2680844e-38
-0.10442571 -0.019928573 0.83700001 2.0929149e-38
-0.10283143 -0.019928573 0.83700001 2.0468171e-38
-0.10147905 -0.019976191 0.83900005 2.0375953e-38
-0.099880956 -0.019976191 0.83900005 2.0929127e-38
-0.098282859 -0.019976191 0.83900005 1.9729524e-38
-0.096684769 -0.019976191 0.83900005 1.6502677e-38
-0.095086671 -0.019976191 0.83900005 1.6411876e-38
-0.093488574 -0.019976191 0.83900005 1.9638723e-38
-0.091890484 -0.019976191 0.83900005 1.9364307e-38
-0.090722859 -0.020071428 0.84300005 1.5676481e-38
-0.08932858 -0.020119047 0.84500003 1.3289431e-38
-0.087926671 -0.020166667 0.84700006 1.4487974e-38
-0.086517148 -0.020214286 0.84900004 1.5221289e-38
-0.085100003 -0.020261904 0.85100001 1.3008594e-38
-0.083479047 -0.020261904 0.85100001 1.2733812e-38
-0.082146674 -0.020333333 0.85400003 1.1258682e-38
-0.080708571 -0.020380953 0.85600007 1.2728019e-38
-0.07926286 -0.020428572 0.85800004 1.4387541e-38
-0.16052668 -0.018553333 0.84700006 1.060428e-38
-0.1585381 -0.018509526 0.84500003 6.4554765e-39
-0.15618572 -0.018421905 0.84100002 7.3726684e-39
-0.15421619 -0.018378096 0.83900005 1.1244868e-38
-0.1526181 -0.018378096 0.83900005 1.3549493e-38
-0.16128001 -0.019626666 0.89600003 1.3088514e-38
-0.15957333 -0.019626666 0.89600003 1.263471e-38
-0.14782383 -0.018378096 0.83900005 1.263471e-38
-0.14622572 -0.018378096 0.83900005 1.5947987e-38
-0.14428286 -0.018334284 0.83700001 1.8713856e-38
-0.14268857 -0.018334284 0.83700001 1.8992303e-38
-0.15222001 -0.019780001 0.90300006 1.9637672e-38
-0.15100001 -0.019845715 0.90600002 1.982313e-38
-0.14960383 -0.019889524 0.90800005 2.0284108e-38
-0.1478743 -0.019889524 0.90800005 2.1112436e-38
-0.14646667 -0.019933334 0.91000003 2.1020241e-38
-0.14521049 -0.019999048 0.91300005 2.1389386e-38
-0.14347143 -0.019999048 0.91300005 2.129719e-38
-0.14204286 -0.020042857 0.91500002 2.1942557e-38
-0.14030001 -0.020042857 0.91500002 2.1942557e-38
-0.13855714 -0.020042857 0.91500002 2.2218781e-38
-0.13681428 -0.020042857 0.91500002 2.203439e-38
-0.13551429 -0.020108571 0.91800004 2.2587564e-38
-0.13376573 -0.020108571 0.91800004 2.286415e-38
-0.13201715 -0.020108571 0.91800004 2.341769e-38
-0.13026859 -0.020108571 0.91800004 2.3048907e-38
-0.12852 -0.020108571 0.91800004 2.3417687e-38
-0.12704763 -0.020152381 0.92000002 2.3417687e-38
-0.11317429 -0.018202858 0.83100003 2.341769e-38
-0.11132286 -0.018159049 0.82900006 2.3325494e-38
-0.10974382 -0.018159049 0.82900006 2.2497178e-38
-0.10842572 -0.018202858 0.83100003 2.1759613e-38
-0.10710001 -0.018246669 0.83300006 1.9735628e-38
-0.10551334 -0.018246669 0.83300006 1.9459041e-38
-0.10417619 -0.018290477 0.83500004 1.8445966e-38
-0.10283143 -0.018334284 0.83700001 1.8814748e-38
-0.10147905 -0.018378096 0.83900005 1.862713e-38
-0.099880956 -0.018378096 0.83900005 1.9641282e-38
-0.098282859 -0.018378096 0.83900005 1.87186e-38
-0.096684769 -0.018378096 0.83900005 1.3279057e-38
-0.095086671 -0.018378096 0.83900005 1.4840896e-38
-0.093488574 -0.018378096 0.83900005 1.8897503e-38
-0.092109524 -0.018421905 0.84100002 2.1387203e-38
-0.090938091 -0.018509526 0.84500003 1.9451095e-38
-0.08932858 -0.018509526 0.84500003 1.6322955e-38
-0.087926671 -0.018553333 0.84700006 1.706052e-38
-0.086517148 -0.018597143 0.84900004 1.5866306e-38
-0.085400008 -0.018706666 0.85400003 1.217848e-38
-0.083773337 -0.018706666 0.85400003 1.2274276e-38
-0.082339056 -0.018750478 0.85600007 1.1167928e-38
-0.080897145 -0.018794287 0.85800004 1.2543259e-38
-0.07944762 -0.018838096 0.86000001 1.4479368e-38
-0.16090572 -0.01698 0.84900004 1.1064918e-38
-0.15891334 -0.01694 0.84700006 6.1785491e-39
-0.15692858 -0.016900001 0.84500003 5.7189387e-39
-0.15531905 -0.016900001 0.84500003 8.5770032e-39
-0.15334573 -0.016860001 0.84300005 1.0971983e-38
-0.15138 -0.01682 0.84100002 1.3000287e-38
-0.1497781 -0.01682 0.84100002 1.0887309e-38
-0.14782383 -0.016780002 0.83900005 8.4902222e-39
-0.14622572 -0.016780002 0.83900005 1.106914e-38
-0.14428286 -0.01674 0.83700001 1.5310139e-38
-0.14268857 -0.01674 0.83700001 1.6595917e-38
-0.14109428 -0.01674 0.83700001 1.5858352e-38
-0.13950001 -0.01674 0.83700001 1.5215506e-38
-0.14993334 -0.018200001 0.91000003 1.6598441e-38
-0.14820001 -0.018200001 0.91000003 1.7241324e-38
-0.14646667 -0.018200001 0.91000003 1.8624259e-38
-0.14521049 -0.01826 0.91300005 1.6598122e-38
-0.14347143 -0.01826 0.91300005 1.5583971e-38
-0.14204286 -0.018300001 0.91500002 1.5310235e-38
-0.14030001 -0.018300001 0.91500002 1.5955605e-38
-0.13855714 -0.018300001 0.91500002 1.6230031e-38
-0.13681428 -0.018300001 0.91500002 1.6967596e-38
-0.13551429 -0.018360002 0.91800004 1.7794495e-38
-0.13376573 -0.018360002 0.91800004 2.0560364e-38
-0.13230476 -0.0184 0.92000002 2.0099376e-38
-0.11820668 -0.016660001 0.83300006 1.8808637e-38
-0.11662001 -0.016660001 0.83300006 1.8350158e-38
-0.11475714 -0.016620001 0.83100003 1.8903331e-38
-0.11317429 -0.016620001 0.83100003 1.9914982e-38
-0.11159144 -0.016620001 0.83100003 2.0191569e-38
-0.11000858 -0.016620001 0.83100003 1.8903701e-38
-0.10842572 -0.016620001 0.83100003 1.5953441e-38
-0.10710001 -0.016660001 0.83300006 1.4853561e-38
-0.10551334 -0.016660001 0.83300006 1.3655017e-38
-0.10417619 -0.0167 0.83500004 1.6140336e-38
-0.10283143 -0.01674 0.83700001 1.9367184e-38
-0.10147905 -0.016780002 0.83900005 2.0929853e-38
-0.099880956 -0.016780002 0.83900005 2.0745461e-38
-0.098517142 -0.01682 0.84100002 1.8442348e-38
-0.096915238 -0.01682 0.84100002 1.1619871e-38
-0.095313333 -0.01682 0.84100002 1.1711697e-38
-0.093711428 -0.01682 0.84100002 1.4569761e-38
-0.092328578 -0.016860001 0.84300005 1.7885912e-38
-0.090938091 -0.016900001 0.84500003 2.0743976e-38
-0.089540005 -0.01694 0.84700006 2.0006817e-38
-0.087926671 -0.01694 0.84700006 1.8070709e-38
-0.086517148 -0.01698 0.84900004 1.4946122e-38
-0.085400008 -0.01708 0.85400003 1.1627079e-38
-0.083773337 -0.01708 0.85400003 1.2274279e-38
-0.08253143 -0.017160002 0.85800004 1.1997692e-38
-0.080897145 -0.017160002 0.85800004 1.3741442e-38
-0.07944762 -0.017199999 0.86000001 1.4663399e-38
-0.077809528 -0.017199999 0.86000001 1.576326e-38
-0.16090572 -0.015362858 0.84900004 1.0240552e-38
-0.15891334 -0.015326667 0.84700006 5.2619878e-39
-0.15730001 -0.015326667 0.84700006 3.6038272e-39
-0.15531905 -0.015290476 0.84500003 5.7243266e-39
-0.15334573 -0.015254286 0.84300005 1.0142184e-38
-0.15138 -0.015218095 0.84100002 1.4106596e-38
-0.1497781 -0.015218095 0.84100002 1.1441243e-38
-0.14782383 -0.015181906 0.83900005 9.1363525e-39
-0.14622572 -0.015181906 0.83900005 1.125754e-38
-0.14428286 -0.015145714 0.83700001 1.5129756e-38
-0.14268857 -0.015145714 0.83700001 1.6780684e-38
-0.14109428 -0.015145714 0.83700001 1.4567989e-38
-0.13950001 -0.015145714 0.83700001 1.3190061e-38
-0.1379057 -0.015145714 0.83700001 1.4019822e-38
-0.13631143 -0.015145714 0.83700001 1.5584301e-38
-0.13503905 -0.015181906 0.83900005 1.7428214e-38
-0.14521049 -0.016520953 0.91300005 1.5312065e-38
-0.14347143 -0.016520953 0.91300005 1.3283762e-38
-0.14204286 -0.016557142 0.91500002 7.1220756e-39
-0.14030001 -0.016557142 0.91500002 7.5830538e-39
-0.13855714 -0.016557142 0.91500002 9.3239219e-39
-0.12455334 -0.015073335 0.83300006 1.4671268e-38
-0.12296667 -0.015073335 0.83300006 1.6599201e-38
-0.12138001 -0.015073335 0.83300006 1.9918244e-38
-0.11979334 -0.015073335 0.83300006 1.9916787e-38
-0.11820668 -0.015073335 0.83300006 1.5583592e-38
-0.11634 -0.015037144 0.83100003 1.4847437e-38
-0.11475714 -0.015037144 0.83100003 1.5769393e-38
-0.11317429 -0.015037144 0.83100003 1.9913164e-38
-0.11159144 -0.015037144 0.83100003 2.1388295e-38
-0.11027334 -0.015073335 0.83300006 2.0377758e-38
-0.10868668 -0.015073335 0.83300006 1.7058715e-38
-0.10710001 -0.015073335 0.83300006 1.5956681e-38
-0.10576668 -0.015109524 0.83500004 1.5864485e-38
-0.10442571 -0.015145714 0.83700001 1.7061214e-38
-0.10283143 -0.015145714 0.83700001 2.093343e-38
-0.10147905 -0.015181906 0.83900005 2.2865598e-38
-0.099880956 -0.015181906 0.83900005 1.9362164e-38
-0.098517142 -0.015218095 0.84100002 1.6230028e-38
-0.096915238 -0.015218095 0.84100002 1.1896833e-38
-0.095313333 -0.015218095 0.84100002 1.0240885e-38
-0.093711428 -0.015218095 0.84100002 1.0240885e-38
-0.092547618 -0.015290476 0.84500003 1.456469e-38
-0.090938091 -0.015290476 0.84500003 1.9819841e-38
-0.089540005 -0.015326667 0.84700006 2.0098657e-38
-0.087926671 -0.015326667 0.84700006 1.7609375e-38
-0.086517148 -0.015362858 0.84900004 1.2277147e-38
-0.085400008 -0.015453333 0.85400003 1.0433235e-38
-0.083969526 -0.015489525 0.85600007 1.282709e-38
-0.08253143 -0.015525714 0.85800004 1.218172e-38
-0.081085712 -0.015561905 0.86000001 1.4108783e-38
-0.07944762 -0.015561905 0.86000001 1.5030739e-38
-0.077809528 -0.015561905 0.86000001 1.5671427e-38
-0.076171428 -0.015561905 0.86000001 1.5671427e-38
-0.16128476 -0.013778095 0.85100001 1.2172675e-38
-0.15928857 -0.013745715 0.84900004 6.1799588e-39
-0.15730001 -0.013713335 0.84700006 4.7999181e-39
-0.15568668 -0.013713335 0.84700006 5.4452875e-39
-0.15370953 -0.013680953 0.84500003 7.099767e-39
-0.15174001 -0.013648572 0.84300005 1.3830048e-38
-0.1501343 -0.013648572 0.84300005 1.438361e-38
-0.14817619 -0.01361619 0.84100002 1.6411914e-38
-0.14622572 -0.01358381 0.83900005 1.7336356e-38
-0.14462763 -0.01358381 0.83900005 1.7797334e-38
-0.14268857 -0.013551429 0.83700001 1.5587192e-38
-0.14109428 -0.013551429 0.83700001 1.3558888e-38
-0.13950001 -0.013551429 0.83700001 1.2090222e-38
-0.1379057 -0.013551429 0.83700001 1.2551201e-38
-0.13631143 -0.013551429 0.83700001 1.4482633e-38
-0.13471715 -0.013551429 0.83700001 1.8723632e-38
-0.13312286 -0.013551429 0.83700001 1.9732751e-38
-0.14378572 -0.014814286 0.91500002 1.7704448e-38
-0.14204286 -0.014814286 0.91500002 1.540563e-38
-0.14030001 -0.014814286 0.91500002 1.3838304e-38
-0.12644285 -0.013519048 0.83500004 1.4115605e-38
-0.12455334 -0.013486668 0.83300006 1.9831734e-38
-0.12296667 -0.013486668 0.83300006 2.1944007e-38
-0.12138001 -0.013486668 0.83300006 2.2036203e-38
-0.11979334 -0.013486668 0.83300006 1.9183187e-38
-0.11820668 -0.013486668 0.83300006 1.3282667e-38
-0.11634 -0.013454286 0.83100003 9.2411682e-39
-0.11475714 -0.013454286 0.83100003 9.3333638e-39
-0.11317429 -0.013454286 0.83100003 1.5313081e-38
-0.11159144 -0.013454286 0.83100003 1.9738472e-38
-0.11027334 -0.013486668 0.83300006 2.1759263e-38
-0.10868668 -0.013486668 0.83300006 2.3142185e-38
-0.10735714 -0.013519048 0.83500004 2.2590078e-38
-0.10576668 -0.013519048 0.83500004 2.1207143e-38
-0.10442571 -0.013551429 0.83700001 2.1483026e-38
-0.10283143 -0.013551429 0.83700001 2.2128396e-38
-0.10147905 -0.01358381 0.83900005 2.0837642e-38
-0.099880956 -0.01358381 0.83900005 1.32776e-38
-0.098517142 -0.01361619 0.84100002 1.1622395e-38
-0.096915238 -0.01361619 0.84100002 1.2083373e-38
-0.095313333 -0.01361619 0.84100002 1.2081243e-38
-0.09393429 -0.013648572 0.84300005 1.1159287e-38
-0.092547618 -0.013680953 0.84500003 1.143369e-38
-0.091153339 -0.013713335 0.84700006 1.5582494e-38
-0.089540005 -0.013713335 0.84700006 1.7057974e-38
-0.088134289 -0.013745715 0.84900004 1.6965778e-38
-0.086720951 -0.013778095 0.85100001 1.3195859e-38
-0.085600004 -0.013859048 0.85600007 1.107536e-38
-0.083969526 -0.013859048 0.85600007 1.245867e-38
-0.082723811 -0.013923809 0.86000001 1.1813301e-38
-0.081085712 -0.013923809 0.86000001 1.3648178e-38
-0.07944762 -0.013923809 0.86000001 1.4754525e-38
-0.077809528 -0.013923809 0.86000001 1.5579231e-38
-0.076171428 -0.013923809 0.86000001 1.5579231e-38
-0.16128476 -0.012157143 0.85100001 1.2631527e-38
-0.15928857 -0.012128572 0.84900004 6.8232025e-39
-0.15730001 -0.012100001 0.84700006 5.1686908e-39
-0.15568668 -0.012100001 0.84700006 5.9062558e-39
-0.15370953 -0.012071429 0.84500003 7.283749e-39
-0.15174001 -0.012042858 0.84300005 1.1616944e-38
-0.1501343 -0.012042858 0.84300005 1.530266e-38
-0.14817619 -0.012014287 0.84100002 1.8621703e-38
-0.14622572 -0.011985715 0.83900005 1.7980672e-38
-0.14462763 -0.011985715 0.83900005 1.6597737e-38
-0.14268857 -0.011957143 0.83700001 1.2461894e-38
-0.14109428 -0.011957143 0.83700001 1.1355547e-38
-0.13950001 -0.011957143 0.83700001 9.7028652e-39
-0.1379057 -0.011957143 0.83700001 1.0256039e-38
-0.13631143 -0.011957143 0.83700001 1.3379885e-38
-0.13471715 -0.011957143 0.83700001 1.6975515e-38
-0.13312286 -0.011957143 0.83700001 2.0284834e-38
-0.13184287 -0.011985715 0.83900005 1.9639464e-38
-0.13024476 -0.011985715 0.83900005 1.8349802e-38
-0.12834001 -0.011957143 0.83700001 1.6782476e-38
-0.12644285 -0.011928571 0.83500004 1.6968665e-38
-0.12455334 -0.0119 0.83300006 2.1762838e-38
-0.12296667 -0.0119 0.83300006 2.3142182e-38
-0.12138001 -0.0119 0.83300006 2.0745096e-38
-0.11979334 -0.0119 0.83300006 1.3848451e-38
-0.11820668 -0.0119 0.83300006 8.5933003e-39
-0.11662001 -0.0119 0.83300006 3.5470045e-39
-0.11503334 -0.0119 0.83300006 3.8235914e-39
-0.11344668 -0.0119 0.83300006 9.7024743e-39
-0.11186001 -0.0119 0.83300006 1.3943473e-38
-0.1105381 -0.011928571 0.83500004 2.0008603e-38
-0.10894762 -0.011928571 0.83500004 2.2774472e-38
-0.10735714 -0.011928571 0.83500004 2.3142538e-38
-0.10576668 -0.011928571 0.83500004 2.2958147e-38
-0.10442571 -0.011957143 0.83700001 2.2313513e-38
-0.10283143 -0.011957143 0.83700001 2.0008622e-38
-0.10147905 -0.011985715 0.83900005 1.7335297e-38
-0.099880956 -0.011985715 0.83900005 1.2172341e-38
-0.098517142 -0.012014287 0.84100002 1.1438006e-38
-0.096915238 -0.012014287 0.84100002 1.2544354e-38
-0.095313333 -0.012014287 0.84100002 1.3278692e-38
-0.09393429 -0.012042858 0.84300005 1.1895757e-38
-0.092547618 -0.012071429 0.84500003 9.8706581e-39
-0.091153339 -0.012100001 0.84700006 1.448044e-38
-0.089540005 -0.012100001 0.84700006 1.5402065e-38
-0.088341907 -0.012157143 0.85100001 1.6047435e-38
-0.087026671 -0.012200001 0.85400003 1.20002e-38
-0.085600004 -0.012228573 0.85600007 1.0709461e-38
-0.084165715 -0.012257144 0.85800004 1.3653976e-38
-0.082723811 -0.012285715 0.86000001 1.2363237e-38
-0.081085712 -0.012285715 0.86000001 1.3647427e-38
-0.07944762 -0.012285715 0.86000001 1.5030361e-38
-0.07799048 -0.012314286 0.86200005 1.5763623e-38
-0.16348 -0.010573333 0.85400003 1.576362e-38
-0.16185333 -0.010573333 0.85400003 1.4475064e-38
-0.15928857 -0.010511429 0.84900004 8.3901526e-39
-0.15730001 -0.010486667 0.84700006 5.2612942e-39
-0.15568668 -0.010486667 0.84700006 5.814468e-39
-0.15370953 -0.010461905 0.84500003 6.6398832e-39
-0.15174001 -0.010437143 0.84300005 7.3774483e-39
-0.1501343 -0.010437143 0.84300005 1.0970914e-38
-0.14817619 -0.010412381 0.84100002 1.7977782e-38
-0.14622572 -0.010387619 0.83900005 1.6691712e-38
-0.14462763 -0.010387619 0.83900005 1.2819496e-38
-0.14302954 -0.010387619 0.83900005 1.0159164e-38
-0.14109428 -0.010362858 0.83700001 1.1081121e-38
-0.13950001 -0.010362858 0.83700001 1.0806339e-38
-0.1379057 -0.010362858 0.83700001 1.1267317e-38
-0.13631143 -0.010362858 0.83700001 1.2093472e-38
-0.13503905 -0.010387619 0.83900005 1.255445e-38
-0.13344096 -0.010387619 0.83900005 1.6417624e-38
-0.13184287 -0.010387619 0.83900005 1.9183493e-38
-0.13024476 -0.010387619 0.83900005 2.0100815e-38
-0.12834001 -0.010362858 0.83700001 2.1299358e-38
-0.12674572 -0.010362858 0.83700001 2.148338e-38
-0.12455334 -0.010313334 0.83300006 2.1575575e-38
-0.12296667 -0.010313334 0.83300006 1.8077543e-38
-0.12138001 -0.010313334 0.83300006 1.1623849e-38
-0.11979334 -0.010313334 0.83300006 5.9332911e-39
-0.11820668 -0.010313334 0.83300006 6.1176823e-39
-0.11662001 -0.010313334 0.83300006 6.5808213e-39
-0.11503334 -0.010313334 0.83300006 6.8574082e-39
-0.11344668 -0.010313334 0.83300006 8.6930321e-39
-0.11186001 -0.010313334 0.83300006 7.9554671e-39
-0.1105381 -0.010338096 0.83500004 1.1447698e-38
-0.10894762 -0.010338096 0.83500004 1.5135523e-38
-0.10735714 -0.010338096 0.83500004 2.1483705e-38
-0.10576668 -0.010338096 0.83500004 2.3326182e-38
-0.10442571 -0.010362858 0.83700001 2.3048554e-38
-0.10307714 -0.010387619 0.83900005 1.5857295e-38
-0.10147905 -0.010387619 0.83900005 1.1529161e-38
-0.099880956 -0.010387619 0.83900005 1.1990139e-38
-0.098517142 -0.010412381 0.84100002 1.2544001e-38
-0.096915238 -0.010412381 0.84100002 1.2544001e-38
-0.095313333 -0.010412381 0.84100002 1.2910985e-38
-0.09393429 -0.010437143 0.84300005 1.1896833e-38
-0.092766672 -0.010486667 0.84700006 1.0884479e-38
-0.091368571 -0.010511429 0.84900004 1.4480109e-38
-0.08975143 -0.010511429 0.84900004 1.7060835e-38
-0.088341907 -0.01053619 0.85100001 1.7614009e-38
-0.087026671 -0.010573333 0.85400003 1.3012913e-38
-0.085600004 -0.010598096 0.85600007 1.0523631e-38
-0.084165715 -0.010622857 0.85800004 1.2551238e-38
-0.082723811 -0.010647619 0.86000001 1.1076108e-38
-0.081085712 -0.010647619 0.86000001 1.2910561e-38
-0.07944762 -0.010647619 0.86000001 1.4938865e-38
-0.077809528 -0.010647619 0.86000001 1.5763625e-38
-0.16348 -0.0089466665 0.85400003 1.5395559e-38
-0.16185333 -0.0089466665 0.85400003 1.4474717e-38
-0.15966381 -0.0089152381 0.85100001 9.1273702e-39
-0.15767144 -0.0088942861 0.84900004 8.0210198e-39
-0.15605429 -0.0088942861 0.84900004 7.1912591e-39
-0.15407334 -0.0088733332 0.84700006 5.9973823e-39
-0.1521 -0.0088523813 0.84500003 5.9051866e-39
-0.15049048 -0.0088523813 0.84500003 8.8539698e-39
-0.14852859 -0.0088314293 0.84300005 1.7151577e-38
-0.14657429 -0.0088104764 0.84100002 1.5587195e-38
-0.14497238 -0.0088104764 0.84100002 1.1622783e-38
-0.14302954 -0.0087895235 0.83900005 9.055335e-39
-0.14143144 -0.0087895235 0.83900005 1.0714856e-38
-0.13983335 -0.0087895235 0.83900005 1.1265875e-38
-0.1379057 -0.0087685715 0.83700001 1.1819049e-38
-0.13631143 -0.0087685715 0.83700001 1.1083642e-38
-0.13503905 -0.0087895235 0.83900005 1.0991446e-38
-0.13344096 -0.0087895235 0.83900005 1.26459e-38
-0.13184287 -0.0087895235 0.83900005 1.5503965e-38
-0.13024476 -0.0087895235 0.83900005 1.9733102e-38
-0.12834001 -0.0087685715 0.83700001 2.2130188e-38
-0.12674572 -0.0087685715 0.83700001 2.1945095e-38
-0.12485238 -0.0087476196 0.83500004 1.9087032e-38
-0.12326191 -0.0087476196 0.83500004 1.3017939e-38
-0.12167143 -0.0087476196 0.83500004 7.2096147e-39
-0.12008096 -0.0087476196 0.83500004 4.1894971e-39
-0.11849048 -0.0087476196 0.83500004 6.1256053e-39
-0.1169 -0.0087476196 0.83500004 8.1438184e-39
-0.11530953 -0.0087476196 0.83500004 8.236014e-39
-0.11371905 -0.0087476196 0.83500004 7.3169416e-39
-0.11212858 -0.0087476196 0.83500004 5.8418115e-39
-0.11080286 -0.0087685715 0.83700001 5.9343252e-39
-0.10920857 -0.0087685715 0.83700001 7.2250641e-39
-0.10761429 -0.0087685715 0.83700001 1.8073192e-38
-0.10602 -0.0087685715 0.83700001 2.3142517e-38
-0.10467524 -0.0087895235 0.83900005 2.2864526e-38
-0.10307714 -0.0087895235 0.83900005 1.4013746e-38
-0.10172095 -0.0088104764 0.84100002 1.0702236e-38
-0.10011905 -0.0088104764 0.84100002 1.2361758e-38
-0.098517142 -0.0088104764 0.84100002 1.3188291e-38
-0.097145721 -0.0088314293 0.84300005 1.2819509e-38
-0.095540009 -0.0088314293 0.84300005 1.27266e-38
-0.094157144 -0.0088523813 0.84500003 1.1528056e-38
-0.092766672 -0.0088733332 0.84700006 1.0425656e-38
-0.091368571 -0.0088942861 0.84900004 1.5957394e-38
-0.089962855 -0.0089152381 0.85100001 1.6969754e-38
-0.088653341 -0.0089466665 0.85400003 1.7522928e-38
-0.087230489 -0.0089676194 0.85600007 1.4486611e-38
-0.0858 -0.0089885723 0.85800004 1.2642698e-38
-0.084165715 -0.0089885723 0.85800004 1.3656131e-38
-0.082723811 -0.0090095233 0.86000001 1.0060502e-38
-0.081085712 -0.0090095233 0.86000001 1.2168654e-38
-0.07944762 -0.0090095233 0.86000001 1.5948675e-38
-0.16386287 -0.0073371432 0.85600007 1.5302647e-38
-0.16223238 -0.0073371432 0.85600007 1.4750935e-38
-0.16022667 -0.0073200003 0.85400003 1.1616284e-38
-0.15804286 -0.0072942856 0.85100001 7.2867296e-39
-0.15605429 -0.0072771432 0.84900004 5.9959908e-39
-0.15407334 -0.0072600003 0.84700006 5.355631e-39
-0.1521 -0.0072428575 0.84500003 4.9868485e-39
-0.15049048 -0.0072428575 0.84500003 8.0256637e-39
-0.14852859 -0.0072257146 0.84300005 1.632327e-38
-0.14657429 -0.0072085718 0.84100002 1.5403157e-38
-0.14497238 -0.0072085718 0.84100002 1.1715332e-38
-0.14337048 -0.0072085718 0.84100002 9.4230483e-39
-0.14143144 -0.0071914289 0.83900005 1.0713787e-38
-0.13983335 -0.0071914289 0.83900005 1.0989648e-38
-0.1379057 -0.0071742856 0.83700001 1.1819409e-38
-0.13631143 -0.0071742856 0.83700001 1.1543901e-38
-0.13503905 -0.0071914289 0.83900005 1.2004879e-38
-0.13344096 -0.0071914289 0.83900005 1.2371138e-38
-0.13184287 -0.0071914289 0.83900005 1.2647725e-38
-0.13024476 -0.0071914289 0.83900005 1.6877183e-38
-0.12834001 -0.0071742856 0.83700001 2.1671355e-38
-0.12674572 -0.0071742856 0.83700001 2.1300793e-38
-0.12515143 -0.0071742856 0.83700001 1.3740752e-38
-0.12355714 -0.0071742856 0.83700001 2.255935e-39
-0.12196286 -0.0071742856 0.83700001 3.5466738e-39
-0.12036857 -0.0071742856 0.83700001 6.6723051e-39
-0.11877429 -0.0071742856 0.83700001 7.4098701e-39
-0.11718 -0.0071742856 0.83700001 7.7764806e-39
-0.11558571 -0.0071742856 0.83700001 7.8686762e-39
-0.11371905 -0.0071571432 0.83500004 8.0519885e-39
-0.11212858 -0.0071571432 0.83500004 7.683206e-39
-0.11080286 -0.0071742856 0.83700001 6.0283748e-39
-0.10920857 -0.0071742856 0.83700001 3.723484e-39
-0.10761429 -0.0071742856 0.83700001 1.3656459e-38
-0.10627334 -0.0071914289 0.83900005 2.14895e-38
-0.10467524 -0.0071914289 0.83900005 2.2128383e-38
-0.10307714 -0.0071914289 0.83900005 1.2171255e-38
-0.10172095 -0.0072085718 0.84100002 9.3243591e-39
-0.10011905 -0.0072085718 0.84100002 1.1260467e-38
-0.098517142 -0.0072085718 0.84100002 1.2819158e-38
-0.097145721 -0.0072257146 0.84300005 1.2819158e-38
-0.095766664 -0.0072428575 0.84500003 1.2357467e-38
-0.094380006 -0.0072600003 0.84700006 1.0882337e-38
-0.092985712 -0.0072771432 0.84900004 1.2450716e-38
-0.091368571 -0.0072771432 0.84900004 1.8535628e-38
-0.089962855 -0.0072942856 0.85100001 1.8901536e-38
-0.088653341 -0.0073200003 0.85400003 1.8532754e-38
-0.087230489 -0.0073371432 0.85600007 1.7615126e-38
-0.0858 -0.0073542856 0.85800004 1.6232192e-38
-0.084165715 -0.0073542856 0.85800004 1.5220914e-38
-0.082916193 -0.0073885717 0.86200005 9.0438065e-39
-0.081274293 -0.0073885717 0.86200005 1.0330201e-38
-0.079632387 -0.0073885717 0.86200005 1.4847787e-38
-0.16386287 -0.005706667 0.85600007 1.5302647e-38
-0.16223238 -0.005706667 0.85600007 1.4935682e-38
-0.16022667 -0.0056933332 0.85400003 1.1708835e-38
-0.15804286 -0.0056733335 0.85100001 9.1306072e-39
-0.15605429 -0.0056600003 0.84900004 6.6413252e-39
-0.15407334 -0.005646667 0.84700006 5.7225554e-39
-0.15246001 -0.005646667 0.84700006 5.814751e-39
-0.15049048 -0.0056333332 0.84500003 8.7603673e-39
-0.14888096 -0.0056333332 0.84500003 1.6781387e-38
-0.14692287 -0.0056200004 0.84300005 1.5587908e-38
-0.14531715 -0.0056200004 0.84300005 1.2545452e-38
-0.14337048 -0.0056066667 0.84100002 9.2386571e-39
-0.14143144 -0.0055933334 0.83900005 1.0621592e-38
-0.13983335 -0.0055933334 0.83900005 1.0897092e-38
-0.13823524 -0.0055933334 0.83900005 1.1819049e-38
-0.13663715 -0.0055933334 0.83900005 1.1543901e-38
-0.13503905 -0.0055933334 0.83900005 1.2097075e-38
-0.13344096 -0.0055933334 0.83900005 1.1729011e-38
-0.13184287 -0.0055933334 0.83900005 1.1268033e-38
-0.13024476 -0.0055933334 0.83900005 1.3750816e-38
-0.12864667 -0.0055933334 0.83900005 2.0020119e-38
-0.12704857 -0.0055933334 0.83900005 2.0014749e-38
-0.12515143 -0.0055800001 0.83700001 1.1809338e-38
-0.12355714 -0.0055800001 0.83700001 1.7045409e-39
-0.12196286 -0.0055800001 0.83700001 4.0094316e-39
-0.12036857 -0.0055800001 0.83700001 7.4998909e-39
-0.11877429 -0.0055800001 0.83700001 7.7764778e-39
-0.11718 -0.0055800001 0.83700001 7.7768407e-39
-0.11586191 -0.0055933334 0.83900005 7.7768407e-39
-0.11426381 -0.0055933334 0.83900005 7.7768435e-39
-0.11266571 -0.0055933334 0.83900005 7.3158654e-39
-0.11106763 -0.0055933334 0.83900005 2.1698378e-39
-0.10946953 -0.0055933334 0.83900005 1.0634902e-39
-0.10787144 -0.0055933334 0.83900005 1.2646626e-38
-0.10627334 -0.0055933334 0.83900005 2.0387472e-38
-0.10467524 -0.0055933334 0.83900005 2.1484831e-38
-0.10307714 -0.0055933334 0.83900005 1.327942e-38
-0.10172095 -0.0056066667 0.84100002 1.1160378e-38
-0.10035715 -0.0056200004 0.84300005 1.1990139e-38
-0.098985717 -0.0056333332 0.84500003 1.2265616e-38
-0.09737619 -0.0056333332 0.84500003 1.2357812e-38
-0.09599334 -0.005646667 0.84700006 1.1989032e-38
-0.094380006 -0.005646667 0.84700006 1.2357814e-38
-0.092985712 -0.0056600003 0.84900004 1.5670058e-38
-0.091583811 -0.0056733335 0.85100001 1.8989101e-38
-0.090280004 -0.0056933332 0.85400003 1.8071413e-38
-0.088860959 -0.005706667 0.85600007 1.7610434e-38
-0.087434292 -0.0057200002 0.85800004 1.7982454e-38
-0.0858 -0.0057200002 0.85800004 1.8812215e-38
-0.084361903 -0.0057333331 0.86000001 1.6783949e-38
-0.082916193 -0.0057466668 0.86200005 8.8551245e-39
-0.08146286 -0.0057600001 0.86400002 9.6840822e-39
-0.079817139 -0.0057600001 0.86400002 1.521582e-38
-0.078171432 -0.0057600001 0.86400002 1.6040212e-38
-0.16299048 -0.0040952382 0.86000001 1.4751641e-38
-0.16097714 -0.004085714 0.85800004 1.1985772e-38
-0.1586 -0.0040666666 0.85400003 8.9465985e-39
-0.1564219 -0.004052381 0.85100001 8.4856203e-39
-0.15407334 -0.0040333336 0.84700006 8.3029498e-39
-0.15246001 -0.0040333336 0.84700006 1.0054667e-38
-0.15049048 -0.0040238099 0.84500003 1.1339031e-38
-0.14888096 -0.0040238099 0.84500003 1.6778573e-38
-0.14692287 -0.0040142857 0.84300005 1.6230747e-38
-0.14531715 -0.0040142857 0.84300005 1.5861964e-38
-0.14337048 -0.0040047616 0.84100002 1.2829225e-38
-0.14176857 -0.0040047616 0.84100002 1.1446291e-38
-0.13983335 -0.0039952383 0.83900005 1.0437203e-38
-0.13823524 -0.0039952383 0.83900005 1.1451355e-38
-0.13663715 -0.0039952383 0.83900005 1.1359873e-38
-0.13503905 -0.0039952383 0.83900005 1.1820851e-38
-0.13344096 -0.0039952383 0.83900005 1.1452431e-38
-0.13184287 -0.0039952383 0.83900005 1.126804e-38
-0.13024476 -0.0039952383 0.83900005 1.5037967e-38
-0.12864667 -0.0039952383 0.83900005 2.0569705e-38
-0.12704857 -0.0039952383 0.83900005 2.0840891e-38
-0.12545048 -0.0039952383 0.83900005 1.5862327e-38
-0.12385239 -0.0039952383 0.83900005 3.8182735e-39
-0.12225429 -0.0039952383 0.83900005 3.0807084e-39
-0.1206562 -0.0039952383 0.83900005 3.7310426e-39
-0.1190581 -0.0039952383 0.83900005 5.5749552e-39
-0.11746 -0.0039952383 0.83900005 7.6846451e-39
-0.11586191 -0.0039952383 0.83900005 8.2378189e-39
-0.11426381 -0.0039952383 0.83900005 7.5928124e-39
-0.11266571 -0.0039952383 0.83900005 6.209878e-39
-0.11106763 -0.0039952383 0.83900005 5.0163724e-39
-0.10946953 -0.0039952383 0.83900005 8.8885889e-39
-0.10787144 -0.0039952383 0.83900005 1.6234755e-38
-0.10627334 -0.0039952383 0.83900005 2.1673176e-38
-0.10492477 -0.0040047616 0.84100002 2.2957791e-38
-0.10332286 -0.0040047616 0.84100002 1.9730944e-38
-0.10172095 -0.0040047616 0.84100002 1.4296518e-38
-0.10035715 -0.0040142857 0.84300005 1.0700888e-38
-0.098985717 -0.0040238099 0.84500003 9.2285831e-39
-0.09737619 -0.0040238099 0.84500003 9.4129744e-39
-0.09599334 -0.0040333336 0.84700006 1.2079425e-38
-0.094602861 -0.0040428573 0.84900004 1.7795554e-38
-0.092985712 -0.0040428573 0.84900004 1.862354e-38
-0.091583811 -0.004052381 0.85100001 1.7240605e-38
-0.090280004 -0.0040666666 0.85400003 1.0797366e-38
-0.088860959 -0.0040761908 0.85600007 8.7690623e-39
-0.087434292 -0.004085714 0.85800004 1.4390012e-38
-0.0858 -0.004085714 0.85800004 1.9276381e-38
-0.084165715 -0.004085714 0.85800004 1.8255451e-38
-0.082723811 -0.0040952382 0.86000001 9.0358878e-39
-0.081274293 -0.0041047623 0.86200005 9.3167879e-39
-0.16336954 -0.0024628574 0.86200005 1.4751285e-38
-0.16135238 -0.0024571428 0.86000001 1.2077612e-38
-0.15934287 -0.0024514287 0.85800004 1.0144756e-38
-0.15697333 -0.00244 0.85400003 8.7618218e-39
-0.15443715 -0.0024257144 0.84900004 9.3131627e-39
-0.15246001 -0.00242 0.84700006 1.336977e-38
-0.15049048 -0.0024142857 0.84500003 1.484243e-38
-0.14888096 -0.0024142857 0.84500003 1.6133169e-38
-0.14692287 -0.0024085718 0.84300005 1.540238e-38
-0.14531715 -0.0024085718 0.84300005 1.604775e-38
-0.14337048 -0.0024028572 0.84100002 1.4759945e-38
-0.14176857 -0.0024028572 0.84100002 1.2916033e-38
-0.13983335 -0.002397143 0.83900005 9.8861901e-39
-0.13823524 -0.002397143 0.83900005 1.0808146e-38
-0.13663715 -0.002397143 0.83900005 1.0899966e-38
-0.13536096 -0.0024028572 0.84100002 1.1176553e-38
-0.13344096 -0.002397143 0.83900005 1.0624105e-38
-0.13184287 -0.002397143 0.83900005 1.1822649e-38
-0.13024476 -0.002397143 0.83900005 1.696905e-38
-0.12864667 -0.002397143 0.83900005 2.0749071e-38
-0.12704857 -0.002397143 0.83900005 2.0932005e-38
-0.12545048 -0.002397143 0.83900005 1.8811506e-38
-0.12385239 -0.002397143 0.83900005 1.2097852e-38
-0.12225429 -0.002397143 0.83900005 6.8427016e-39
-0.1206562 -0.002397143 0.83900005 2.4424716e-39
-0.1190581 -0.002397143 0.83900005 4.6551667e-39
-0.11746 -0.002397143 0.83900005 7.3165815e-39
-0.11586191 -0.002397143 0.83900005 7.3165815e-39
-0.11426381 -0.002397143 0.83900005 6.0290866e-39
-0.11266571 -0.002397143 0.83900005 4.2773697e-39
-0.11106763 -0.002397143 0.83900005 7.8643574e-39
-0.10946953 -0.002397143 0.83900005 1.4041465e-38
-0.10787144 -0.002397143 0.83900005 2.0929502e-38
-0.10652667 -0.0024028572 0.84100002 2.258902e-38
-0.10492477 -0.0024028572 0.84100002 2.2588643e-38
-0.10332286 -0.0024028572 0.84100002 2.1297904e-38
-0.10196286 -0.0024085718 0.84300005 1.9272512e-38
-0.10059524 -0.0024142857 0.84500003 1.466273e-38
-0.098985717 -0.0024142857 0.84500003 1.0520401e-38
-0.097606674 -0.00242 0.84700006 9.7828359e-39
-0.09599334 -0.00242 0.84700006 1.134725e-38
-0.094602861 -0.0024257144 0.84900004 1.8815096e-38
-0.093204759 -0.0024314285 0.85100001 1.9458688e-38
-0.091906674 -0.00244 0.85400003 1.2820603e-38
-0.090491436 -0.0024457145 0.85600007 8.5918079e-39
-0.088860959 -0.0024457145 0.85600007 5.6415477e-39
-0.087434292 -0.0024514287 0.85800004 9.7867021e-39
-0.0858 -0.0024514287 0.85800004 1.6977961e-38
-0.084165715 -0.0024514287 0.85800004 1.8529899e-38
-0.082723811 -0.0024571428 0.86000001 1.0047901e-38
-0.081085712 -0.0024571428 0.86000001 1.0512048e-38
-0.16374858 -0.00082285714 0.86400002 1.4567613e-38
-0.16172762 -0.00082095241 0.86200005 1.27237e-38
-0.15971428 -0.00081904762 0.86000001 9.2264153e-39
-0.15770859 -0.00081714289 0.85800004 8.6732416e-39
-0.15480095 -0.00081047619 0.85100001 1.0973431e-38
-0.15246001 -0.00080666674 0.84700006 1.521443e-38
-0.15084668 -0.00080666674 0.84700006 1.4476884e-38
-0.14888096 -0.00080476195 0.84500003 1.0696864e-38
-0.14727144 -0.00080476195 0.84500003 1.1625898e-38
-0.14566191 -0.00080476195 0.84500003 1.5313723e-38
-0.14371143 -0.00080285716 0.84300005 1.5771939e-38
-0.14210573 -0.00080285716 0.84300005 1.5864135e-38
-0.14016667 -0.00080095237 0.84100002 1.3384191e-38
-0.13823524 -0.00079904764 0.83900005 1.1540279e-38
-0.13663715 -0.00079904764 0.83900005 1.0439361e-38
-0.13536096 -0.00080095237 0.84100002 1.1176926e-38
-0.13375905 -0.00080095237 0.84100002 1.2921806e-38
-0.13215715 -0.00080095237 0.84100002 1.7162805e-38
-0.13024476 -0.00079904764 0.83900005 2.0101171e-38
-0.12864667 -0.00079904764 0.83900005 2.0008975e-38
-0.12704857 -0.00079904764 0.83900005 2.1022033e-38
-0.12545048 -0.00079904764 0.83900005 2.2312772e-38
-0.12385239 -0.00079904764 0.83900005 1.9827844e-38
-0.12225429 -0.00079904764 0.83900005 1.632441e-38
-0.1206562 -0.00079904764 0.83900005 9.8919592e-39
-0.1190581 -0.00079904764 0.83900005 6.4807209e-39
-0.11746 -0.00079904764 0.83900005 2.6275818e-39
-0.11586191 -0.00079904764 0.83900005 2.3509949e-39
-0.11426381 -0.00079904764 0.83900005 5.4748297e-39
-0.11266571 -0.00079904764 0.83900005 9.0704592e-39
-0.11106763 -0.00079904764 0.83900005 1.6697133e-38
-0.10946953 -0.00079904764 0.83900005 2.158134e-38
-0.10812858 -0.00080095237 0.84100002 2.2221668e-38
-0.10652667 -0.00080095237 0.84100002 1.9363603e-38
-0.10492477 -0.00080095237 0.84100002 2.0563553e-38
-0.10356858 -0.00080285716 0.84300005 2.2223075e-38
-0.10196286 -0.00080285716 0.84300005 2.2219875e-38
-0.10059524 -0.00080476195 0.84500003 2.148231e-38
-0.099220008 -0.00080666674 0.84700006 1.8259066e-38
-0.097606674 -0.00080666674 0.84700006 1.4110263e-38
-0.09599334 -0.00080666674 0.84700006 1.4664886e-38
-0.094602861 -0.00080857147 0.84900004 1.9735645e-38
-0.093204759 -0.00081047619 0.85100001 1.8906543e-38
-0.091906674 -0.00081333338 0.85400003 1.0240154e-38
-0.090491436 -0.00081523816 0.85600007 2.7111132e-39
-0.088860959 -0.00081523816 0.85600007 1.7891569e-39
-0.087434292 -0.00081714289 0.85800004 9.0495294e-39
-0.0858 -0.00081714289 0.85800004 1.5411028e-38
-0.084165715 -0.00081714289 0.85800004 1.7240933e-38
-0.082723811 -0.00081904762 0.86000001 9.5886958e-39
-0.081085712 -0.00081904762 0.86000001 1.014581e-38
-0.16374858 0.00082285714 0.86400002 1.4477215e-38
-0.16172762 0.00082095241 0.86200005 1.3647455e-38
-0.15971428 0.00081904762 0.86000001 9.5055105e-39
-0.15807618 0.00081904762 0.86000001 8.2147717e-39
-0.15571049 0.00081523816 0.85600007 1.1250012e-38
-0.15282001 0.00080857147 0.84900004 1.4937837e-38
-0.15084668 0.00080666674 0.84700006 1.3007503e-38
-0.14923334 0.00080666674 0.84700006 6.3694172e-39
-0.14727144 0.00080476195 0.84500003 5.3641257e-39
-0.14566191 0.00080476195 0.84500003 1.0988059e-38
-0.14405239 0.00080476195 0.84500003 1.6689542e-38
-0.14210573 0.00080285716 0.84300005 1.7980281e-38
-0.14050001 0.00080285716 0.84300005 1.540712e-38
-0.13856475 0.00080095237 0.84100002 1.1995881e-38
-0.13696286 0.00080095237 0.84100002 1.043683e-38
-0.13536096 0.00080095237 0.84100002 1.2280743e-38
-0.13375905 0.00080095237 0.84100002 1.6692103e-38
-0.13215715 0.00080095237 0.84100002 1.991895e-38
-0.13055524 0.00080095237 0.84100002 2.1390112e-38
-0.12864667 0.00079904764 0.83900005 1.8716439e-38
-0.12704857 0.00079904764 0.83900005 1.825541e-38
-0.12545048 0.00079904764 0.83900005 2.1482257e-38
-0.12385239 0.00079904764 0.83900005 2.2589011e-38
-0.12225429 0.00079904764 0.83900005 2.0560707e-38
-0.1206562 0.00079904764 0.83900005 1.4217604e-38
-0.1190581 0.00079904764 0.83900005 9.6078222e-39
-0.11746 0.00079904764 0.83900005 2.0747681e-39
-0.11613809 0.00080095237 0.84100002 1.4293987e-39
-0.11426381 0.00079904764 0.83900005 7.3111809e-39
-0.11266571 0.00079904764 0.83900005 1.3580484e-38
-0.11106763 0.00079904764 0.83900005 2.0561806e-38
-0.10946953 0.00079904764 0.83900005 2.268229e-38
-0.10812858 0.00080095237 0.84100002 2.111821e-38
-0.10652667 0.00080095237 0.84100002 1.604745e-38
-0.10517429 0.00080285716 0.84300005 1.6786069e-38
-0.10356858 0.00080285716 0.84300005 1.9644133e-38
-0.10196286 0.00080285716 0.84300005 2.2402819e-38
