# .PCD v0.7 - Point Cloud Data file format
VERSION 0.7
FIELDS x y z rgb
SIZE 4 4 4 4
TYPE F F F F
COUNT 1 1 1 1
WIDTH 966
HEIGHT 1
VIEWPOINT 0 0 0 1 0 0 0
POINTS 966
DATA ascii
-0.1283143 -0.07128571 0.99800003 1.7786489e-38
-0.12641335 -0.07128571 0.99800003 1.7786489e-38
-0.12451239 -0.07128571 0.99800003 1.7140782e-38
-0.12261143 -0.07128571 0.99800003 1.7232978e-38
-0.12179905 -0.071928583 1.0070001 1.7417006e-38
-0.11988096 -0.071928583 1.0070001 1.7417006e-38
-0.11831428 -0.072142854 1.01 1.7509199e-38
-0.11673619 -0.07235714 1.013 1.7417003e-38
-0.11480667 -0.07235714 1.013 1.7325511e-38
-0.11287715 -0.07235714 1.013 1.7417707e-38
-0.11094762 -0.07235714 1.013 1.7325892e-38
-0.10901809 -0.07235714 1.013 1.7418088e-38
-0.10708857 -0.07235714 1.013 1.7510634e-38
-0.10515904 -0.07235714 1.013 1.7510634e-38
-0.10322952 -0.07235714 1.013 1.7694672e-38
-0.10129999 -0.07235714 1.013 1.7418085e-38
-0.09937048 -0.07235714 1.013 1.6955299e-38
-0.097440958 -0.07235714 1.013 1.7324082e-38
-0.095511429 -0.07235714 1.013 1.7509199e-38
-0.093581907 -0.07235714 1.013 1.7601395e-38
-0.091652378 -0.07235714 1.013 1.7049293e-38
-0.089722857 -0.07235714 1.013 1.732588e-38
-0.087793328 -0.07235714 1.013 1.732589e-38
-0.085609525 -0.072142854 1.01 1.7233694e-38
-0.083685718 -0.072142854 1.01 1.7325887e-38
-0.081761904 -0.072142854 1.01 1.7233691e-38
-0.079838097 -0.072142854 1.01 1.7693941e-38
-0.077914283 -0.072142854 1.01 1.8615897e-38
-0.075764768 -0.071928583 1.0070001 1.8708458e-38
-0.073846675 -0.071928583 1.0070001 1.9353828e-38
-0.071714289 -0.071714289 1.0040001 1.9630783e-38
-0.06959334 -0.071500003 1.001 1.9815174e-38
-0.06768667 -0.071500003 1.001 2.0643127e-38
-0.065582857 -0.07128571 0.99800003 2.0919714e-38
-0.063490473 -0.071071438 0.99500006 2.0920065e-38
-0.061223812 -0.070642859 0.98900002 2.1196652e-38
-0.057720002 -0.068714291 0.96200007 2.0462702e-38
-0.055887621 -0.068714291 0.96200007 1.8618789e-38
-0.13846001 -0.068759046 0.98900002 1.9999187e-38
-0.13657619 -0.068759046 0.98900002 1.889284e-38
-0.13510096 -0.068967618 0.99200004 1.8432209e-38
-0.1336143 -0.06917619 0.99500006 1.7971231e-38
-0.13171905 -0.06917619 0.99500006 1.7694662e-38
-0.13021523 -0.069384769 0.99800003 1.7694662e-38
-0.1283143 -0.069384769 0.99800003 1.7510619e-38
-0.12641335 -0.069384769 0.99800003 1.769501e-38
-0.12451239 -0.069384769 0.99800003 1.7141159e-38
-0.12298001 -0.06959334 1.001 1.7048964e-38
-0.12179905 -0.070010483 1.0070001 1.7325178e-38
-0.11988096 -0.070010483 1.0070001 1.7232982e-38
-0.11831428 -0.07021904 1.01 1.7325174e-38
-0.11673619 -0.070427619 1.013 1.7509565e-38
-0.11480667 -0.070427619 1.013 1.7141826e-38
-0.11287715 -0.070427619 1.013 1.7418413e-38
-0.11094762 -0.070427619 1.013 1.741702e-38
-0.10901809 -0.070427619 1.013 1.7877998e-38
-0.10708857 -0.070427619 1.013 1.7693967e-38
-0.10515904 -0.070427619 1.013 1.7509576e-38
-0.10322952 -0.070427619 1.013 1.7602477e-38
-0.10129999 -0.070427619 1.013 1.7602477e-38
-0.09937048 -0.070427619 1.013 1.7232975e-38
-0.097440958 -0.070427619 1.013 1.7786149e-38
-0.095511429 -0.070427619 1.013 1.769432e-38
-0.093581907 -0.070427619 1.013 1.769432e-38
-0.091652378 -0.070427619 1.013 1.7602111e-38
-0.089722857 -0.070427619 1.013 1.7602111e-38
-0.087793328 -0.070427619 1.013 1.741665e-38
-0.085863806 -0.070427619 1.013 1.741665e-38
-0.083685718 -0.07021904 1.01 1.7693241e-38
-0.081761904 -0.07021904 1.01 1.7785437e-38
-0.079838097 -0.07021904 1.01 1.8062373e-38
-0.077914283 -0.07021904 1.01 1.8892134e-38
-0.075764768 -0.070010483 1.0070001 1.9905916e-38
-0.073846675 -0.070010483 1.0070001 2.0827872e-38
-0.071714289 -0.069801912 1.0040001 2.0276147e-38
-0.069801912 -0.069801912 1.0040001 2.0183951e-38
-0.067889526 -0.069801912 1.0040001 2.0275784e-38
-0.065779999 -0.06959334 1.001 1.9999197e-38
-0.060874287 -0.066325717 0.95400006 1.9076508e-38
-0.059057143 -0.066325717 0.95400006 1.8892117e-38
-0.057360001 -0.066464759 0.95600003 1.7604615e-38
-0.055539049 -0.066464759 0.95600003 1.6590463e-38
-0.053886667 -0.066673338 0.95900005 1.8987569e-38
-0.13846001 -0.066875242 0.98900002 2.0367264e-38
-0.13657619 -0.066875242 0.98900002 2.0182872e-38
-0.1273381 -0.063223809 0.93500006 1.898649e-38
-0.12555715 -0.063223809 0.93500006 1.8248925e-38
-0.13211618 -0.067483813 0.99800003 1.7695402e-38
-0.13021523 -0.067483813 0.99800003 1.7511011e-38
-0.12792858 -0.067280956 0.99500006 1.7326578e-38
-0.12603334 -0.067280956 0.99500006 1.769536e-38
-0.12451239 -0.067483813 0.99800003 1.7696107e-38
-0.12298001 -0.06768667 1.001 1.7327325e-38
-0.1214362 -0.067889526 1.0040001 1.769359e-38
-0.11952382 -0.067889526 1.0040001 1.7601395e-38
-0.11831428 -0.068295233 1.01 1.7232968e-38
-0.11673619 -0.068498097 1.013 1.7325164e-38
-0.11480667 -0.068498097 1.013 1.7049278e-38
-0.11287715 -0.068498097 1.013 1.7510256e-38
-0.11094762 -0.068498097 1.013 1.7602114e-38
-0.10901809 -0.068498097 1.013 1.7694309e-38
-0.10708857 -0.068498097 1.013 1.7602479e-38
-0.10515904 -0.068498097 1.013 1.7694675e-38
-0.10322952 -0.068498097 1.013 1.7879414e-38
-0.10129999 -0.068498097 1.013 1.7695022e-38
-0.09937048 -0.068498097 1.013 1.7233328e-38
-0.097440958 -0.068498097 1.013 1.7602111e-38
-0.095511429 -0.068498097 1.013 1.7510281e-38
-0.093581907 -0.068498097 1.013 1.7418085e-38
-0.091652378 -0.068498097 1.013 1.7785764e-38
-0.089722857 -0.068498097 1.013 1.7970155e-38
-0.087793328 -0.068498097 1.013 1.8060931e-38
-0.085609525 -0.068295233 1.01 1.8153127e-38
-0.083685718 -0.068295233 1.01 1.8337532e-38
-0.081761904 -0.068295233 1.01 1.8890706e-38
-0.079838097 -0.068295233 1.01 1.9628613e-38
-0.077914283 -0.068295233 1.01 1.9444221e-38
-0.075764768 -0.068092391 1.0070001 1.9906312e-38
-0.073846675 -0.068092391 1.0070001 2.0090703e-38
-0.067571431 -0.063967615 0.94600004 1.9906651e-38
-0.065769531 -0.063967615 0.94600004 1.972226e-38
-0.063967615 -0.063967615 0.94600004 1.9263793e-38
-0.062297143 -0.064102866 0.94800007 1.889501e-38
-0.060682859 -0.064305715 0.95100003 1.723582e-38
-0.058871429 -0.064305715 0.95100003 1.723582e-38
-0.057240006 -0.064508572 0.95400006 1.659047e-38
-0.055422861 -0.064508572 0.95400006 1.659047e-38
-0.053718098 -0.064643808 0.95600003 1.8804257e-38
-0.051897142 -0.064643808 0.95600003 2.2492082e-38
-0.05007619 -0.064643808 0.95600003 2.2582475e-38
-0.13930286 -0.062822863 0.95600003 1.7605737e-38
-0.13719429 -0.062691435 0.95400006 1.7418452e-38
-0.13537715 -0.062691435 0.95400006 1.7602844e-38
-0.13356 -0.062691435 0.95400006 1.9263039e-38
-0.12953334 -0.061639998 0.93800002 2.00928e-38
-0.1273381 -0.061442863 0.93500006 1.9816253e-38
-0.12555715 -0.061442863 0.93500006 1.9816253e-38
-0.12351143 -0.061311428 0.93300003 1.9079441e-38
-0.12173429 -0.061311428 0.93300003 1.8710658e-38
-0.11995714 -0.061311428 0.93300003 1.907866e-38
-0.11843334 -0.061442863 0.93500006 1.9170856e-38
-0.11665238 -0.061442863 0.93500006 1.8986477e-38
-0.12298001 -0.065779999 1.001 1.8802086e-38
-0.1214362 -0.065977141 1.0040001 1.8893916e-38
-0.11952382 -0.065977141 1.0040001 1.9631481e-38
-0.11831428 -0.066371433 1.01 1.880137e-38
-0.11673619 -0.066568576 1.013 1.8709174e-38
-0.11480667 -0.066568576 1.013 1.852443e-38
-0.11287715 -0.066568576 1.013 1.8708821e-38
-0.11094762 -0.066568576 1.013 1.8617332e-38
-0.10901809 -0.066568576 1.013 1.8801723e-38
-0.10708857 -0.066568576 1.013 1.8893922e-38
-0.10515904 -0.066568576 1.013 1.9078313e-38
-0.10322952 -0.066568576 1.013 1.9077944e-38
-0.10129999 -0.066568576 1.013 1.9354531e-38
-0.09937048 -0.066568576 1.013 1.9354191e-38
-0.097440958 -0.066568576 1.013 1.9815169e-38
-0.095511429 -0.066568576 1.013 1.9998461e-38
-0.093581907 -0.066568576 1.013 2.0090657e-38
-0.091652378 -0.066568576 1.013 1.9907342e-38
-0.089722857 -0.066568576 1.013 2.0091733e-38
-0.087793328 -0.066568576 1.013 1.9815169e-38
-0.085609525 -0.066371433 1.01 1.9722973e-38
-0.083685718 -0.066371433 1.01 1.9079056e-38
-0.081761904 -0.066371433 1.01 1.9079056e-38
-0.079838097 -0.066371433 1.01 1.8247846e-38
-0.077914283 -0.066371433 1.01 1.7694672e-38
-0.075990476 -0.066371433 1.01 1.6402903e-38
-0.069153331 -0.061968572 0.94300002 1.5757534e-38
-0.067357138 -0.061968572 0.94300002 1.5023147e-38
-0.065769531 -0.062165715 0.94600004 1.474656e-38
-0.063967615 -0.062165715 0.94600004 1.4931691e-38
-0.062297143 -0.062297143 0.94800007 1.6683408e-38
-0.060491435 -0.062297143 0.94800007 1.6591173e-38
-0.058871429 -0.062494289 0.95100003 1.6130195e-38
-0.05706 -0.062494289 0.95100003 1.6130946e-38
-0.055422861 -0.062691435 0.95400006 1.7052903e-38
-0.053718098 -0.062822863 0.95600003 1.9356342e-38
-0.051897142 -0.062822863 0.95600003 2.276758e-38
-0.05007619 -0.062822863 0.95600003 2.276723e-38
-0.13901143 -0.060874287 0.95400006 1.8064916e-38
-0.13719429 -0.060874287 0.95400006 1.6404274e-38
-0.13495143 -0.060682859 0.95100003 1.6773056e-38
-0.13314001 -0.060682859 0.95100003 1.695782e-38
-0.12953334 -0.059853334 0.93800002 1.7418799e-38
-0.12774667 -0.059853334 0.93800002 1.797196e-38
-0.12596001 -0.059853334 0.93800002 1.9354894e-38
-0.12351143 -0.059534285 0.93300003 1.9170911e-38
-0.12173429 -0.059534285 0.93300003 1.9078715e-38
-0.11995714 -0.059534285 0.93300003 1.9540027e-38
-0.11818001 -0.059534285 0.93300003 1.9079049e-38
-0.11640286 -0.059534285 0.93300003 1.90787e-38
-0.11462571 -0.059534285 0.93300003 1.8525526e-38
-0.11284857 -0.059534285 0.93300003 1.8432234e-38
-0.11107143 -0.059534285 0.93300003 1.8616626e-38
-0.11866571 -0.064639047 1.013 1.8616991e-38
-0.11673619 -0.064639047 1.013 1.8524796e-38
-0.11480667 -0.064639047 1.013 1.8432604e-38
-0.11287715 -0.064639047 1.013 1.8340409e-38
-0.11094762 -0.064639047 1.013 1.8248565e-38
-0.10901809 -0.064639047 1.013 1.834076e-38
-0.10740571 -0.064830475 1.016 1.8524433e-38
-0.10547048 -0.064830475 1.016 1.8524433e-38
-0.095077142 -0.059534285 0.93300003 1.8340039e-38
-0.0933 -0.059534285 0.93300003 1.8432234e-38
-0.09937048 -0.064639047 1.013 1.8800668e-38
-0.089457147 -0.059342861 0.93000007 1.8892864e-38
-0.087685719 -0.059342861 0.93000007 1.9535711e-38
-0.093581907 -0.064639047 1.013 2.0549863e-38
-0.091652378 -0.064639047 1.013 2.0922246e-38
-0.089722857 -0.064639047 1.013 2.0369073e-38
-0.087793328 -0.064639047 1.013 2.0370878e-38
-0.085609525 -0.064447619 1.01 1.9080139e-38
-0.083685718 -0.064447619 1.01 1.7422062e-38
-0.075933337 -0.059853334 0.93800002 1.6776693e-38
-0.074146673 -0.059853334 0.93800002 1.5854344e-38
-0.072514288 -0.059980955 0.94000006 1.6223127e-38
-0.070723809 -0.059980955 0.94000006 1.5484171e-38
-0.069153331 -0.060172379 0.94300002 1.2994889e-38
-0.067357138 -0.060172379 0.94300002 1.2169023e-38
-0.065560959 -0.060172379 0.94300002 1.3459762e-38
-0.063967615 -0.060363814 0.94600004 1.3828221e-38
-0.062165715 -0.060363814 0.94600004 1.447359e-38
-0.060491435 -0.060491435 0.94800007 1.4565037e-38
-0.058871429 -0.060682859 0.95100003 1.428845e-38
-0.05706 -0.060682859 0.95100003 1.5947256e-38
-0.055422861 -0.060874287 0.95400006 1.7606777e-38
-0.053718098 -0.061001904 0.95600003 2.0000269e-38
-0.051897142 -0.061001904 0.95600003 2.3319312e-38
-0.05007619 -0.061001904 0.95600003 2.2951265e-38
-0.13901143 -0.059057143 0.95400006 1.7697573e-38
-0.13719429 -0.059057143 0.95400006 1.5485564e-38
-0.13495143 -0.058871429 0.95100003 1.3549456e-38
-0.13314001 -0.058871429 0.95100003 1.3733521e-38
-0.13022381 -0.058376193 0.94300002 1.2166195e-38
-0.12801906 -0.058190476 0.94000006 1.2810839e-38
-0.12622857 -0.058190476 0.94000006 1.6037686e-38
-0.1237762 -0.057880957 0.93500006 1.6312457e-38
-0.12199524 -0.057880957 0.93500006 1.6128065e-38
-0.12021429 -0.057880957 0.93500006 1.6035878e-38
-0.11818001 -0.057757143 0.93300003 1.6035878e-38
-0.11640286 -0.057757143 0.93300003 1.6220624e-38
-0.11462571 -0.057757143 0.93300003 1.5575254e-38
-0.11284857 -0.057757143 0.93300003 1.585111e-38
-0.11107143 -0.057757143 0.93300003 1.6035501e-38
-0.10952857 -0.057880957 0.93500006 1.5942952e-38
-0.10774763 -0.057880957 0.93500006 1.5850757e-38
-0.10596667 -0.057880957 0.93500006 1.6034799e-38
-0.10396286 -0.057757143 0.93300003 1.621919e-38
-0.10218572 -0.057757143 0.93300003 1.6219892e-38
-0.10008572 -0.057571433 0.93000007 1.6219892e-38
-0.098314293 -0.057571433 0.93000007 1.6127697e-38
-0.096542865 -0.057571433 0.93000007 1.6127697e-38
-0.095077142 -0.057757143 0.93300003 1.6127697e-38
-0.0933 -0.057757143 0.93300003 1.6127697e-38
-0.091522865 -0.057757143 0.93300003 1.5942952e-38
-0.089457147 -0.057571433 0.93000007 1.5113192e-38
-0.087685719 -0.057571433 0.93000007 1.5481258e-38
-0.086191431 -0.057757143 0.93300003 1.5665649e-38
-0.084414288 -0.057757143 0.93300003 1.5851097e-38
-0.082814291 -0.057880957 0.93500006 1.6127684e-38
-0.080859996 -0.057757143 0.93300003 1.6312791e-38
-0.079082862 -0.057757143 0.93300003 1.677377e-38
-0.077471435 -0.057880957 0.93500006 1.4561477e-38
-0.075690478 -0.057880957 0.93500006 1.2717564e-38
-0.074146673 -0.058066666 0.93800002 1.3546261e-38
-0.072514288 -0.058190476 0.94000006 1.6957499e-38
-0.070723809 -0.058190476 0.94000006 1.6312465e-38
-0.068933338 -0.058190476 0.94000006 1.3270009e-38
-0.067357138 -0.058376193 0.94300002 1.2997364e-38
-0.065560959 -0.058376193 0.94300002 1.4933472e-38
-0.063764766 -0.058376193 0.94300002 1.4749105e-38
-0.062165715 -0.058561906 0.94600004 1.3642757e-38
-0.060491435 -0.05868572 0.94800007 1.290842e-38
-0.05868572 -0.05868572 0.94800007 1.2355246e-38
-0.05706 -0.058871429 0.95100003 1.4012229e-38
-0.055422861 -0.059057143 0.95400006 1.7607859e-38
-0.053718098 -0.059180956 0.95600003 1.963221e-38
-0.052060001 -0.05936667 0.95900005 2.3504786e-38
-0.13901143 -0.057240006 0.95400006 1.8252186e-38
-0.13719429 -0.057240006 0.95400006 1.5118224e-38
-0.13495143 -0.05706 0.95100003 1.2905529e-38
-0.13314001 -0.05706 0.95100003 1.346156e-38
-0.13022381 -0.05658 0.94300002 1.1617647e-38
-0.12801906 -0.056400005 0.94000006 1.1431824e-38
-0.12622857 -0.056400005 0.94000006 1.530404e-38
-0.12417334 -0.056280002 0.93800002 1.5393758e-38
-0.12199524 -0.056100003 0.93500006 1.4471802e-38
-0.12021429 -0.056100003 0.93500006 1.4747649e-38
-0.11843334 -0.056100003 0.93500006 1.493204e-38
-0.11665238 -0.056100003 0.93500006 1.5946195e-38
-0.11487143 -0.056100003 0.93500006 1.520863e-38
-0.11309049 -0.056100003 0.93500006 1.4285592e-38
-0.11130953 -0.056100003 0.93500006 1.4009005e-38
-0.10952857 -0.056100003 0.93500006 1.4008282e-38
-0.10774763 -0.056100003 0.93500006 1.4008282e-38
-0.10596667 -0.056100003 0.93500006 1.5113195e-38
-0.10396286 -0.055980001 0.93300003 1.6035151e-38
-0.10218572 -0.055980001 0.93300003 1.5667803e-38
-0.10008572 -0.055800002 0.93000007 1.4930238e-38
-0.098314293 -0.055800002 0.93000007 1.5021712e-38
-0.096542865 -0.055800002 0.93000007 1.5298299e-38
-0.095077142 -0.055980001 0.93300003 1.493204e-38
-0.0933 -0.055980001 0.93300003 1.4839845e-38
-0.091522865 -0.055980001 0.93300003 1.4931335e-38
-0.089745715 -0.055980001 0.93300003 1.3732792e-38
-0.087968573 -0.055980001 0.93300003 1.3732774e-38
-0.086191431 -0.055980001 0.93300003 1.3548383e-38
-0.084414288 -0.055980001 0.93300003 1.3273583e-38
-0.082637146 -0.055980001 0.93300003 1.4748713e-38
-0.080859996 -0.055980001 0.93300003 1.557704e-38
-0.079082862 -0.055980001 0.93300003 1.4839475e-38
-0.077471435 -0.056100003 0.93500006 1.4560727e-38
-0.075690478 -0.056100003 0.93500006 1.280901e-38
-0.073909529 -0.056100003 0.93500006 1.3637316e-38
-0.072360002 -0.056280002 0.93800002 1.6034403e-38
-0.070723809 -0.056400005 0.94000006 1.6681955e-38
-0.068933338 -0.056400005 0.94000006 1.5114629e-38
-0.067357138 -0.05658 0.94300002 1.419342e-38
-0.065560959 -0.05658 0.94300002 1.5852941e-38
-0.063764766 -0.05658 0.94300002 1.5026411e-38
-0.062165715 -0.056760002 0.94600004 1.2998107e-38
-0.060491435 -0.056880001 0.94800007 1.2173378e-38
-0.05868572 -0.056880001 0.94800007 1.1988987e-38
-0.05706 -0.05706 0.95100003 1.3828542e-38
-0.055422861 -0.057240006 0.95400006 1.8069541e-38
-0.053886667 -0.057540003 0.95900005 1.9355991e-38
-0.052222859 -0.057720002 0.96200007 2.2951621e-38
-0.050390478 -0.057720002 0.96200007 2.2582475e-38
-0.13901143 -0.055422861 0.95400006 1.8897558e-38
-0.13719429 -0.055422861 0.95400006 1.5947984e-38
-0.13495143 -0.055248573 0.95100003 9.6786816e-39
-0.13314001 -0.055248573 0.95100003 1.0875822e-38
-0.13022381 -0.05478381 0.94300002 1.5116821e-38
-0.12842761 -0.05478381 0.94300002 1.5578137e-38
-0.12622857 -0.054609526 0.94000006 1.6500093e-38
-0.12417334 -0.054493334 0.93800002 1.539449e-38
-0.12199524 -0.05431905 0.93500006 1.2905208e-38
-0.12021429 -0.05431905 0.93500006 1.198502e-38
-0.11843334 -0.05431905 0.93500006 1.2077216e-38
-0.11665238 -0.05431905 0.93500006 1.410263e-38
-0.11462571 -0.054202858 0.93300003 1.5485564e-38
-0.11284857 -0.054202858 0.93300003 1.4469986e-38
-0.11130953 -0.05431905 0.93500006 1.1243139e-38
-0.10952857 -0.05431905 0.93500006 1.1702384e-38
-0.10774763 -0.05431905 0.93500006 1.3177514e-38
-0.10574 -0.054202858 0.93300003 1.5296857e-38
-0.10396286 -0.054202858 0.93300003 1.6587596e-38
-0.10218572 -0.054202858 0.93300003 1.557704e-38
-0.10040857 -0.054202858 0.93300003 1.2534584e-38
-0.098631434 -0.054202858 0.93300003 1.1338223e-38
-0.096854292 -0.054202858 0.93300003 1.1246027e-38
-0.095077142 -0.054202858 0.93300003 1.2718646e-38
-0.0933 -0.054202858 0.93300003 1.4931341e-38
-0.091522865 -0.054202858 0.93300003 1.5115004e-38
-0.089745715 -0.054202858 0.93300003 1.3824265e-38
-0.087968573 -0.054202858 0.93300003 1.3456913e-38
-0.086191431 -0.054202858 0.93300003 1.2811544e-38
-0.084414288 -0.054202858 0.93300003 1.3918248e-38
-0.082637146 -0.054202858 0.93300003 1.5485574e-38
-0.081033342 -0.05431905 0.93500006 1.5393366e-38
-0.079252385 -0.05431905 0.93500006 1.2443106e-38
-0.077471435 -0.05431905 0.93500006 1.0504506e-38
-0.075690478 -0.05431905 0.93500006 1.0043528e-38
-0.073909529 -0.05431905 0.93500006 1.0596342e-38
-0.072360002 -0.054493334 0.93800002 1.2993428e-38
-0.070723809 -0.054609526 0.94000006 1.4560371e-38
-0.068933338 -0.054609526 0.94000006 1.6957457e-38
-0.067357138 -0.05478381 0.94300002 1.6497235e-38
-0.065560959 -0.05478381 0.94300002 1.6036256e-38
-0.063764766 -0.05478381 0.94300002 1.4012958e-38
-0.062165715 -0.054958098 0.94600004 1.2814415e-38
-0.060491435 -0.055074289 0.94800007 1.198936e-38
-0.05868572 -0.055074289 0.94800007 1.1804968e-38
-0.05706 -0.055248573 0.95100003 1.4196977e-38
-0.055422861 -0.055422861 0.95400006 1.8714562e-38
-0.053886667 -0.055713337 0.95900005 1.9447831e-38
-0.052222859 -0.055887621 0.96200007 2.3135656e-38
-0.050390478 -0.055887621 0.96200007 2.276832e-38
-0.13930286 -0.053718098 0.95600003 2.0741471e-38
-0.13719429 -0.053605717 0.95400006 1.6685576e-38
-0.13537715 -0.053605717 0.95400006 9.5865126e-39
-0.13314001 -0.053437144 0.95100003 1.1701536e-38
-0.13091429 -0.053268574 0.94800007 1.66801e-38
-0.12842761 -0.05298762 0.94300002 1.6773459e-38
-0.12622857 -0.052819051 0.94000006 1.6681263e-38
-0.12417334 -0.05270667 0.93800002 1.4289934e-38
-0.12238666 -0.05270667 0.93800002 1.1524066e-38
-0.12021429 -0.052538101 0.93500006 1.0421291e-38
-0.11843334 -0.052538101 0.93500006 1.0513487e-38
-0.11665238 -0.052538101 0.93500006 1.3548736e-38
-0.11462571 -0.052425716 0.93300003 1.4378497e-38
-0.11284857 -0.052425716 0.93300003 1.4654377e-38
-0.11130953 -0.052538101 0.93500006 1.1335334e-38
-0.10952857 -0.052538101 0.93500006 1.1794519e-38
-0.10774763 -0.052538101 0.93500006 1.3730627e-38
-0.10574 -0.052425716 0.93300003 1.5478754e-38
-0.10396286 -0.052425716 0.93300003 1.6308515e-38
-0.10218572 -0.052425716 0.93300003 1.4655465e-38
-0.10040857 -0.052425716 0.93300003 1.0506661e-38
-0.098631434 -0.052425716 0.93300003 8.669231e-39
-0.096854292 -0.052425716 0.93300003 8.669231e-39
-0.095077142 -0.052425716 0.93300003 1.1797389e-38
-0.0933 -0.052425716 0.93300003 1.410228e-38
-0.091522865 -0.052425716 0.93300003 1.5391216e-38
-0.089745715 -0.052425716 0.93300003 1.4561456e-38
-0.087968573 -0.052425716 0.93300003 1.3734224e-38
-0.086191431 -0.052425716 0.93300003 1.3734224e-38
-0.084414288 -0.052425716 0.93300003 1.4655467e-38
-0.082814291 -0.052538101 0.93500006 1.4932054e-38
-0.081033342 -0.052538101 0.93500006 1.4379229e-38
-0.079252385 -0.052538101 0.93500006 1.0691404e-38
-0.077471435 -0.052538101 0.93500006 9.7701542e-39
-0.075690478 -0.052538101 0.93500006 1.0046741e-38
-0.074146673 -0.05270667 0.93800002 9.8619813e-39
-0.072514288 -0.052819051 0.94000006 9.9541769e-39
-0.070723809 -0.052819051 0.94000006 1.2993023e-38
-0.068933338 -0.052819051 0.94000006 1.7141826e-38
-0.067357138 -0.05298762 0.94300002 1.649903e-38
-0.065560959 -0.05298762 0.94300002 1.5392682e-38
-0.063764766 -0.05298762 0.94300002 1.2171215e-38
-0.062165715 -0.053156193 0.94600004 1.1986823e-38
-0.060682859 -0.053437144 0.95100003 1.1620574e-38
-0.058871429 -0.053437144 0.95100003 1.171277e-38
-0.057240006 -0.053605717 0.95400006 1.4748728e-38
-0.055539049 -0.053718098 0.95600003 1.9081923e-38
-0.053886667 -0.053886667 0.95900005 1.9447838e-38
-0.052222859 -0.05405524 0.96200007 2.3135663e-38
-0.050390478 -0.05405524 0.96200007 2.2768683e-38
-0.13930286 -0.051897142 0.95600003 2.1385758e-38
-0.13719429 -0.051788572 0.95400006 1.8804997e-38
-0.13537715 -0.051788572 0.95400006 9.6776292e-39
-0.13356 -0.051788572 0.95400006 1.105732e-38
-0.13132857 -0.051625714 0.95100003 1.4376362e-38
-0.12883618 -0.051354285 0.94600004 1.5299045e-38
-0.12663142 -0.051191427 0.94300002 1.5114653e-38
-0.1244381 -0.051028572 0.94000006 1.3459774e-38
-0.12264763 -0.051028572 0.94000006 1.1892449e-38
-0.1206 -0.050919998 0.93800002 1.0698268e-38
-0.11881334 -0.050919998 0.93800002 1.0606072e-38
-0.11665238 -0.050757144 0.93500006 1.143223e-38
-0.11487143 -0.050757144 0.93500006 1.1893208e-38
-0.11309049 -0.050757144 0.93500006 1.3087435e-38
-0.11130953 -0.050757144 0.93500006 1.4839152e-38
-0.10952857 -0.050757144 0.93500006 1.5116049e-38
-0.10774763 -0.050757144 0.93500006 1.6038005e-38
-0.10574 -0.05064857 0.93300003 1.4469657e-38
-0.10396286 -0.05064857 0.93300003 1.2810135e-38
-0.10218572 -0.05064857 0.93300003 9.6812292e-39
-0.10040857 -0.05064857 0.93300003 7.8373166e-39
-0.098631434 -0.05064857 0.93300003 6.6448873e-39
-0.096854292 -0.05064857 0.93300003 6.2761047e-39
-0.095077142 -0.05064857 0.93300003 7.6540197e-39
-0.0933 -0.05064857 0.93300003 8.7603673e-39
-0.091522865 -0.05064857 0.93300003 1.2073943e-38
-0.089745715 -0.05064857 0.93300003 1.4747617e-38
-0.087968573 -0.05064857 0.93300003 1.4745861e-38
-0.086191431 -0.05064857 0.93300003 1.5483426e-38
-0.084414288 -0.05064857 0.93300003 1.4931341e-38
-0.082814291 -0.050757144 0.93500006 1.2442059e-38
-0.081033342 -0.050757144 0.93500006 1.0506301e-38
-0.079252385 -0.050757144 0.93500006 1.0045323e-38
-0.077471435 -0.050757144 0.93500006 1.041375e-38
-0.075933337 -0.050919998 0.93800002 1.0782532e-38
-0.074146673 -0.050919998 0.93800002 1.032117e-38
-0.072514288 -0.051028572 0.94000006 9.7679962e-39
-0.070949525 -0.051191427 0.94300002 1.0503793e-38
-0.069153331 -0.051191427 0.94300002 1.4744792e-38
-0.067357138 -0.051191427 0.94300002 1.511499e-38
-0.065769531 -0.051354285 0.94600004 1.4746207e-38
-0.063967615 -0.051354285 0.94600004 1.2631117e-38
-0.062297143 -0.051462859 0.94800007 1.235453e-38
-0.060682859 -0.051625714 0.95100003 1.1987918e-38
-0.059057143 -0.051788572 0.95400006 1.300207e-38
-0.057240006 -0.051788572 0.95400006 1.5116808e-38
-0.055539049 -0.051897142 0.95600003 1.972659e-38
-0.053886667 -0.052060001 0.95900005 2.0554195e-38
-0.052222859 -0.052222859 0.96200007 2.3043477e-38
-0.050390478 -0.052222859 0.96200007 2.2768317e-38
-0.048659049 -0.052331429 0.96400005 2.2768317e-38
-0.13930286 -0.05007619 0.95600003 2.184601e-38
-0.13748191 -0.05007619 0.95600003 1.8804646e-38
-0.13537715 -0.049971428 0.95400006 1.13368e-38
-0.13356 -0.049971428 0.95400006 1.032294e-38
-0.13132857 -0.049814284 0.95100003 1.3918569e-38
-0.12910858 -0.049657144 0.94800007 1.4655477e-38
-0.12703429 -0.049552381 0.94600004 1.4471086e-38
-0.12483523 -0.049395241 0.94300002 1.1802085e-38
-0.12264763 -0.049238101 0.94000006 1.1525498e-38
-0.12085715 -0.049238101 0.94000006 1.1343267e-38
-0.11881334 -0.049133334 0.93800002 1.106668e-38
-0.11665238 -0.048976194 0.93500006 1.0605339e-38
-0.11487143 -0.048976194 0.93500006 1.0513144e-38
-0.11309049 -0.048976194 0.93500006 1.2720058e-38
-0.11130953 -0.048976194 0.93500006 1.5024949e-38
-0.10952857 -0.048976194 0.93500006 1.5851473e-38
-0.10774763 -0.048976194 0.93500006 1.5851473e-38
-0.10574 -0.048871431 0.93300003 1.327578e-38
-0.10396286 -0.048871431 0.93300003 8.5738026e-39
-0.10218572 -0.048871431 0.93300003 7.8401808e-39
-0.10040857 -0.048871431 0.93300003 6.9182245e-39
-0.098631434 -0.048871431 0.93300003 6.2775439e-39
-0.096854292 -0.048871431 0.93300003 6.3697395e-39
-0.095077142 -0.048871431 0.93300003 6.0016758e-39
-0.0933 -0.048871431 0.93300003 5.3563064e-39
-0.091522865 -0.048871431 0.93300003 9.0332744e-39
-0.089745715 -0.048871431 0.93300003 1.2352317e-38
-0.087968573 -0.048871431 0.93300003 1.5572015e-38
-0.086191431 -0.048871431 0.93300003 1.6586167e-38
-0.084414288 -0.048871431 0.93300003 1.4931341e-38
-0.082814291 -0.048976194 0.93500006 9.8605814e-39
-0.081033342 -0.048976194 0.93500006 1.0319009e-38
-0.079252385 -0.048976194 0.93500006 1.0595596e-38
-0.077720001 -0.049133334 0.93800002 1.0597058e-38
-0.075933337 -0.049133334 0.93800002 1.0689253e-38
-0.074304767 -0.049238101 0.94000006 1.0227893e-38
-0.072514288 -0.049238101 0.94000006 1.0320088e-38
-0.070949525 -0.049395241 0.94300002 1.0227893e-38
-0.069153331 -0.049395241 0.94300002 1.4561087e-38
-0.067571431 -0.049552381 0.94600004 1.4563971e-38
-0.065769531 -0.049552381 0.94600004 1.437958e-38
-0.064102866 -0.049657144 0.94800007 1.2539623e-38
-0.062494289 -0.049814284 0.95100003 1.217084e-38
-0.060682859 -0.049814284 0.95100003 1.217122e-38
-0.059057143 -0.049971428 0.95400006 1.3461959e-38
-0.057240006 -0.049971428 0.95400006 1.5852192e-38
-0.055539049 -0.05007619 0.95600003 1.9816604e-38
-0.053886667 -0.050233334 0.95900005 2.129176e-38
-0.052222859 -0.050390478 0.96200007 2.3043477e-38
-0.050495241 -0.050495241 0.96400005 2.2675768e-38
-0.048659049 -0.050495241 0.96400005 2.2583573e-38
-0.13748191 -0.048255239 0.95600003 2.1110214e-38
-0.13537715 -0.048154291 0.95400006 1.2628216e-38
-0.13356 -0.048154291 0.95400006 1.1705553e-38
-0.13132857 -0.048002861 0.95100003 1.3641662e-38
-0.12910858 -0.047851432 0.94800007 1.4748026e-38
-0.12703429 -0.047750477 0.94600004 1.53012e-38
-0.12483523 -0.047599047 0.94300002 1.2722984e-38
-0.12303905 -0.047599047 0.94300002 1.1616637e-38
-0.12085715 -0.047447622 0.94000006 1.0974129e-38
-0.11881334 -0.047346666 0.93800002 1.1066324e-38
-0.11702667 -0.047346666 0.93800002 1.0697895e-38
-0.11487143 -0.047195241 0.93500006 1.0329113e-38
-0.11309049 -0.047195241 0.93500006 1.1431843e-38
-0.11130953 -0.047195241 0.93500006 1.4013321e-38
-0.10952857 -0.047195241 0.93500006 1.437958e-38
-0.10774763 -0.047195241 0.93500006 1.3642015e-38
-0.10596667 -0.047195241 0.93500006 1.1894251e-38
-0.10418572 -0.047195241 0.93500006 7.4688606e-39
-0.10218572 -0.047094285 0.93300003 6.093168e-39
-0.10040857 -0.047094285 0.93300003 6.2775593e-39
-0.098631434 -0.047094285 0.93300003 6.6463292e-39
-0.096854292 -0.047094285 0.93300003 6.7385248e-39
-0.095077142 -0.047094285 0.93300003 6.4612317e-39
-0.0933 -0.047094285 0.93300003 6.0002535e-39
-0.091522865 -0.047094285 0.93300003 7.5625276e-39
-0.089938097 -0.047195241 0.93500006 8.8532664e-39
-0.088157147 -0.047195241 0.93500006 1.4007904e-38
-0.086376198 -0.047195241 0.93500006 1.6036207e-38
-0.084595241 -0.047195241 0.93500006 1.5022409e-38
-0.082814291 -0.047195241 0.93500006 9.7672577e-39
-0.081293337 -0.047346666 0.93800002 9.769099e-39
-0.079506665 -0.047346666 0.93800002 1.0137882e-38
-0.077720001 -0.047346666 0.93800002 1.032191e-38
-0.076095238 -0.047447622 0.94000006 1.0598497e-38
-0.074304767 -0.047447622 0.94000006 1.0412676e-38
-0.072745718 -0.047599047 0.94300002 9.951698e-39
-0.070949525 -0.047599047 0.94300002 1.0779651e-38
-0.069153331 -0.047599047 0.94300002 1.502065e-38
-0.067571431 -0.047750477 0.94600004 1.6222031e-38
-0.065769531 -0.047750477 0.94600004 1.6222031e-38
-0.064102866 -0.047851432 0.94800007 1.4289898e-38
-0.062494289 -0.048002861 0.95100003 1.2630377e-38
-0.060874287 -0.048154291 0.95400006 1.2816602e-38
-0.059057143 -0.048154291 0.95400006 1.4291732e-38
-0.057360001 -0.048255239 0.95600003 1.5576311e-38
-0.055713337 -0.048406668 0.95900005 1.9171941e-38
-0.053886667 -0.048406668 0.95900005 2.0646388e-38
-0.052222859 -0.048558097 0.96200007 2.2951279e-38
-0.050495241 -0.048659049 0.96400005 2.2861232e-38
-0.048659049 -0.048659049 0.96400005 2.2769036e-38
-0.13748191 -0.046434287 0.95600003 2.1202086e-38
-0.13566095 -0.046434287 0.95600003 1.308887e-38
-0.13356 -0.046337146 0.95400006 1.2623868e-38
-0.13132857 -0.046191432 0.95100003 1.446778e-38
-0.12951715 -0.046191432 0.95100003 1.5115353e-38
-0.12730287 -0.046045717 0.94800007 1.5576331e-38
-0.12523238 -0.045948572 0.94600004 1.355273e-38
-0.12303905 -0.045802858 0.94300002 1.1616621e-38
-0.12124286 -0.045802858 0.94300002 1.0697532e-38
-0.11881334 -0.045560002 0.93800002 1.0974119e-38
-0.11702667 -0.045560002 0.93800002 1.0606778e-38
-0.11524001 -0.045560002 0.93800002 9.961409e-39
-0.11345333 -0.045560002 0.93800002 1.02369e-38
-0.11130953 -0.045414288 0.93500006 1.2818378e-38
-0.10952857 -0.045414288 0.93500006 1.3368326e-38
-0.10774763 -0.045414288 0.93500006 1.2999543e-38
-0.10596667 -0.045414288 0.93500006 1.0329452e-38
-0.10418572 -0.045414288 0.93500006 7.3791915e-39
-0.10240477 -0.045414288 0.93500006 5.8176601e-39
-0.10062382 -0.045414288 0.93500006 6.2786383e-39
-0.098842859 -0.045414288 0.93500006 7.1051493e-39
-0.09706191 -0.045414288 0.93500006 6.9207581e-39
-0.09528096 -0.045414288 0.93500006 6.4612317e-39
-0.093500003 -0.045414288 0.93500006 6.0002535e-39
-0.091719054 -0.045414288 0.93500006 5.726168e-39
-0.089938097 -0.045414288 0.93500006 6.8325155e-39
-0.088157147 -0.045414288 0.93500006 1.1245294e-38
-0.086376198 -0.045414288 0.93500006 1.5117511e-38
-0.084866665 -0.045560002 0.93800002 1.3180697e-38
-0.083080001 -0.045560002 0.93800002 9.6772635e-39
-0.081293337 -0.045560002 0.93800002 1.032117e-38
-0.079506665 -0.045560002 0.93800002 1.0413366e-38
-0.077885717 -0.045657143 0.94000006 1.0598473e-38
-0.076095238 -0.045657143 0.94000006 1.087506e-38
-0.074541911 -0.045802858 0.94300002 1.0599209e-38
-0.072745718 -0.045802858 0.94300002 1.0230426e-38
-0.07117524 -0.045948572 0.94600004 1.1332474e-38
-0.069373332 -0.045948572 0.94600004 1.5573473e-38
-0.067571431 -0.045948572 0.94600004 1.6773772e-38
-0.065769531 -0.045948572 0.94600004 1.6773772e-38
-0.064102866 -0.046045717 0.94800007 1.4935651e-38
-0.062691435 -0.046337146 0.95400006 1.3460521e-38
-0.060874287 -0.046337146 0.95400006 1.2999909e-38
-0.059180956 -0.046434287 0.95600003 1.3645278e-38
-0.057360001 -0.046434287 0.95600003 1.5483021e-38
-0.055713337 -0.046580002 0.95900005 1.9263042e-38
-0.053886667 -0.046580002 0.95900005 2.0277243e-38
-0.052222859 -0.046725716 0.96200007 2.3043112e-38
-0.048558097 -0.046725716 0.96200007 2.2861239e-38
-0.13566095 -0.044613335 0.95600003 1.6038765e-38
-0.13383999 -0.044613335 0.95600003 1.5208977e-38
-0.13174286 -0.044520002 0.95400006 1.5854347e-38
-0.12951715 -0.044380002 0.95100003 1.5946189e-38
-0.12770572 -0.044380002 0.95100003 1.6038385e-38
-0.12523238 -0.044146664 0.94600004 1.5211501e-38
-0.12303905 -0.044006668 0.94300002 1.2630024e-38
-0.12124286 -0.044006668 0.94300002 1.097305e-38
-0.11906667 -0.043866668 0.94000006 1.0880854e-38
-0.1172762 -0.043866668 0.94000006 1.051423e-38
-0.11524001 -0.043773334 0.93800002 1.0053251e-38
-0.11345333 -0.043773334 0.93800002 1.0788293e-38
-0.11166666 -0.043773334 0.93800002 1.3093184e-38
-0.10952857 -0.043633334 0.93500006 1.3919344e-38
-0.10774763 -0.043633334 0.93500006 1.401154e-38
-0.10596667 -0.043633334 0.93500006 1.1343248e-38
-0.10418572 -0.043633334 0.93500006 7.4710312e-39
-0.10240477 -0.043633334 0.93500006 5.7261932e-39
-0.10062382 -0.043633334 0.93500006 6.1871713e-39
-0.098842859 -0.043633334 0.93500006 6.6463292e-39
-0.09706191 -0.043633334 0.93500006 6.6463292e-39
-0.09528096 -0.043633334 0.93500006 6.0942498e-39
-0.093500003 -0.043633334 0.93500006 5.4488804e-39
-0.091719054 -0.043633334 0.93500006 6.5530448e-39
-0.089938097 -0.043633334 0.93500006 9.4111093e-39
-0.088157147 -0.043633334 0.93500006 1.189069e-38
-0.086653329 -0.043773334 0.93800002 1.5762907e-38
-0.084866665 -0.043773334 0.93800002 1.5117132e-38
-0.083080001 -0.043773334 0.93800002 1.0968329e-38
-0.081466675 -0.043866668 0.94000006 9.7701668e-39
-0.079676196 -0.043866668 0.94000006 9.4013843e-39
-0.078134283 -0.044006668 0.94300002 1.0138195e-38
-0.07633809 -0.044006668 0.94300002 1.0599174e-38
-0.074541911 -0.044006668 0.94300002 1.1058004e-38
-0.072745718 -0.044006668 0.94300002 1.2625329e-38
-0.07117524 -0.044146664 0.94600004 1.3730284e-38
-0.069373332 -0.044146664 0.94600004 1.5482001e-38
-0.067571431 -0.044146664 0.94600004 1.6222006e-38
-0.065908574 -0.044240002 0.94800007 1.6775179e-38
-0.064305715 -0.044380002 0.95100003 1.5854739e-38
-0.062691435 -0.044520002 0.95400006 1.5578152e-38
-0.060874287 -0.044520002 0.95400006 1.511859e-38
-0.059180956 -0.044613335 0.95600003 1.3827851e-38
-0.057360001 -0.044613335 0.95600003 1.4746563e-38
-0.055713337 -0.044753335 0.95900005 1.9171953e-38
-0.13566095 -0.042792384 0.95600003 1.6776696e-38
-0.13383999 -0.042792384 0.95600003 1.6495417e-38
-0.13174286 -0.042702857 0.95400006 1.68642e-38
-0.12992573 -0.042702857 0.95400006 1.6222409e-38
-0.12770572 -0.042568572 0.95100003 1.5853627e-38
-0.12549715 -0.04243429 0.94800007 1.4752328e-38
-0.12343048 -0.042344764 0.94600004 1.3922567e-38
-0.12124286 -0.042210475 0.94300002 1.1344719e-38
-0.11906667 -0.042076193 0.94000006 1.0514958e-38
-0.1172762 -0.042076193 0.94000006 1.0882289e-38
-0.11548572 -0.042076193 0.94000006 1.0513507e-38
-0.11369524 -0.042076193 0.94000006 1.0788286e-38
-0.11190477 -0.042076193 0.94000006 1.4015133e-38
-0.10988 -0.041986667 0.93800002 1.4749458e-38
-0.10809334 -0.041986667 0.93800002 1.4472871e-38
-0.10630666 -0.041986667 0.93800002 1.1712773e-38
-0.10452 -0.041986667 0.93800002 8.0249476e-39
-0.10240477 -0.041852385 0.93500006 5.1748243e-39
-0.10062382 -0.041852385 0.93500006 5.6358024e-39
-0.098842859 -0.041852385 0.93500006 6.4622883e-39
-0.09706191 -0.041852385 0.93500006 6.4622883e-39
-0.09528096 -0.041852385 0.93500006 6.5552126e-39
-0.093500003 -0.041852385 0.93500006 5.8176475e-39
-0.091719054 -0.041852385 0.93500006 7.3802607e-39
-0.089938097 -0.041852385 0.93500006 1.0883695e-38
-0.088157147 -0.041852385 0.93500006 1.3824265e-38
-0.086653329 -0.041986667 0.93800002 1.5668177e-38
-0.084866665 -0.041986667 0.93800002 1.4842005e-38
-0.083080001 -0.041986667 0.93800002 1.2444919e-38
-0.081466675 -0.042076193 0.94000006 1.087797e-38
-0.079676196 -0.042076193 0.94000006 9.4950358e-39
-0.078134283 -0.042210475 0.94300002 1.0045652e-38
-0.07633809 -0.042210475 0.94300002 1.0322239e-38
-0.074541911 -0.042210475 0.94300002 1.1150215e-38
-0.072745718 -0.042210475 0.94300002 1.4377062e-38
-0.07117524 -0.042344764 0.94600004 1.4562568e-38
-0.069373332 -0.042344764 0.94600004 1.2995243e-38
-0.067571431 -0.042344764 0.94600004 1.3454367e-38
-0.065908574 -0.04243429 0.94800007 1.4837301e-38
-0.064305715 -0.042568572 0.95100003 1.6405368e-38
-0.062691435 -0.042702857 0.95400006 1.7142933e-38
-0.060874287 -0.042702857 0.95400006 1.6683065e-38
-0.059180956 -0.042792384 0.95600003 1.299524e-38
-0.057540003 -0.042926669 0.95900005 1.3820613e-38
-0.055713337 -0.042926669 0.95900005 2.0089916e-38
-0.1365124 -0.041228574 0.96200007 1.9265612e-38
-0.13383999 -0.040971428 0.95600003 1.668308e-38
-0.13174286 -0.040885717 0.95400006 1.5484537e-38
-0.12992573 -0.040885717 0.95400006 1.1985394e-38
-0.12770572 -0.040757146 0.95100003 9.9570902e-39
-0.12549715 -0.040628575 0.94800007 1.1710239e-38
-0.12343048 -0.04054286 0.94600004 1.5121478e-38
-0.12124286 -0.040414285 0.94300002 1.3092107e-38
-0.11906667 -0.040285718 0.94000006 1.1432586e-38
-0.1172762 -0.040285718 0.94000006 1.1709551e-38
-0.11548572 -0.040285718 0.94000006 1.2815899e-38
-0.11369524 -0.040285718 0.94000006 1.4103722e-38
-0.11190477 -0.040285718 0.94000006 1.4933482e-38
-0.11011429 -0.040285718 0.94000006 1.5024939e-38
-0.10832381 -0.040285718 0.94000006 1.4840548e-38
-0.10653334 -0.040285718 0.94000006 1.3275429e-38
-0.10474286 -0.040285718 0.94000006 1.2445669e-38
-0.10273334 -0.040200002 0.93800002 9.2238888e-39
-0.10094667 -0.040200002 0.93800002 7.2877806e-39
-0.099160001 -0.040200002 0.93800002 5.7268714e-39
-0.097373337 -0.040200002 0.93800002 5.7268714e-39
-0.095586672 -0.040200002 0.93800002 6.8289128e-39
-0.093800001 -0.040200002 0.93800002 9.1338035e-39
-0.092013337 -0.040200002 0.93800002 1.2353427e-38
-0.090226665 -0.040200002 0.93800002 1.4934905e-38
-0.088440001 -0.040200002 0.93800002 1.4471775e-38
-0.086838104 -0.040285718 0.94000006 1.373421e-38
-0.085319042 -0.040414285 0.94300002 1.4563258e-38
-0.083522864 -0.040414285 0.94300002 1.5853997e-38
-0.08172667 -0.040414285 0.94300002 1.4839845e-38
-0.079930477 -0.040414285 0.94300002 1.2811541e-38
-0.078134283 -0.040414285 0.94300002 1.0967658e-38
-0.07633809 -0.040414285 0.94300002 1.0691071e-38
-0.074779049 -0.04054286 0.94600004 1.188675e-38
-0.072977141 -0.04054286 0.94600004 1.6404336e-38
-0.07117524 -0.04054286 0.94600004 1.4102659e-38
-0.069373332 -0.04054286 0.94600004 1.0322639e-38
-0.067571431 -0.04054286 0.94600004 9.4968379e-39
-0.065908574 -0.040628575 0.94800007 9.0358598e-39
-0.064305715 -0.040757146 0.95100003 1.2903714e-38
-0.062691435 -0.040885717 0.95400006 1.74213e-38
-0.061001904 -0.040971428 0.95600003 1.6589771e-38
-0.059180956 -0.040971428 0.95600003 1.2625359e-38
-0.057540003 -0.041100003 0.95900005 1.2993764e-38
-0.055713337 -0.041100003 0.95900005 1.9539654e-38
-0.14363334 -0.039846666 0.97300005 2.1845258e-38
-0.14178 -0.039846666 0.97300005 2.2582823e-38
-0.1365124 -0.039396197 0.96200007 1.9357454e-38
-0.13426 -0.039273337 0.95900005 1.7329513e-38
-0.13201906 -0.039150476 0.95600003 1.318071e-38
-0.12992573 -0.039068572 0.95400006 1.1158458e-38
-0.12810858 -0.039068572 0.95400006 9.0379589e-39
-0.12589429 -0.038945716 0.95100003 1.1340669e-38
-0.12369143 -0.03882286 0.94800007 1.4844103e-38
-0.12162858 -0.038740952 0.94600004 1.53012e-38
-0.11944667 -0.038618095 0.94300002 1.2811918e-38
-0.11765048 -0.038618095 0.94300002 1.2811915e-38
-0.11548572 -0.038495239 0.94000006 1.4655828e-38
-0.11369524 -0.038495239 0.94000006 1.5576331e-38
-0.11226191 -0.038618095 0.94300002 1.5023157e-38
-0.11011429 -0.038495239 0.94000006 1.4562535e-38
-0.10832381 -0.038495239 0.94000006 1.465473e-38
-0.10653334 -0.038495239 0.94000006 1.5022797e-38
-0.10474286 -0.038495239 0.94000006 1.4654014e-38
-0.10295238 -0.038495239 0.94000006 1.2998855e-38
-0.10094667 -0.038413331 0.93800002 1.0232986e-38
-0.099160001 -0.038413331 0.93800002 6.3715248e-39
-0.097373337 -0.038413331 0.93800002 5.1729816e-39
-0.095586672 -0.038413331 0.93800002 6.8259644e-39
-0.093800001 -0.038413331 0.93800002 1.1527942e-38
-0.092013337 -0.038413331 0.93800002 1.4192684e-38
-0.090419047 -0.038495239 0.94000006 1.5391228e-38
-0.088628575 -0.038495239 0.94000006 1.4379957e-38
-0.087115236 -0.038618095 0.94300002 1.2812631e-38
-0.085319042 -0.038618095 0.94300002 1.3916797e-38
-0.083522864 -0.038618095 0.94300002 1.5760709e-38
-0.08172667 -0.038618095 0.94300002 1.6588336e-38
-0.079930477 -0.038618095 0.94300002 1.4836619e-38
-0.078134283 -0.038618095 0.94300002 1.2443121e-38
-0.076580957 -0.038740952 0.94600004 1.2443121e-38
-0.074779049 -0.038740952 0.94600004 1.3823552e-38
-0.072977141 -0.038740952 0.94600004 1.4929899e-38
-0.07117524 -0.038740952 0.94600004 1.3458366e-38
-0.069520004 -0.03882286 0.94800007 9.3095628e-39
-0.067714289 -0.03882286 0.94800007 6.6484998e-39
-0.066117145 -0.038945716 0.95100003 6.2797173e-39
-0.064508572 -0.039068572 0.95400006 1.0509136e-38
-0.062822863 -0.039150476 0.95600003 1.5856482e-38
-0.061001904 -0.039150476 0.95600003 1.5761465e-38
-0.059180956 -0.039150476 0.95600003 1.2073639e-38
-0.057540003 -0.039273337 0.95900005 1.2348407e-38
-0.055887621 -0.039396197 0.96200007 1.9816253e-38
-0.14363334 -0.037993334 0.97300005 2.2213675e-38
-0.14178 -0.037993334 0.97300005 2.2674653e-38
-0.13992667 -0.037993334 0.97300005 2.1754897e-38
-0.13722192 -0.037759051 0.96700007 1.9173419e-38
-0.13426 -0.037446667 0.95900005 1.7699715e-38
-0.13201906 -0.037329525 0.95600003 1.253676e-38
-0.13019811 -0.037329525 0.95600003 8.8561236e-39
-0.12810858 -0.037251431 0.95400006 7.012211e-39
-0.12589429 -0.037134286 0.95100003 8.6699275e-39
-0.12369143 -0.037017144 0.94800007 1.2265557e-38
-0.12162858 -0.036939051 0.94600004 1.437888e-38
-0.11944667 -0.036821906 0.94300002 1.5946206e-38
-0.11765048 -0.036821906 0.94300002 1.6038012e-38
-0.11585429 -0.036821906 0.94300002 1.6222404e-38
-0.11405809 -0.036821906 0.94300002 1.5024596e-38
-0.11226191 -0.036821906 0.94300002 1.1521162e-38
-0.11046572 -0.036821906 0.94300002 1.1243136e-38
-0.10866953 -0.036821906 0.94300002 1.0505571e-38
-0.10653334 -0.036704764 0.94000006 1.2348382e-38
-0.10474286 -0.036704764 0.94000006 1.5298642e-38
-0.10295238 -0.036704764 0.94000006 1.4746241e-38
-0.10116191 -0.036704764 0.94000006 1.4469654e-38
-0.099371433 -0.036704764 0.94000006 1.1802082e-38
-0.097580954 -0.036704764 0.94000006 9.497191e-39
-0.095790483 -0.036704764 0.94000006 1.0785777e-38
-0.094000004 -0.036704764 0.94000006 1.5118972e-38
-0.092209533 -0.036704764 0.94000006 1.5116406e-38
-0.090419047 -0.036704764 0.94000006 1.3641276e-38
-0.088628575 -0.036704764 0.94000006 1.1892492e-38
-0.087115236 -0.036821906 0.94300002 1.152371e-38
-0.085319042 -0.036821906 0.94300002 1.2167613e-38
-0.083522864 -0.036821906 0.94300002 1.3273961e-38
-0.08172667 -0.036821906 0.94300002 1.493204e-38
-0.079930477 -0.036821906 0.94300002 1.6038388e-38
-0.078134283 -0.036821906 0.94300002 1.5577777e-38
-0.076580957 -0.036939051 0.94600004 1.5669972e-38
-0.074779049 -0.036939051 0.94600004 1.4657248e-38
-0.072977141 -0.036939051 0.94600004 1.1522597e-38
-0.07117524 -0.036939051 0.94600004 9.2227551e-39
-0.069520004 -0.037017144 0.94800007 7.9320163e-39
-0.067928575 -0.037134286 0.95100003 7.1995254e-39
-0.066117145 -0.037134286 0.95100003 7.1995254e-39
-0.064508572 -0.037251431 0.95400006 9.4971938e-39
-0.062822863 -0.037329525 0.95600003 1.3461606e-38
-0.061001904 -0.037329525 0.95600003 1.419377e-38
-0.05936667 -0.037446667 0.95900005 1.188888e-38
-0.057540003 -0.037446667 0.95900005 1.2532119e-38
-0.055887621 -0.037563812 0.96200007 2.0368748e-38
-0.14178 -0.036140002 0.97300005 2.2490643e-38
-0.13992667 -0.036140002 0.97300005 2.110989e-38
-0.13722192 -0.035917144 0.96700007 2.0372325e-38
-0.13468002 -0.035731431 0.96200007 1.7702605e-38
-0.13243334 -0.03562 0.95900005 1.253965e-38
-0.13019811 -0.035508573 0.95600003 8.7646314e-39
-0.12810858 -0.035434287 0.95400006 7.5660883e-39
-0.12589429 -0.035322856 0.95100003 7.7508691e-39
-0.12369143 -0.035211433 0.94800007 9.3181948e-39
-0.12188572 -0.035211433 0.94800007 1.3272872e-38
-0.11982667 -0.035137143 0.94600004 1.6499719e-38
-0.11765048 -0.035025716 0.94300002 1.686674e-38
-0.11585429 -0.035025716 0.94300002 1.603698e-38
-0.11405809 -0.035025716 0.94300002 1.456434e-38
-0.11261906 -0.035137143 0.94600004 1.0599927e-38
-0.11046572 -0.035025716 0.94300002 1.0139314e-38
-0.10866953 -0.035025716 0.94300002 9.4939442e-39
-0.10687333 -0.035025716 0.94300002 1.0962546e-38
-0.10507714 -0.035025716 0.94300002 1.3451828e-38
-0.10328095 -0.035025716 0.94300002 1.5570933e-38
-0.10116191 -0.034914289 0.94000006 1.6031911e-38
-0.099371433 -0.034914289 0.94000006 1.4655117e-38
-0.097580954 -0.034914289 0.94000006 1.3825356e-38
-0.095790483 -0.034914289 0.94000006 1.2997035e-38
-0.094300002 -0.035025716 0.94300002 1.5117534e-38
-0.092503816 -0.035025716 0.94300002 1.4748742e-38
-0.090419047 -0.034914289 0.94000006 1.1982873e-38
-0.088628575 -0.034914289 0.94000006 1.088083e-38
-0.087115236 -0.035025716 0.94300002 1.1065222e-38
-0.085319042 -0.035025716 0.94300002 1.0696799e-38
-0.083522864 -0.035025716 0.94300002 1.0973386e-38
-0.08172667 -0.035025716 0.94300002 1.2720424e-38
-0.079930477 -0.035025716 0.94300002 1.4472141e-38
-0.078382857 -0.035137143 0.94600004 1.5669254e-38
-0.076580957 -0.035137143 0.94600004 1.5853645e-38
-0.074779049 -0.035137143 0.94600004 1.3831114e-38
-0.073131435 -0.035211433 0.94800007 9.0369416e-39
-0.071325719 -0.035211433 0.94800007 7.3853264e-39
-0.069520004 -0.035211433 0.94800007 7.2009351e-39
-0.067928575 -0.035322856 0.95100003 7.2920741e-39
-0.066325717 -0.035434287 0.95400006 7.1998785e-39
-0.064508572 -0.035434287 0.95400006 8.669231e-39
-0.062822863 -0.035508573 0.95600003 1.3094621e-38
-0.06119334 -0.03562 0.95900005 1.3827151e-38
-0.05936667 -0.03562 0.95900005 1.1522261e-38
-0.057720002 -0.035731431 0.96200007 1.2807575e-38
-0.055887621 -0.035731431 0.96200007 2.1105182e-38
-0.14392857 -0.034357142 0.97500002 2.2307705e-38
-0.14207143 -0.034357142 0.97500002 2.2123313e-38
-0.13992667 -0.03428667 0.97300005 2.1847089e-38
-0.13722192 -0.034075242 0.96700007 2.1570503e-38
-0.13468002 -0.03389905 0.96200007 1.9636894e-38
-0.13284762 -0.03389905 0.96200007 1.3920765e-38
-0.13060667 -0.033793334 0.95900005 9.0398507e-39
-0.12837714 -0.033687621 0.95600003 7.472525e-39
-0.12629142 -0.033617143 0.95400006 7.4761179e-39
-0.12408286 -0.03351143 0.95100003 7.0151397e-39
-0.12188572 -0.033405717 0.94800007 9.5872343e-39
-0.11982667 -0.033335239 0.94600004 1.4565798e-38
-0.11765048 -0.033229522 0.94300002 1.6038755e-38
-0.11585429 -0.033229522 0.94300002 1.2627517e-38
-0.11405809 -0.033229522 0.94300002 1.0138961e-38
-0.11261906 -0.033335239 0.94600004 9.1248086e-39
-0.11081714 -0.033335239 0.94600004 9.7698249e-39
-0.10866953 -0.033229522 0.94300002 1.0138607e-38
-0.10687333 -0.033229522 0.94300002 1.0688534e-38
-0.10507714 -0.033229522 0.94300002 1.0319752e-38
-0.10328095 -0.033229522 0.94300002 1.280754e-38
-0.10148477 -0.033229522 0.94300002 1.5389018e-38
-0.099688575 -0.033229522 0.94300002 1.4930265e-38
-0.097892381 -0.033229522 0.94300002 1.5944417e-38
-0.096096188 -0.033229522 0.94300002 1.4933116e-38
-0.094300002 -0.033229522 0.94300002 1.3181399e-38
-0.092503816 -0.033229522 0.94300002 1.1340037e-38
-0.090707622 -0.033229522 0.94300002 1.0786863e-38
-0.088911429 -0.033229522 0.94300002 1.0513487e-38
-0.087115236 -0.033229522 0.94300002 1.0790074e-38
-0.085319042 -0.033229522 0.94300002 1.0881204e-38
-0.083522864 -0.033229522 0.94300002 1.0696813e-38
-0.081986673 -0.033335239 0.94600004 1.1064517e-38
-0.080184758 -0.033335239 0.94600004 1.1802082e-38
-0.078382857 -0.033335239 0.94600004 1.4379923e-38
-0.076580957 -0.033335239 0.94600004 1.5117488e-38
-0.07493715 -0.033405717 0.94800007 1.3738519e-38
-0.073131435 -0.033405717 0.94800007 7.100434e-39
-0.071551435 -0.03351143 0.95100003 6.3715598e-39
-0.069740005 -0.03351143 0.95100003 6.9247336e-39
-0.068142861 -0.033617143 0.95400006 6.9243734e-39
-0.066325717 -0.033617143 0.95400006 6.7399822e-39
-0.064643808 -0.033687621 0.95600003 9.4067905e-39
-0.063020006 -0.033793334 0.95900005 1.5215115e-38
-0.06119334 -0.033793334 0.95900005 1.576288e-38
-0.05936667 -0.033793334 0.95900005 1.3089207e-38
-0.057720002 -0.03389905 0.96200007 1.4377787e-38
-0.056003813 -0.033969525 0.96400005 2.064709e-38
-0.054167621 -0.033969525 0.96400005 2.2491006e-38
-0.052494287 -0.034075242 0.96700007 2.2491006e-38
-0.13834476 -0.032066669 0.96200007 2.2123316e-38
-0.1365124 -0.032066669 0.96200007 2.2031121e-38
-0.13468002 -0.032066669 0.96200007 1.9911707e-38
-0.13284762 -0.032066669 0.96200007 1.5025339e-38
-0.13060667 -0.031966668 0.95900005 1.1896463e-38
-0.12837714 -0.03186667 0.95600003 8.3008339e-39
-0.12629142 -0.031800002 0.95400006 6.9243734e-39
-0.12447429 -0.031800002 0.95400006 6.5555909e-39
-0.12227143 -0.0317 0.95100003 7.9330813e-39
