# .PCD v0.7 - Point Cloud Data file format
VERSION 0.7
FIELDS x y z rgb
SIZE 4 4 4 4
TYPE F F F F
COUNT 1 1 1 1
WIDTH 964
HEIGHT 1
VIEWPOINT 0 0 0 1 0 0 0
POINTS 964
DATA ascii
-0.060865719 0.017282858 0.78900003 1.4773275e-38
-0.059212383 0.017239049 0.78700006 1.6334477e-38
-0.057713337 0.017239049 0.78700006 1.8547172e-38
-0.056357145 0.017282858 0.78900003 2.2774839e-38
-0.054854289 0.017282858 0.78900003 2.2958871e-38
-0.053351428 0.017282858 0.78900003 2.3326213e-38
-0.051848572 0.017282858 0.78900003 2.3326213e-38
-0.050345715 0.017282858 0.78900003 2.3234378e-38
-0.048842859 0.017282858 0.78900003 2.3142182e-38
-0.047340002 0.017282858 0.78900003 2.2223829e-38
-0.045895241 0.017304761 0.79000002 1.8996981e-38
-0.044390477 0.017304761 0.79000002 1.0262577e-38
-0.042994291 0.017348573 0.79200006 5.4684047e-39
-0.041485716 0.017348573 0.79200006 2.2623866e-39
-0.039977144 0.017348573 0.79200006 9.9146238e-39
-0.038565718 0.017392382 0.79400003 2.047498e-38
-0.037053335 0.017392382 0.79400003 2.1856838e-38
-0.035540953 0.017392382 0.79400003 2.1211093e-38
-0.03411429 0.017436191 0.79600006 1.5494964e-38
-0.032680001 0.017479999 0.79800004 1.3107642e-38
-0.031238094 0.017523808 0.80000001 1.3753012e-38
-0.029788572 0.01756762 0.80200005 1.7336741e-38
-0.028296191 0.017589524 0.80300003 1.9918219e-38
-0.026833337 0.017633334 0.80500007 1.8075378e-38
-0.025362857 0.017677143 0.80700004 8.4870328e-39
-0.023884762 0.017720953 0.80900002 5.7369608e-39
-0.022343809 0.017720953 0.80900002 1.080772e-38
-0.020854287 0.017764764 0.81100005 1.5306272e-38
-0.019309524 0.017764764 0.81100005 1.5029686e-38
-0.10348667 0.019452382 0.81700003 1.585691e-38
-0.10193048 0.019452382 0.81700003 1.4383953e-38
-0.099145718 0.019214287 0.80700004 1.2540041e-38
-0.097608574 0.019214287 0.80700004 1.1624909e-38
-0.095595248 0.019119048 0.80300003 1.1624909e-38
-0.094065718 0.019119048 0.80300003 9.8814705e-39
-0.092420958 0.019095238 0.80200005 9.6048836e-39
-0.090666667 0.019047618 0.80000001 1.3468468e-38
-0.089142852 0.019047618 0.80000001 1.807825e-38
-0.087400004 0.019000001 0.79800004 1.8996626e-38
-0.085664764 0.018952383 0.79600006 1.4202453e-38
-0.084148578 0.018952383 0.79600006 1.1898593e-38
-0.082632385 0.018952383 0.79600006 1.217518e-38
-0.080912381 0.018904762 0.79400003 1.5948427e-38
-0.079400003 0.018904762 0.79400003 2.2678703e-38
-0.077887625 0.018904762 0.79400003 2.2682646e-38
-0.076375239 0.018904762 0.79400003 2.0562146e-38
-0.074674286 0.018857144 0.79200006 1.9456855e-38
-0.073165715 0.018857144 0.79200006 2.0931985e-38
-0.071476191 0.018809523 0.79000002 2.3050703e-38
-0.069971427 0.018809523 0.79000002 2.3142539e-38
-0.068380006 0.018785715 0.78900003 2.1027456e-38
-0.066877142 0.018785715 0.78900003 1.8077196e-38
-0.065374292 0.018785715 0.78900003 1.348508e-38
-0.063871428 0.018785715 0.78900003 1.3761667e-38
-0.062368572 0.018785715 0.78900003 1.4221517e-38
-0.060865719 0.018785715 0.78900003 1.4313713e-38
-0.059362859 0.018785715 0.78900003 1.6885862e-38
-0.057860002 0.018785715 0.78900003 2.0387479e-38
-0.056357145 0.018785715 0.78900003 2.3234378e-38
-0.054854289 0.018785715 0.78900003 2.3234378e-38
-0.053351428 0.018785715 0.78900003 2.2681204e-38
-0.051848572 0.018785715 0.78900003 2.1943639e-38
-0.050345715 0.018785715 0.78900003 2.3142535e-38
-0.048842859 0.018785715 0.78900003 2.3234372e-38
-0.047400001 0.018809523 0.79000002 2.3326213e-38
-0.046011433 0.018857144 0.79200006 2.2957431e-38
-0.044502862 0.018857144 0.79200006 1.5970407e-38
-0.042994291 0.018857144 0.79200006 7.0274333e-39
-0.041590478 0.018904762 0.79400003 8.5993735e-39
-0.040078096 0.018904762 0.79400003 1.6804785e-38
-0.038565718 0.018904762 0.79400003 2.2590813e-38
-0.037053335 0.018904762 0.79400003 2.1115683e-38
-0.035630479 0.018952383 0.79600006 1.7988227e-38
-0.034199998 0.019000001 0.79800004 1.4484793e-38
-0.032761905 0.019047618 0.80000001 1.2099601e-38
-0.031316195 0.019095238 0.80200005 1.1454232e-38
-0.029788572 0.019095238 0.80200005 1.5129081e-38
-0.028296191 0.019119048 0.80300003 1.7987146e-38
-0.026833337 0.019166669 0.80500007 1.7890265e-38
-0.025362857 0.019214287 0.80700004 6.8267898e-39
-0.023884762 0.019261904 0.80900002 3.4374286e-39
-0.022343809 0.019261904 0.80900002 1.0536492e-38
-0.020802857 0.019261904 0.80900002 1.5951642e-38
-0.10504286 0.021008572 0.81700003 1.5488125e-38
-0.10348667 0.021008572 0.81700003 1.5856907e-38
-0.10193048 0.021008572 0.81700003 1.4936042e-38
-0.10012858 0.020957144 0.81500006 1.2354565e-38
-0.098334283 0.020905714 0.81300002 1.0518921e-38
-0.095833339 0.020700002 0.80500007 1.1164291e-38
-0.094065718 0.020648573 0.80300003 9.5134265e-39
-0.092420958 0.020622859 0.80200005 1.00666e-38
-0.090893336 0.020622859 0.80200005 1.1077521e-38
-0.089142852 0.020571429 0.80000001 1.3658998e-38
-0.087619044 0.020571429 0.80000001 1.7061221e-38
-0.085880004 0.020520002 0.79800004 1.8536351e-38
-0.084360003 0.020520002 0.79800004 1.8717483e-38
-0.082632385 0.020468574 0.79600006 1.9455048e-38
-0.080912381 0.020417145 0.79400003 2.129719e-38
-0.079400003 0.020417145 0.79400003 2.3141103e-38
-0.077887625 0.020417145 0.79400003 2.0932724e-38
-0.076375239 0.020417145 0.79400003 1.4940008e-38
-0.07486286 0.020417145 0.79400003 1.0717683e-38
-0.073165715 0.020365715 0.79200006 1.0625487e-38
-0.071476191 0.020314286 0.79000002 1.7708726e-38
-0.069971427 0.020314286 0.79000002 2.2407833e-38
-0.068466663 0.020314286 0.79000002 2.3142182e-38
-0.066877142 0.020288572 0.78900003 2.3049986e-38
-0.065374292 0.020288572 0.78900003 2.0292412e-38
-0.063871428 0.020288572 0.78900003 1.6696782e-38
-0.062368572 0.020288572 0.78900003 1.5322836e-38
-0.060865719 0.020288572 0.78900003 1.8273096e-38
-0.059362859 0.020288572 0.78900003 2.2867037e-38
-0.057860002 0.020288572 0.78900003 2.2958873e-38
-0.056357145 0.020288572 0.78900003 2.3326213e-38
-0.054854289 0.020288572 0.78900003 1.9730584e-38
-0.053351428 0.020288572 0.78900003 1.4294344e-38
-0.051848572 0.020288572 0.78900003 1.3095801e-38
-0.050345715 0.020288572 0.78900003 1.6321157e-38
-0.048904765 0.020314286 0.79000002 2.2313872e-38
-0.047400001 0.020314286 0.79000002 2.341769e-38
-0.046011433 0.020365715 0.79200006 2.341769e-38
-0.044502862 0.020365715 0.79200006 2.2867037e-38
-0.04310286 0.020417145 0.79400003 2.0469951e-38
-0.041590478 0.020417145 0.79400003 2.0750481e-38
-0.040078096 0.020417145 0.79400003 2.2316013e-38
-0.038662862 0.020468574 0.79600006 2.139408e-38
-0.037146669 0.020468574 0.79600006 1.7429668e-38
-0.035630479 0.020468574 0.79600006 1.3756599e-38
-0.034199998 0.020520002 0.79800004 1.3295621e-38
-0.032761905 0.020571429 0.80000001 1.2376554e-38
-0.031316195 0.020622859 0.80200005 1.182338e-38
-0.029788572 0.020622859 0.80200005 1.4578428e-38
-0.028296191 0.020648573 0.80300003 1.6883319e-38
-0.026900001 0.02075143 0.80700004 1.6419444e-38
-0.025362857 0.02075143 0.80700004 6.3701207e-39
-0.023884762 0.020802857 0.80900002 3.7137394e-39
-0.022343809 0.020802857 0.80900002 1.0259629e-38
-0.020802857 0.020802857 0.80900002 1.5951982e-38
-0.10504286 0.022564763 0.81700003 1.5488843e-38
-0.10323334 0.022509526 0.81500006 1.576543e-38
-0.10168096 0.022509526 0.81500006 1.548885e-38
-0.10012858 0.022509526 0.81500006 1.2815177e-38
-0.098334283 0.022454288 0.81300002 1.0794056e-38
-0.096071437 0.022288572 0.80700004 1.134723e-38
-0.094065718 0.022178095 0.80300003 9.3301044e-39
-0.092420958 0.022150477 0.80200005 1.0159865e-38
-0.090893336 0.022150477 0.80200005 9.9758522e-39
-0.089142852 0.022095239 0.80000001 1.0897808e-38
-0.087619044 0.022095239 0.80000001 1.5219822e-38
-0.085880004 0.02204 0.79800004 1.8354474e-38
-0.084360003 0.02204 0.79800004 1.954619e-38
-0.082632385 0.021984763 0.79600006 2.1482298e-38
-0.080912381 0.021929525 0.79400003 2.1484103e-38
-0.079400003 0.021929525 0.79400003 2.0838733e-38
-0.077887625 0.021929525 0.79400003 1.6608177e-38
-0.076375239 0.021929525 0.79400003 9.6935045e-39
-0.07486286 0.021929525 0.79400003 1.983978e-39
-0.073165715 0.021874288 0.79200006 1.7995867e-39
-0.071657151 0.021874288 0.79200006 1.3748959e-38
-0.069971427 0.021819048 0.79000002 1.9649479e-38
-0.068466663 0.021819048 0.79000002 2.3418043e-38
-0.066961907 0.021819048 0.79000002 2.3418043e-38
-0.065457143 0.021819048 0.79000002 2.2683365e-38
-0.063952379 0.021819048 0.79000002 1.899554e-38
-0.062447619 0.021819048 0.79000002 1.6791136e-38
-0.060942858 0.021819048 0.79000002 2.1030327e-38
-0.059362859 0.021791428 0.78900003 2.3326213e-38
-0.057860002 0.021791428 0.78900003 2.3326213e-38
-0.056357145 0.021791428 0.78900003 2.341769e-38
-0.054854289 0.021791428 0.78900003 1.7148387e-38
-0.053419046 0.021819048 0.79000002 1.3925866e-38
-0.051914286 0.021819048 0.79000002 1.3557083e-38
-0.050409522 0.021819048 0.79000002 1.4754152e-38
-0.048904765 0.021819048 0.79000002 1.881076e-38
-0.047520004 0.021874288 0.79200006 2.2402091e-38
-0.046011433 0.021874288 0.79200006 2.3509158e-38
-0.044502862 0.021874288 0.79200006 2.3326213e-38
-0.04310286 0.021929525 0.79400003 2.3049626e-38
-0.041590478 0.021929525 0.79400003 2.2774842e-38
-0.040179051 0.021984763 0.79600006 2.2774842e-38
-0.038662862 0.021984763 0.79600006 1.9370809e-38
-0.037146669 0.021984763 0.79600006 1.5037614e-38
-0.035630479 0.021984763 0.79600006 1.2377987e-38
-0.034199998 0.02204 0.79800004 1.2838966e-38
-0.03284381 0.022150477 0.80200005 1.2836087e-38
-0.031316195 0.022150477 0.80200005 1.172974e-38
-0.029825715 0.022178095 0.80300003 1.3750112e-38
-0.028366668 0.022233333 0.80500007 1.6515981e-38
-0.026900001 0.022288572 0.80700004 1.5039782e-38
-0.025362857 0.022288572 0.80700004 5.4514364e-39
-0.023884762 0.022343809 0.80900002 4.2639761e-39
-0.022343809 0.022343809 0.80900002 1.1547431e-38
-0.020802857 0.022343809 0.80900002 1.613567e-38
-0.10323334 0.024061905 0.81500006 1.6040219e-38
-0.10168096 0.024061905 0.81500006 1.5396655e-38
-0.10012858 0.024061905 0.81500006 1.4105916e-38
-0.098334283 0.024002858 0.81300002 1.2452862e-38
-0.096071437 0.023825716 0.80700004 1.2452862e-38
-0.094300009 0.023766669 0.80500007 1.0892398e-38
-0.092536189 0.023707621 0.80300003 1.1353376e-38
-0.090893336 0.023678096 0.80200005 1.0436114e-38
-0.089365721 0.023678096 0.80200005 1.0620506e-38
-0.087619044 0.023619048 0.80000001 1.2457939e-38
-0.086095236 0.023619048 0.80000001 1.6422351e-38
-0.084360003 0.023560001 0.79800004 1.9362177e-38
-0.082632385 0.023500955 0.79600006 2.1667067e-38
-0.081116192 0.023500955 0.79600006 1.9641975e-38
-0.079600006 0.023500955 0.79600006 1.2911694e-38
-0.077887625 0.023441905 0.79400003 6.5779346e-39
-0.076375239 0.023441905 0.79400003 5.9325652e-39
-0.07486286 0.023441905 0.79400003 5.2947726e-39
-0.073350482 0.023441905 0.79400003 5.3869682e-39
-0.071657151 0.023382859 0.79200006 9.4298404e-39
-0.07014858 0.023382859 0.79200006 1.0167405e-38
-0.068640009 0.023382859 0.79200006 1.761721e-38
-0.067131437 0.023382859 0.79200006 2.2499632e-38
-0.065457143 0.02332381 0.79000002 2.3234378e-38
-0.063952379 0.02332381 0.79000002 2.3142182e-38
-0.062447619 0.02332381 0.79000002 2.3142182e-38
-0.060942858 0.02332381 0.79000002 2.3234378e-38
-0.059438094 0.02332381 0.79000002 2.3326213e-38
-0.057933334 0.02332381 0.79000002 1.8900823e-38
-0.05642857 0.02332381 0.79000002 1.4292898e-38
-0.05492381 0.02332381 0.79000002 1.3924116e-38
-0.053419046 0.02332381 0.79000002 1.4111695e-38
-0.051914286 0.02332381 0.79000002 1.484926e-38
-0.050409522 0.02332381 0.79000002 1.4847096e-38
-0.049028575 0.023382859 0.79200006 1.3648553e-38
-0.047520004 0.023382859 0.79200006 1.5581749e-38
-0.046127621 0.023441905 0.79400003 1.9730553e-38
-0.044615239 0.023441905 0.79400003 2.221915e-38
-0.04310286 0.023441905 0.79400003 2.3417691e-38
-0.041590478 0.023441905 0.79400003 2.3234378e-38
-0.040179051 0.023500955 0.79600006 2.0837291e-38
-0.038662862 0.023500955 0.79600006 1.69773e-38
-0.037146669 0.023500955 0.79600006 1.4764605e-38
-0.035720002 0.023560001 0.79800004 1.3298154e-38
-0.034285713 0.023619048 0.80000001 1.339035e-38
-0.03284381 0.023678096 0.80200005 1.2652056e-38
-0.031355239 0.023707621 0.80300003 1.1269122e-38
-0.029825715 0.023707621 0.80300003 1.3567173e-38
-0.028366668 0.023766669 0.80500007 1.7439389e-38
-0.026900001 0.023825716 0.80700004 1.826371e-38
-0.025362857 0.023825716 0.80700004 1.0058299e-38
-0.023884762 0.023884762 0.80900002 8.7758236e-39
-0.022343809 0.023884762 0.80900002 1.2832431e-38
-0.10323334 0.025614288 0.81500006 1.5764358e-38
-0.10168096 0.025614288 0.81500006 1.5397011e-38
-0.10012858 0.025614288 0.81500006 1.4198468e-38
-0.098334283 0.025551429 0.81300002 1.3096436e-38
-0.096547626 0.025488574 0.81100005 1.3096436e-38
-0.094300009 0.025300002 0.80500007 1.0984228e-38
-0.092536189 0.025237143 0.80300003 1.1168619e-38
-0.091006674 0.025237143 0.80300003 1.0436114e-38
-0.089365721 0.025205715 0.80200005 1.0989288e-38
-0.087619044 0.025142856 0.80000001 1.1448456e-38
-0.086095236 0.025142856 0.80000001 1.5044085e-38
-0.084571429 0.025142856 0.80000001 1.8719679e-38
-0.082840003 0.025080001 0.79800004 1.973383e-38
-0.081116192 0.025017144 0.79600006 1.7064826e-38
-0.079600006 0.025017144 0.79600006 8.4906327e-39
-0.077887625 0.024954287 0.79400003 1.7056128e-39
-0.076375239 0.024954287 0.79400003 4.655873e-39
-0.07486286 0.024954287 0.79400003 7.3169416e-39
-0.073350482 0.024954287 0.79400003 7.962311e-39
-0.071838096 0.024954287 0.79400003 5.5716888e-39
-0.070325717 0.024954287 0.79400003 3.543385e-39
-0.068813339 0.024954287 0.79400003 1.0715498e-38
-0.067131437 0.024891431 0.79200006 1.6339432e-38
-0.065622866 0.024891431 0.79200006 2.341804e-38
-0.064114295 0.024891431 0.79200006 2.341804e-38
-0.062605724 0.024891431 0.79200006 2.341769e-38
-0.061097149 0.024891431 0.79200006 2.341769e-38
-0.059588574 0.024891431 0.79200006 2.3141822e-38
-0.058080003 0.024891431 0.79200006 1.4844215e-38
-0.05642857 0.024828572 0.79000002 1.4105934e-38
-0.05492381 0.024828572 0.79000002 1.5304477e-38
-0.053554289 0.024891431 0.79200006 1.5032569e-38
-0.052045718 0.024891431 0.79200006 1.5401352e-38
-0.050537147 0.024891431 0.79200006 1.5308437e-38
-0.049028575 0.024891431 0.79200006 1.3925503e-38
-0.047640003 0.024954287 0.79400003 1.291418e-38
-0.046127621 0.024954287 0.79400003 1.4020528e-38
-0.044615239 0.024954287 0.79400003 2.0281947e-38
-0.04310286 0.024954287 0.79400003 2.3509514e-38
-0.041590478 0.024954287 0.79400003 2.3050705e-38
-0.040179051 0.025017144 0.79600006 1.9178489e-38
-0.038662862 0.025017144 0.79600006 1.4585987e-38
-0.037146669 0.025017144 0.79600006 1.3940617e-38
-0.035809524 0.025142856 0.80000001 1.3390706e-38
-0.034371432 0.025205715 0.80200005 1.3206315e-38
-0.032884765 0.025237143 0.80300003 1.2284353e-38
-0.031355239 0.025237143 0.80300003 1.1731179e-38
-0.029825715 0.025237143 0.80300003 1.3476425e-38
-0.028366668 0.025300002 0.80500007 1.6426685e-38
-0.026966667 0.025425715 0.80900002 1.7895679e-38
-0.025425715 0.025425715 0.80900002 1.1718571e-38
-0.023884762 0.025425715 0.80900002 1.1347603e-38
-0.022343809 0.025425715 0.80900002 1.4205667e-38
-0.10478573 0.027166668 0.81500006 1.5672163e-38
-0.10323334 0.027166668 0.81500006 1.5487771e-38
-0.10168096 0.027166668 0.81500006 1.5304096e-38
-0.10012858 0.027166668 0.81500006 1.4658727e-38
-0.098334283 0.027100001 0.81300002 1.3004616e-38
-0.096547626 0.027033335 0.81100005 1.2820225e-38
-0.094534285 0.026900001 0.80700004 1.1352657e-38
-0.092766672 0.026833337 0.80500007 1.1168266e-38
-0.091006674 0.026766667 0.80300003 1.0252439e-38
-0.089365721 0.026733335 0.80200005 1.1358787e-38
-0.087838098 0.026733335 0.80200005 1.1081847e-38
-0.086095236 0.026666667 0.80000001 1.311015e-38
-0.084571429 0.026666667 0.80000001 1.7799495e-38
-0.082840003 0.026600001 0.79800004 1.8813647e-38
-0.081116192 0.026533335 0.79600006 1.5868798e-38
-0.079600006 0.026533335 0.79600006 8.0321699e-39
-0.078083813 0.026533335 0.79600006 2.5346645e-39
-0.07656762 0.026533335 0.79600006 5.1161421e-39
-0.07486286 0.026466668 0.79400003 7.2254676e-39
-0.073350482 0.026466668 0.79400003 8.0552283e-39
-0.071838096 0.026466668 0.79400003 7.5942501e-39
-0.070325717 0.026466668 0.79400003 6.6722938e-39
-0.068813339 0.026466668 0.79400003 8.5104303e-39
-0.067300953 0.026466668 0.79400003 8.6026259e-39
-0.065788575 0.026466668 0.79400003 1.7338504e-38
-0.064114295 0.026400002 0.79200006 2.268334e-38
-0.062605724 0.026400002 0.79200006 2.341769e-38
-0.061097149 0.026400002 0.79200006 2.0006452e-38
-0.059588574 0.026400002 0.79200006 1.5308465e-38
-0.058080003 0.026400002 0.79200006 1.3556748e-38
-0.056571431 0.026400002 0.79200006 1.4019496e-38
-0.05506286 0.026400002 0.79200006 1.4941453e-38
-0.053554289 0.026400002 0.79200006 1.5216961e-38
-0.052177146 0.026466668 0.79400003 1.5216961e-38
-0.050664764 0.026466668 0.79400003 1.5124409e-38
-0.049152382 0.026466668 0.79400003 1.4940018e-38
-0.047640003 0.026466668 0.79400003 1.3927301e-38
-0.046127621 0.026466668 0.79400003 1.2452171e-38
-0.044615239 0.026466668 0.79400003 1.5583948e-38
-0.043211434 0.026533335 0.79600006 2.2867037e-38
-0.041695241 0.026533335 0.79600006 2.3050705e-38
-0.040179051 0.026533335 0.79600006 1.788775e-38
-0.038662862 0.026533335 0.79600006 1.256311e-38
-0.037240002 0.026600001 0.79800004 1.2747501e-38
-0.035809524 0.026666667 0.80000001 1.329851e-38
-0.034371432 0.026733335 0.80200005 1.2837532e-38
-0.032884765 0.026766667 0.80300003 1.2926848e-38
-0.031355239 0.026766667 0.80300003 1.3387826e-38
-0.029900001 0.026833337 0.80500007 1.5591877e-38
-0.028437143 0.026900001 0.80700004 1.679042e-38
-0.026966667 0.026966667 0.80900002 1.7983533e-38
-0.025488574 0.027033335 0.81100005 1.6600599e-38
-0.02394381 0.027033335 0.81100005 1.503293e-38
-0.022399049 0.027033335 0.81100005 1.4295365e-38
-0.020905714 0.027100001 0.81300002 1.55832e-38
-0.10323334 0.028719049 0.81500006 1.5488487e-38
-0.10168096 0.028719049 0.81500006 1.5211901e-38
-0.10012858 0.028719049 0.81500006 1.5211901e-38
-0.098334283 0.028648572 0.81300002 1.3097528e-38
-0.096547626 0.028578097 0.81100005 1.2452158e-38
-0.094768576 0.02850762 0.80900002 1.1628881e-38
-0.092997141 0.028437143 0.80700004 1.1721077e-38
-0.091233335 0.028366668 0.80500007 1.0343919e-38
-0.089477144 0.028296191 0.80300003 1.0804897e-38
-0.087947622 0.028296191 0.80300003 1.0070929e-38
-0.086310484 0.028260954 0.80200005 1.3113385e-38
-0.084571429 0.028190477 0.80000001 1.6052839e-38
-0.083047621 0.028190477 0.80000001 1.7343578e-38
-0.081116192 0.028049525 0.79600006 1.4581325e-38
-0.079600006 0.028049525 0.79600006 7.7588481e-39
-0.078083813 0.028049525 0.79600006 2.5350176e-39
-0.07656762 0.028049525 0.79600006 5.0242996e-39
-0.075051434 0.028049525 0.79600006 7.1336349e-39
-0.073350482 0.027979048 0.79400003 7.7790043e-39
-0.071838096 0.027979048 0.79400003 8.2378189e-39
-0.070325717 0.027979048 0.79400003 8.3300145e-39
-0.068813339 0.027979048 0.79400003 6.6748092e-39
-0.067300953 0.027979048 0.79400003 3.6323534e-39
-0.065788575 0.027979048 0.79400003 1.080772e-38
-0.064276196 0.027979048 0.79400003 2.0111946e-38
-0.06276381 0.027979048 0.79400003 2.3326213e-38
-0.061251432 0.027979048 0.79400003 1.9085214e-38
-0.05973905 0.027979048 0.79400003 1.37429e-38
-0.058080003 0.027908573 0.79200006 1.3927291e-38
-0.056571431 0.027908573 0.79200006 1.4756343e-38
-0.05506286 0.027908573 0.79200006 1.5125125e-38
-0.053689525 0.027979048 0.79400003 1.5309156e-38
-0.052177146 0.027979048 0.79400003 1.5309156e-38
-0.050664764 0.027979048 0.79400003 1.5032219e-38
-0.049152382 0.027979048 0.79400003 1.4940023e-38
-0.047640003 0.027979048 0.79400003 1.3468846e-38
-0.046243813 0.028049525 0.79600006 1.2178108e-38
-0.044727623 0.028049525 0.79600006 1.5400976e-38
-0.043211434 0.028049525 0.79600006 2.2775192e-38
-0.041695241 0.028049525 0.79600006 2.2683365e-38
-0.040179051 0.028049525 0.79600006 1.7889192e-38
-0.038760003 0.02812 0.79800004 1.2654227e-38
-0.037333332 0.028190477 0.80000001 1.2746422e-38
-0.035899047 0.028260954 0.80200005 1.3389624e-38
-0.034371432 0.028260954 0.80200005 1.283645e-38
-0.032884765 0.028296191 0.80300003 1.3293826e-38
-0.031433333 0.028366668 0.80500007 1.5229934e-38
-0.029974287 0.028437143 0.80700004 1.8077193e-38
-0.028437143 0.028437143 0.80700004 1.5219128e-38
-0.027033335 0.028578097 0.81100005 1.6319294e-38
-0.025488574 0.028578097 0.81100005 1.7610032e-38
-0.02394381 0.028578097 0.81100005 1.7425693e-38
-0.022454288 0.028648572 0.81300002 1.5397389e-38
-0.020905714 0.028648572 0.81300002 1.5306626e-38
-0.10323334 0.03027143 0.81500006 1.567144e-38
-0.10168096 0.03027143 0.81500006 1.5580317e-38
-0.10037429 0.030345716 0.81700003 1.5488122e-38
-0.098576196 0.03027143 0.81500006 1.1347265e-38
-0.096547626 0.030122858 0.81100005 8.5813963e-39
-0.09500286 0.030122858 0.81100005 9.0503156e-39
-0.092997141 0.029974287 0.80700004 1.2000576e-38
-0.091233335 0.029900001 0.80500007 1.1631778e-38
-0.089477144 0.029825715 0.80300003 1.0802017e-38
-0.087947622 0.029825715 0.80300003 1.1356616e-38
-0.086310484 0.029788572 0.80200005 1.5321028e-38
-0.084782861 0.029788572 0.80200005 1.9456865e-38
-0.083047621 0.029714286 0.80000001 2.1392973e-38
-0.081320003 0.029640002 0.79800004 1.9276793e-38
-0.079600006 0.029565716 0.79600006 1.0794795e-38
-0.078083813 0.029565716 0.79600006 2.718683e-39
-0.07656762 0.029565716 0.79600006 4.7469868e-39
-0.075051434 0.029565716 0.79600006 7.0410834e-39
-0.073535241 0.029565716 0.79600006 7.5942572e-39
-0.071838096 0.02949143 0.79400003 8.1456261e-39
-0.070325717 0.02949143 0.79400003 8.5144086e-39
-0.068813339 0.02949143 0.79400003 6.6759022e-39
-0.067300953 0.02949143 0.79400003 3.9100333e-39
-0.065788575 0.02949143 0.79400003 1.0164913e-38
-0.064276196 0.02949143 0.79400003 1.9377288e-38
-0.06276381 0.02949143 0.79400003 2.3142182e-38
-0.061251432 0.02949143 0.79400003 1.8255814e-38
-0.05973905 0.02949143 0.79400003 1.2365395e-38
-0.058226667 0.02949143 0.79400003 1.2549787e-38
-0.056714289 0.02949143 0.79400003 1.4481198e-38
-0.055201907 0.02949143 0.79400003 1.5034371e-38
-0.053689525 0.02949143 0.79400003 1.5309156e-38
-0.052177146 0.02949143 0.79400003 1.5401352e-38
-0.050664764 0.02949143 0.79400003 1.5124412e-38
-0.049152382 0.02949143 0.79400003 1.4386847e-38
-0.047760002 0.029565716 0.79600006 1.3374497e-38
-0.046243813 0.029565716 0.79600006 1.5587192e-38
-0.044727623 0.029565716 0.79600006 1.7703415e-38
-0.043211434 0.029565716 0.79600006 2.2681931e-38
-0.041800003 0.029640002 0.79800004 2.3142182e-38
-0.040280003 0.029640002 0.79800004 2.1851443e-38
-0.038760003 0.029640002 0.79800004 1.5690946e-38
-0.037333332 0.029714286 0.80000001 1.3478251e-38
-0.035899047 0.029788572 0.80200005 1.2009941e-38
-0.034414288 0.029825715 0.80300003 1.1548962e-38
-0.03296667 0.029900001 0.80500007 1.4856472e-38
-0.031433333 0.029900001 0.80500007 1.8728689e-38
-0.029974287 0.029974287 0.80700004 1.9179587e-38
-0.02850762 0.030048572 0.80900002 1.1158568e-38
-0.027033335 0.030122858 0.81100005 1.0240507e-38
-0.025551429 0.030197144 0.81300002 1.4942484e-38
-0.024002858 0.030197144 0.81300002 1.6043121e-38
-0.022454288 0.030197144 0.81300002 1.5397752e-38
-0.020905714 0.030197144 0.81300002 1.5399172e-38
-0.10374001 0.03198 0.81900007 1.5855468e-38
-0.10218 0.03198 0.81900007 1.5855828e-38
-0.10037429 0.031901907 0.81700003 1.5855828e-38
-0.098576196 0.03182381 0.81500006 1.1255773e-38
-0.096785717 0.031745713 0.81300002 7.4757521e-39
-0.09500286 0.031667624 0.81100005 8.8665535e-39
-0.093227617 0.031589523 0.80900002 1.2830966e-38
-0.091460004 0.03151143 0.80700004 1.2182787e-38
-0.089700006 0.031433333 0.80500007 1.1168635e-38
-0.087947622 0.031355239 0.80300003 1.2551213e-38
-0.0864181 0.031355239 0.80300003 1.7529777e-38
-0.084782861 0.031316195 0.80200005 1.9732749e-38
-0.083047621 0.031238094 0.80000001 2.0746901e-38
-0.081320003 0.031160003 0.79800004 1.909314e-38
-0.079800002 0.031160003 0.79800004 1.466775e-38
-0.078083813 0.031081906 0.79600006 3.0878915e-39
-0.07656762 0.031081906 0.79600006 3.8254565e-39
-0.075051434 0.031081906 0.79600006 6.0298083e-39
-0.073535241 0.031081906 0.79600006 6.9517646e-39
-0.072019048 0.031081906 0.79600006 7.5016986e-39
-0.070502862 0.031081906 0.79600006 7.8704811e-39
-0.068986669 0.031081906 0.79600006 4.4700468e-39
-0.067470483 0.031081906 0.79600006 2.6261342e-39
-0.06595429 0.031081906 0.79600006 1.1544617e-38
-0.064438097 0.031081906 0.79600006 1.9836466e-38
-0.062921911 0.031081906 0.79600006 2.3050705e-38
-0.061251432 0.03100381 0.79400003 2.0100445e-38
-0.05973905 0.03100381 0.79400003 1.4392281e-38
-0.058226667 0.03100381 0.79400003 1.273276e-38
-0.056714289 0.03100381 0.79400003 1.4295365e-38
-0.055201907 0.03100381 0.79400003 1.5125125e-38
-0.053689525 0.03100381 0.79400003 1.5584664e-38
-0.052177146 0.03100381 0.79400003 1.5492469e-38
-0.050664764 0.03100381 0.79400003 1.5031497e-38
-0.049276195 0.031081906 0.79600006 1.4109541e-38
-0.047760002 0.031081906 0.79600006 1.2824543e-38
-0.046243813 0.031081906 0.79600006 1.8079694e-38
-0.044727623 0.031081906 0.79600006 2.2403553e-38
-0.043211434 0.031081906 0.79600006 2.3325497e-38
-0.041800003 0.031160003 0.79800004 2.3234368e-38
-0.040280003 0.031160003 0.79800004 2.2865585e-38
-0.038857143 0.031238094 0.80000001 2.0567201e-38
-0.037426669 0.031316195 0.80200005 1.7248158e-38
-0.03594381 0.031355239 0.80300003 1.2102496e-38
-0.034414288 0.031355239 0.80300003 1.1641518e-38
-0.03296667 0.031433333 0.80500007 1.6786467e-38
-0.03151143 0.03151143 0.80700004 1.8999162e-38
-0.030048572 0.031589523 0.80900002 1.9637669e-38
-0.02850762 0.031589523 0.80900002 1.0786889e-38
-0.027033335 0.031667624 0.81100005 8.5827261e-39
-0.025551429 0.031745713 0.81300002 1.3653486e-38
-0.024002858 0.031745713 0.81300002 1.5398102e-38
-0.022454288 0.031745713 0.81300002 1.5490298e-38
-0.020905714 0.031745713 0.81300002 1.5306257e-38
-0.10374001 0.033540003 0.81900007 1.5578881e-38
-0.10062001 0.033540003 0.81900007 1.6132415e-38
-0.098818094 0.033458095 0.81700003 1.2177729e-38
-0.096785717 0.033294287 0.81300002 4.8942745e-39
-0.09500286 0.033212382 0.81100005 3.8009128e-39
-0.093227617 0.033130478 0.80900002 1.1914128e-38
-0.091460004 0.03304857 0.80700004 1.512655e-38
-0.089700006 0.03296667 0.80500007 1.5587528e-38
-0.088166669 0.03296667 0.80500007 1.742894e-38
-0.0864181 0.032884765 0.80300003 2.0194809e-38
-0.084782861 0.03284381 0.80200005 1.9824209e-38
-0.083047621 0.032761905 0.80000001 1.7795905e-38
-0.081523806 0.032761905 0.80000001 1.7890997e-38
-0.079999998 0.032761905 0.80000001 2.0288083e-38
-0.078280002 0.032680001 0.79800004 1.5688051e-38
-0.07656762 0.032598101 0.79600006 9.2343565e-39
-0.075051434 0.032598101 0.79600006 3.5466486e-39
-0.073535241 0.032598101 0.79600006 4.2842136e-39
-0.072019048 0.032598101 0.79600006 4.3749799e-39
-0.070502862 0.032598101 0.79600006 3.5452193e-39
-0.068986669 0.032598101 0.79600006 7.133272e-39
-0.067470483 0.032598101 0.79600006 1.2480619e-38
-0.06595429 0.032598101 0.79600006 1.9275386e-38
-0.064438097 0.032598101 0.79600006 2.2132353e-38
-0.062921911 0.032598101 0.79600006 2.3326213e-38
-0.061405718 0.032598101 0.79600006 2.3326213e-38
-0.059889529 0.032598101 0.79600006 2.0839121e-38
-0.058226667 0.032516193 0.79400003 1.6044949e-38
-0.056714289 0.032516193 0.79400003 1.2733099e-38
-0.055201907 0.032516193 0.79400003 1.3101881e-38
-0.053824764 0.032598101 0.79600006 1.4112062e-38
-0.052308574 0.032598101 0.79600006 1.4019866e-38
-0.050792385 0.032598101 0.79600006 1.4203172e-38
-0.049276195 0.032598101 0.79600006 1.5586106e-38
-0.047760002 0.032598101 0.79600006 1.8072862e-38
-0.046243813 0.032598101 0.79600006 2.2958871e-38
-0.044840001 0.032680001 0.79800004 2.3326213e-38
-0.043320004 0.032680001 0.79800004 1.9638388e-38
-0.041800003 0.032680001 0.79800004 2.0473479e-38
-0.040380955 0.032761905 0.80000001 2.2866978e-38
-0.038954284 0.03284381 0.80200005 2.2867037e-38
-0.037473332 0.032884765 0.80300003 2.2406059e-38
-0.03594381 0.032884765 0.80300003 1.9462288e-38
-0.034500003 0.03296667 0.80500007 1.7341789e-38
-0.03304857 0.03304857 0.80700004 1.9180666e-38
-0.031589523 0.033130478 0.80900002 1.8166515e-38
-0.030048572 0.033130478 0.80900002 1.6967174e-38
-0.028578097 0.033212382 0.81100005 1.0144697e-38
-0.027100001 0.033294287 0.81300002 9.9628762e-39
-0.025551429 0.033294287 0.81300002 1.3374114e-38
-0.024002858 0.033294287 0.81300002 1.493783e-38
-0.022454288 0.033294287 0.81300002 1.5951982e-38
-0.020905714 0.033294287 0.81300002 1.5673948e-38
-0.10267905 0.035271429 0.82300001 1.5395206e-38
-0.10037429 0.035014287 0.81700003 1.6040575e-38
-0.098818094 0.035014287 0.81700003 1.309753e-38
-0.097023815 0.034928575 0.81500006 5.8140756e-39
-0.095237143 0.03484286 0.81300002 4.9961223e-39
-0.093227617 0.034671426 0.80900002 1.1542012e-38
-0.091686666 0.034671426 0.80900002 1.5678277e-38
-0.08992286 0.034585718 0.80700004 1.7983167e-38
-0.088166669 0.034500003 0.80500007 1.8901924e-38
-0.0864181 0.034414288 0.80300003 1.9270707e-38
-0.084782861 0.034371432 0.80200005 1.8349448e-38
-0.083255246 0.034371432 0.80200005 1.558358e-38
-0.081523806 0.034285713 0.80000001 1.6138516e-38
-0.079999998 0.034285713 0.80000001 2.1024885e-38
-0.078476191 0.034285713 0.80000001 2.0381015e-38
-0.07656762 0.03411429 0.79600006 1.5033668e-38
-0.075051434 0.03411429 0.79600006 1.9851467e-39
-0.073535241 0.03411429 0.79600006 1.2475816e-39
-0.072019048 0.03411429 0.79600006 1.8006307e-39
-0.070502862 0.03411429 0.79600006 2.722587e-39
-0.068986669 0.03411429 0.79600006 1.0901771e-38
-0.067470483 0.03411429 0.79600006 1.7539857e-38
-0.06595429 0.03411429 0.79600006 2.3234378e-38
-0.064438097 0.03411429 0.79600006 2.3234378e-38
-0.062921911 0.03411429 0.79600006 2.341769e-38
-0.061405718 0.03411429 0.79600006 2.341769e-38
-0.059889529 0.03411429 0.79600006 2.3234378e-38
-0.058373336 0.03411429 0.79600006 2.0468509e-38
-0.056857146 0.03411429 0.79600006 1.4669246e-38
-0.055340957 0.03411429 0.79600006 1.2917529e-38
-0.053824764 0.03411429 0.79600006 1.3467046e-38
-0.052308574 0.03411429 0.79600006 1.3098263e-38
-0.050792385 0.03411429 0.79600006 1.3558888e-38
-0.049276195 0.03411429 0.79600006 1.7892083e-38
-0.047760002 0.03411429 0.79600006 2.1849661e-38
-0.046360001 0.034199998 0.79800004 2.3416974e-38
-0.044840001 0.034199998 0.79800004 2.3050705e-38
-0.043320004 0.034199998 0.79800004 1.4845294e-38
-0.041904762 0.034285713 0.80000001 1.3746093e-38
-0.04048191 0.034371432 0.80200005 1.8909049e-38
-0.039002858 0.034414288 0.80300003 2.3418043e-38
-0.037473332 0.034414288 0.80300003 2.3418043e-38
-0.036033336 0.034500003 0.80500007 2.2498618e-38
-0.034500003 0.034500003 0.80500007 2.1484466e-38
-0.03304857 0.034585718 0.80700004 2.01959e-38
-0.031589523 0.034671426 0.80900002 1.4203184e-38
-0.030122858 0.034757145 0.81100005 1.4655477e-38
-0.028578097 0.034757145 0.81100005 1.1889608e-38
-0.027100001 0.03484286 0.81300002 1.069792e-38
-0.025614288 0.034928575 0.81500006 1.3832572e-38
-0.024061905 0.034928575 0.81500006 1.4291041e-38
-0.022509526 0.034928575 0.81500006 1.5858367e-38
-0.020957144 0.034928575 0.81500006 1.5397011e-38
-0.10111143 0.036839046 0.82300001 1.5856534e-38
-0.098818094 0.036570478 0.81700003 1.3649985e-38
-0.097023815 0.036480956 0.81500006 7.8416606e-39
-0.095237143 0.03639143 0.81300002 3.895244e-39
-0.093458101 0.036301903 0.81100005 6.9376998e-39
-0.091686666 0.036212385 0.80900002 1.4757e-38
-0.08992286 0.036122859 0.80700004 1.9551173e-38
-0.088166669 0.036033336 0.80500007 1.9452199e-38
-0.0864181 0.03594381 0.80300003 1.52112e-38
-0.084782861 0.035899047 0.80200005 1.1067466e-38
-0.083255246 0.035899047 0.80200005 9.5923364e-39
-0.081523806 0.035809524 0.80000001 1.0790148e-38
-0.079999998 0.035809524 0.80000001 1.8811168e-38
-0.078476191 0.035809524 0.80000001 2.0377765e-38
-0.076760009 0.035720002 0.79800004 2.1852895e-38
-0.075051434 0.035630479 0.79600006 1.4953033e-38
-0.073535241 0.035630479 0.79600006 7.2086002e-39
-0.072019048 0.035630479 0.79600006 5.4773324e-39
-0.070502862 0.035630479 0.79600006 1.3406157e-38
-0.068986669 0.035630479 0.79600006 2.295886e-38
-0.067470483 0.035630479 0.79600006 2.3142534e-38
-0.06595429 0.035630479 0.79600006 2.3326213e-38
-0.064438097 0.035630479 0.79600006 2.1666692e-38
-0.062921911 0.035630479 0.79600006 2.0931279e-38
-0.061405718 0.035630479 0.79600006 2.176104e-38
-0.059889529 0.035630479 0.79600006 2.3234378e-38
-0.058373336 0.035630479 0.79600006 2.3234378e-38
-0.056857146 0.035630479 0.79600006 2.3049989e-38
-0.055340957 0.035630479 0.79600006 1.9269968e-38
-0.053824764 0.035630479 0.79600006 1.4389044e-38
-0.052308574 0.035630479 0.79600006 1.2821718e-38
-0.050792385 0.035630479 0.79600006 1.5031542e-38
-0.049276195 0.035630479 0.79600006 2.2407142e-38
-0.047880001 0.035720002 0.79800004 2.3326213e-38
-0.046360001 0.035720002 0.79800004 2.2773039e-38
-0.044952381 0.035809524 0.80000001 1.8725417e-38
-0.043428574 0.035809524 0.80000001 9.8746364e-39
-0.041904762 0.035809524 0.80000001 7.2196887e-39
-0.04048191 0.035899047 0.80200005 8.4182319e-39
-0.039002858 0.03594381 0.80300003 1.4945381e-38
-0.037473332 0.03594381 0.80300003 1.9923945e-38
-0.036033336 0.036033336 0.80500007 2.2774116e-38
-0.034585718 0.036122859 0.80700004 2.3050703e-38
-0.033130478 0.036212385 0.80900002 2.0469954e-38
-0.031589523 0.036212385 0.80900002 1.2448934e-38
-0.030122858 0.036301903 0.81100005 1.0606813e-38
-0.028648572 0.03639143 0.81300002 1.08834e-38
-0.027166668 0.036480956 0.81500006 1.0883416e-38
-0.025614288 0.036480956 0.81500006 1.4018067e-38
-0.024120953 0.036570478 0.81700003 1.6227848e-38
-0.022564763 0.036570478 0.81700003 1.6504434e-38
-0.021111431 0.036749527 0.82100004 1.548849e-38
-0.10267905 0.038406666 0.82300001 1.5210449e-38
-0.10111143 0.038406666 0.82300001 1.5855818e-38
-0.099060006 0.038220003 0.81900007 1.3926206e-38
-0.097261913 0.038126666 0.81700003 8.9476424e-39
-0.095471434 0.038033333 0.81500006 3.158765e-39
-0.093458101 0.03784667 0.81100005 3.6197431e-39
-0.091686666 0.037753332 0.80900002 1.3003862e-38
-0.08992286 0.037660003 0.80700004 1.9088774e-38
-0.088385724 0.037660003 0.80700004 1.8716444e-38
-0.08663334 0.037566669 0.80500007 1.1525185e-38
-0.08488857 0.037473332 0.80300003 1.0971974e-38
-0.083255246 0.037426669 0.80200005 1.189393e-38
-0.081727624 0.037426669 0.80200005 1.180387e-38
-0.080200009 0.037426669 0.80200005 1.6044869e-38
-0.078672379 0.037426669 0.80200005 1.9729124e-38
-0.076952383 0.037333332 0.80000001 2.3048166e-38
-0.075240009 0.037240002 0.79800004 2.029062e-38
-0.073720008 0.037240002 0.79800004 1.1808622e-38
-0.072019048 0.037146669 0.79600006 1.0531522e-38
-0.070502862 0.037146669 0.79600006 1.8918095e-38
-0.068986669 0.037146669 0.79600006 2.3234378e-38
-0.067470483 0.037146669 0.79600006 2.3234378e-38
-0.06595429 0.037146669 0.79600006 2.3050705e-38
-0.064438097 0.037146669 0.79600006 1.9086293e-38
-0.062921911 0.037146669 0.79600006 1.6789318e-38
-0.061405718 0.037146669 0.79600006 1.780347e-38
-0.059889529 0.037146669 0.79600006 2.2496453e-38
-0.058373336 0.037146669 0.79600006 2.3326213e-38
-0.056857146 0.037146669 0.79600006 2.341769e-38
-0.055340957 0.037146669 0.79600006 2.1758169e-38
-0.053959999 0.037240002 0.79800004 1.7890278e-38
-0.052440003 0.037240002 0.79800004 1.6876126e-38
-0.050920002 0.037240002 0.79800004 1.9087026e-38
-0.049400002 0.037240002 0.79800004 2.2867037e-38
-0.047880001 0.037240002 0.79800004 2.3326213e-38
-0.046476189 0.037333332 0.80000001 1.8993019e-38
-0.044952381 0.037333332 0.80000001 1.2192863e-38
-0.043428574 0.037333332 0.80000001 8.3206468e-39
-0.042009525 0.037426669 0.80200005 5.4787925e-39
-0.04048191 0.037426669 0.80200005 4.0036625e-39
-0.039002858 0.037473332 0.80300003 7.9557795e-39
-0.037566669 0.037566669 0.80500007 1.3026539e-38
-0.036033336 0.037566669 0.80500007 2.1851078e-38
-0.034585718 0.037660003 0.80700004 2.2865229e-38
-0.033130478 0.037753332 0.80900002 2.0099726e-38
-0.031589523 0.037753332 0.80900002 1.1894315e-38
-0.030122858 0.03784667 0.81100005 1.0975586e-38
-0.028648572 0.037940003 0.81300002 1.1252173e-38
-0.027233334 0.038126666 0.81700003 1.042387e-38
-0.025677143 0.038126666 0.81700003 1.4941456e-38
-0.024180001 0.038220003 0.81900007 1.6137835e-38
-0.02267524 0.038313333 0.82100004 1.5953444e-38
-0.021111431 0.038313333 0.82100004 1.5212982e-38
-0.10267905 0.039974283 0.82300001 1.4933859e-38
-0.10111143 0.039974283 0.82300001 1.5394837e-38
-0.09954381 0.039974283 0.82300001 1.4018027e-38
-0.097500004 0.039780006 0.81900007 1.1159962e-38
-0.095705718 0.039682858 0.81700003 6.2880242e-39
-0.093919054 0.039585717 0.81500006 3.8909378e-39
-0.091913335 0.039391432 0.81100005 1.0425264e-38
-0.090145715 0.039294288 0.80900002 1.6971154e-38
-0.088385724 0.039197143 0.80700004 1.7517142e-38
-0.08663334 0.039100002 0.80500007 1.1247839e-38
-0.08488857 0.039002858 0.80300003 1.0607179e-38
-0.083359048 0.039002858 0.80300003 1.2358896e-38
-0.081727624 0.038954284 0.80200005 1.2357086e-38
-0.080200009 0.038954284 0.80200005 1.1711716e-38
-0.078672379 0.038954284 0.80200005 1.5214353e-38
-0.077144764 0.038954284 0.80200005 2.0930482e-38
-0.075428575 0.038857143 0.80000001 2.065472e-38
-0.073720008 0.038760003 0.79800004 2.1207894e-38
-0.072200008 0.038760003 0.79800004 2.1854317e-38
-0.07068 0.038760003 0.79800004 2.2775197e-38
-0.069159999 0.038760003 0.79800004 2.3050705e-38
-0.067470483 0.038662862 0.79600006 2.1206793e-38
-0.06595429 0.038662862 0.79600006 1.7896411e-38
-0.064438097 0.038662862 0.79600006 1.6790064e-38
-0.062921911 0.038662862 0.79600006 1.5690181e-38
-0.061405718 0.038662862 0.79600006 1.5597985e-38
-0.060040005 0.038760003 0.79800004 1.8631421e-38
-0.05852 0.038760003 0.79800004 2.0383138e-38
-0.056857146 0.038662862 0.79600006 2.2957794e-38
-0.055340957 0.038662862 0.79600006 2.3234379e-38
-0.053959999 0.038760003 0.79800004 2.3326213e-38
-0.052440003 0.038760003 0.79800004 2.3326213e-38
-0.050920002 0.038760003 0.79800004 2.3326213e-38
-0.049400002 0.038760003 0.79800004 2.3326213e-38
-0.047880001 0.038760003 0.79800004 2.019803e-38
-0.046476189 0.038857143 0.80000001 1.2084815e-38
-0.044952381 0.038857143 0.80000001 6.4907837e-39
-0.043537147 0.038954284 0.80200005 7.3205443e-39
-0.042009525 0.038954284 0.80200005 7.9637585e-39
-0.040532384 0.039002858 0.80300003 7.1339979e-39
-0.039002858 0.039002858 0.80300003 7.1318343e-39
-0.037566669 0.039100002 0.80500007 7.0396386e-39
-0.036033336 0.039100002 0.80500007 1.7984577e-38
-0.034585718 0.039197143 0.80700004 2.0473859e-38
-0.033130478 0.039294288 0.80900002 1.94529e-38
-0.031667624 0.039391432 0.81100005 1.1985054e-38
-0.030197144 0.039488573 0.81300002 1.0976322e-38
-0.028719049 0.039585717 0.81500006 1.0976322e-38
-0.027300002 0.039780006 0.81900007 1.1528417e-38
-0.025740001 0.039780006 0.81900007 1.5585024e-38
-0.02423905 0.039877143 0.82100004 1.6872519e-38
-0.02267524 0.039877143 0.82100004 1.6780324e-38
-0.021111431 0.039877143 0.82100004 1.5488127e-38
-0.10292857 0.04164286 0.82500005 1.4657994e-38
-0.10135715 0.04164286 0.82500005 1.5026776e-38
-0.09954381 0.041541904 0.82300001 1.4384654e-38
-0.097738102 0.041440953 0.82100004 1.2171959e-38
-0.095940009 0.041340005 0.81900007 7.66663e-39
-0.094149522 0.041239049 0.81700003 4.1631961e-39
-0.092140004 0.041037142 0.81300002 7.1148659e-39
-0.090145715 0.040835235 0.80900002 1.4674908e-38
-0.088385724 0.040734287 0.80700004 1.576728e-38
-0.08663334 0.040633336 0.80500007 1.0973107e-38
-0.08488857 0.040532384 0.80300003 1.1067782e-38
-0.083359048 0.040532384 0.80300003 1.2727303e-38
-0.081727624 0.04048191 0.80200005 1.2542203e-38
-0.080200009 0.04048191 0.80200005 1.2081225e-38
-0.078672379 0.04048191 0.80200005 1.2541778e-38
-0.077144764 0.04048191 0.80200005 1.6782777e-38
-0.075428575 0.040380955 0.80000001 2.0836203e-38
-0.07390476 0.040380955 0.80000001 2.3509876e-38
-0.072380953 0.040380955 0.80000001 2.3326213e-38
-0.07068 0.040280003 0.79800004 2.3326213e-38
-0.069159999 0.040280003 0.79800004 2.185469e-38
-0.067639999 0.040280003 0.79800004 1.8443452e-38
-0.066119999 0.040280003 0.79800004 1.4772193e-38
-0.064599998 0.040280003 0.79800004 1.4864388e-38
-0.063079998 0.040280003 0.79800004 1.4313733e-38
-0.061560001 0.040280003 0.79800004 1.4498124e-38
-0.060040005 0.040280003 0.79800004 1.4771817e-38
-0.05852 0.040280003 0.79800004 1.5509382e-38
-0.057 0.040280003 0.79800004 2.0287357e-38
-0.05548 0.040280003 0.79800004 2.2683366e-38
-0.053959999 0.040280003 0.79800004 2.341769e-38
-0.052571427 0.040380955 0.80000001 2.341769e-38
-0.051047619 0.040380955 0.80000001 2.3326213e-38
-0.049523808 0.040380955 0.80000001 2.0099366e-38
-0.048 0.040380955 0.80000001 1.4309034e-38
-0.046476189 0.040380955 0.80000001 8.6851007e-39
-0.045064762 0.04048191 0.80200005 5.2976495e-39
-0.043537147 0.04048191 0.80200005 6.8649752e-39
-0.042061906 0.040532384 0.80300003 8.4236549e-39
-0.040633336 0.040633336 0.80500007 7.6860898e-39
-0.039100002 0.040633336 0.80500007 4.1019832e-39
-0.037660003 0.040734287 0.80700004 2.7190487e-39
-0.036122859 0.040734287 0.80700004 1.4027403e-38
-0.034671426 0.040835235 0.80900002 1.9005967e-38
-0.033212382 0.040936191 0.81100005 1.8257984e-38
-0.031667624 0.040936191 0.81100005 1.1251116e-38
-0.03027143 0.041138098 0.81500006 1.0333461e-38
-0.028789526 0.041239049 0.81700003 1.1255417e-38
-0.027300002 0.041340005 0.81900007 1.2173083e-38
-0.025802858 0.041440953 0.82100004 1.5215538e-38
-0.024298096 0.041541904 0.82300001 1.6228579e-38
-0.022730477 0.041541904 0.82300001 1.6136383e-38
-0.021162858 0.041541904 0.82300001 1.5580323e-38
-0.1031781 0.043319046 0.82700002 1.4289211e-38
-0.10160286 0.043319046 0.82700002 1.4473603e-38
-0.10002762 0.043319046 0.82700002 1.392295e-38
-0.098214291 0.043214288 0.82500005 1.327758e-38
-0.096408576 0.043109521 0.82300001 8.1254852e-39
-0.094610475 0.043004762 0.82100004 4.5298556e-39
-0.092593342 0.042795237 0.81700003 8.7711727e-39
-0.090591431 0.042585716 0.81300002 1.6699997e-38
-0.088604763 0.042376194 0.80900002 1.770441e-38
-0.086848572 0.042271432 0.80700004 1.1066324e-38
-0.08510001 0.042166673 0.80500007 1.0424217e-38
-0.083566673 0.042166673 0.80500007 1.2083739e-38
-0.081829526 0.042061906 0.80300003 1.2634401e-38
-0.080300003 0.042061906 0.80300003 1.3095379e-38
-0.078770474 0.042061906 0.80300003 1.2542203e-38
-0.077240959 0.042061906 0.80300003 1.1989029e-38
-0.075617142 0.042009525 0.80200005 1.3279448e-38
-0.074089527 0.042009525 0.80200005 2.2314589e-38
-0.072561905 0.042009525 0.80200005 2.3234378e-38
-0.07103429 0.042009525 0.80200005 2.1021683e-38
-0.069333337 0.041904762 0.80000001 1.66986e-38
-0.06780953 0.041904762 0.80000001 1.5961035e-38
-0.066285715 0.041904762 0.80000001 1.4681432e-38
-0.064761907 0.041904762 0.80000001 1.5234606e-38
-0.063238099 0.041904762 0.80000001 1.5233537e-38
-0.061714288 0.041904762 0.80000001 1.5417928e-38
-0.060190476 0.041904762 0.80000001 1.5601237e-38
-0.058666669 0.041904762 0.80000001 1.5416846e-38
-0.057142857 0.041904762 0.80000001 1.7344657e-38
-0.05561905 0.041904762 0.80000001 1.8911983e-38
-0.054095238 0.041904762 0.80000001 2.3234018e-38
-0.052571427 0.041904762 0.80000001 2.3326213e-38
-0.051047619 0.041904762 0.80000001 2.3234378e-38
-0.049523808 0.041904762 0.80000001 1.4844575e-38
-0.048119999 0.042009525 0.80200005 3.9168884e-39
-0.046592385 0.042009525 0.80200005 5.3920185e-39
-0.045064762 0.042009525 0.80200005 7.7804575e-39
-0.043591432 0.042061906 0.80300003 7.9648487e-39
-0.042166673 0.042166673 0.80500007 8.1477869e-39
-0.040734287 0.042271432 0.80700004 7.5024175e-39
-0.039197143 0.042271432 0.80700004 5.388036e-39
-0.037753332 0.042376194 0.80900002 5.6646229e-39
-0.036212385 0.042376194 0.80900002 1.4487337e-38
-0.034671426 0.042376194 0.80900002 2.0479314e-38
-0.033212382 0.042480957 0.81100005 2.0562847e-38
-0.031745713 0.042585716 0.81300002 1.0697915e-38
-0.03027143 0.042690478 0.81500006 9.0466778e-39
-0.028789526 0.042795237 0.81700003 1.1628155e-38
-0.027366666 0.043004762 0.82100004 1.2636963e-38
-0.025802858 0.043004762 0.82100004 1.2636963e-38
-0.024298096 0.043109521 0.82300001 1.4848854e-38
-0.022730477 0.043109521 0.82300001 1.5678614e-38
-0.10135715 0.044785716 0.82500005 1.4104098e-38
-0.099785723 0.044785716 0.82500005 1.3459821e-38
-0.097976193 0.044677142 0.82300001 1.3644212e-38
-0.096408576 0.044677142 0.82300001 8.955208e-39
-0.094610475 0.044568572 0.82100004 6.1893391e-39
-0.092593342 0.044351429 0.81700003 1.042782e-38
-0.090814285 0.044242859 0.81500006 1.697371e-38
-0.088823818 0.044025715 0.81100005 1.7336038e-38
-0.087063812 0.043917142 0.80900002 1.18043e-38
-0.085311428 0.043808572 0.80700004 1.0514981e-38
-0.083774291 0.043808572 0.80700004 1.2174502e-38
-0.082033344 0.043700002 0.80500007 1.2817713e-38
-0.080500007 0.043700002 0.80500007 1.3463083e-38
-0.078966677 0.043700002 0.80500007 1.2544001e-38
-0.077240959 0.043591432 0.80300003 1.0976675e-38
-0.075617142 0.043537147 0.80200005 1.1348659e-38
-0.074089527 0.043537147 0.80200005 2.1305787e-38
-0.072561905 0.043537147 0.80200005 2.2867037e-38
-0.07103429 0.043537147 0.80200005 2.0193364e-38
-0.069506668 0.043537147 0.80200005 1.4952265e-38
-0.067979053 0.043537147 0.80200005 1.4952265e-38
-0.066285715 0.043428574 0.80000001 1.458888e-38
-0.064761907 0.043428574 0.80000001 1.5049859e-38
-0.063396193 0.043537147 0.80200005 1.5141338e-38
-0.061868574 0.043537147 0.80200005 1.5417925e-38
-0.060340952 0.043537147 0.80200005 1.5417928e-38
-0.058813337 0.043537147 0.80200005 1.5325732e-38
-0.057285715 0.043537147 0.80200005 1.4864741e-38
-0.0557581 0.043537147 0.80200005 1.532572e-38
-0.054230478 0.043537147 0.80200005 2.1207882e-38
-0.052702863 0.043537147 0.80200005 2.2867037e-38
-0.05117524 0.043537147 0.80200005 2.2774842e-38
-0.049647622 0.043537147 0.80200005 1.226454e-38
-0.048119999 0.043537147 0.80200005 2.0801561e-39
-0.046650477 0.043591432 0.80300003 4.9382206e-39
-0.045120955 0.043591432 0.80300003 8.6076944e-39
-0.043700002 0.043700002 0.80500007 8.3311075e-39
-0.042271432 0.043808572 0.80700004 7.9637585e-39
-0.040734287 0.043808572 0.80700004 7.0418022e-39
-0.039197143 0.043808572 0.80700004 5.2947544e-39
-0.037753332 0.043917142 0.80900002 8.3372102e-39
-0.036212385 0.043917142 0.80900002 1.6329795e-38
-0.034671426 0.043917142 0.80900002 2.0294207e-38
-0.033212382 0.044025715 0.81100005 1.9828557e-38
-0.031745713 0.044134285 0.81300002 1.2452906e-38
-0.03027143 0.044242859 0.81500006 1.042422e-38
-0.028789526 0.044351429 0.81700003 1.3005698e-38
-0.027300002 0.044460002 0.81900007 1.4204614e-38
-0.025802858 0.044568572 0.82100004 1.153094e-38
-0.024298096 0.044677142 0.82300001 1.2822736e-38
-0.022730477 0.044677142 0.82300001 1.4758844e-38
-0.10135715 0.046357144 0.82500005 1.3734956e-38
-0.099785723 0.046357144 0.82500005 1.3643123e-38
-0.097976193 0.046244759 0.82300001 1.3274341e-38
-0.096408576 0.046244759 0.82300001 1.1439063e-38
-0.094610475 0.046132382 0.82100004 1.2821997e-38
-0.092820004 0.046020001 0.81900007 1.4018793e-38
-0.091037147 0.04590762 0.81700003 1.7891009e-38
-0.089042857 0.045682859 0.81300002 1.8439855e-38
-0.087279052 0.045570478 0.81100005 1.622716e-38
-0.08552286 0.045458097 0.80900002 1.3095039e-38
-0.083774291 0.045345716 0.80700004 1.18043e-38
-0.082237147 0.045345716 0.80700004 1.1990126e-38
-0.080700003 0.045345716 0.80700004 1.3004278e-38
-0.079162858 0.045345716 0.80700004 1.2452171e-38
-0.07743334 0.045233335 0.80500007 1.0792649e-38
-0.075711429 0.045120955 0.80300003 1.0795521e-38
-0.074181907 0.045120955 0.80300003 2.0107279e-38
-0.072652385 0.045120955 0.80300003 2.2867037e-38
-0.07103429 0.045064762 0.80200005 2.0377755e-38
-0.069506668 0.045064762 0.80200005 1.5044839e-38
-0.067979053 0.045064762 0.80200005 1.4860448e-38
-0.06645143 0.045064762 0.80200005 1.4772568e-38
-0.064923815 0.045064762 0.80200005 1.5049155e-38
-0.063396193 0.045064762 0.80200005 1.5140625e-38
-0.061868574 0.045064762 0.80200005 1.5509407e-38
-0.060340952 0.045064762 0.80200005 1.5509761e-38
-0.058813337 0.045064762 0.80200005 1.5601956e-38
-0.057285715 0.045064762 0.80200005 1.5049143e-38
