# .PCD v0.7 - Point Cloud Data file format
VERSION 0.7
FIELDS x y z rgb
SIZE 4 4 4 4
TYPE F F F F
COUNT 1 1 1 1
WIDTH 952
HEIGHT 1
VIEWPOINT 0 0 0 1 0 0 0
POINTS 952
DATA ascii
-0.054504763 -0.074828573 0.97000003 1.5302644e-38
-0.052657142 -0.074828573 0.97000003 1.539484e-38
-0.050495241 -0.07436572 0.96400005 1.5670711e-38
-0.12760572 -0.073582858 0.97800004 1.6687399e-38
-0.12574285 -0.073582858 0.97800004 1.659592e-38
-0.12388001 -0.073582858 0.97800004 1.7056898e-38
-0.12314001 -0.074260004 0.98700005 1.7148021e-38
-0.12089143 -0.074034289 0.98400003 1.7332413e-38
-0.11901715 -0.074034289 0.98400003 1.7516441e-38
-0.11750001 -0.074260004 0.98700005 1.7700832e-38
-0.11562001 -0.074260004 0.98700005 1.7516804e-38
-0.11374 -0.074260004 0.98700005 1.8254369e-38
-0.11186 -0.074260004 0.98700005 1.8255441e-38
-0.10998 -0.074260004 0.98700005 1.8255441e-38
-0.1081 -0.074260004 0.98700005 1.8162892e-38
-0.10622001 -0.074260004 0.98700005 1.8439479e-38
-0.10455143 -0.074410483 0.98900002 1.8255088e-38
-0.10266762 -0.074410483 0.98900002 1.8439479e-38
-0.10078382 -0.074410483 0.98900002 1.8346211e-38
-0.099200003 -0.074636191 0.99200004 1.8622798e-38
-0.097310476 -0.074636191 0.99200004 1.8439123e-38
-0.095709525 -0.074861906 0.99500006 1.8531319e-38
-0.093814291 -0.074861906 0.99500006 1.8439479e-38
-0.09164191 -0.074636191 0.99200004 1.8439479e-38
-0.089752384 -0.074636191 0.99200004 1.843876e-38
-0.088128574 -0.074861906 0.99500006 1.843876e-38
-0.085973337 -0.074636191 0.99200004 1.8439476e-38
-0.08408381 -0.074636191 0.99200004 1.8439476e-38
-0.08194571 -0.074410483 0.98900002 1.7978501e-38
-0.080061905 -0.074410483 0.98900002 1.7978501e-38
-0.0781781 -0.074410483 0.98900002 1.7978138e-38
-0.076294288 -0.074410483 0.98900002 1.7885942e-38
-0.074260004 -0.074260004 0.98700005 1.7609718e-38
-0.072379999 -0.074260004 0.98700005 1.7517523e-38
-0.070285715 -0.074034289 0.98400003 1.7056189e-38
-0.068202861 -0.073808581 0.98100007 1.7148384e-38
-0.066334285 -0.073808581 0.98100007 1.7331697e-38
-0.064268574 -0.073582858 0.97800004 1.6594132e-38
-0.062214289 -0.073357143 0.97500002 1.5579614e-38
-0.060357142 -0.073357143 0.97500002 1.5579614e-38
-0.058380004 -0.073206671 0.97300005 1.5211185e-38
-0.056352381 -0.072980955 0.97000003 1.4842402e-38
-0.054336194 -0.07275524 0.96700007 1.4749471e-38
-0.052331429 -0.072529532 0.96400005 1.4749471e-38
-0.050495241 -0.072529532 0.96400005 1.51179e-38
-0.048659049 -0.072529532 0.96400005 1.5394487e-38
-0.13319428 -0.071719997 0.97800004 1.5764727e-38
-0.13133144 -0.071719997 0.97800004 1.6133509e-38
-0.12946858 -0.071719997 0.97800004 1.6225712e-38
-0.12760572 -0.071719997 0.97800004 1.6871081e-38
-0.12574285 -0.071719997 0.97800004 1.6779955e-38
-0.12388001 -0.071719997 0.97800004 1.7148737e-38
-0.12276572 -0.072160006 0.98400003 1.7148377e-38
-0.12089143 -0.072160006 0.98400003 1.751716e-38
-0.11901715 -0.072160006 0.98400003 1.7516804e-38
-0.11750001 -0.072379999 0.98700005 1.7885586e-38
-0.11585429 -0.072526664 0.98900002 1.7793747e-38
-0.11397048 -0.072526664 0.98900002 1.8346921e-38
-0.11208667 -0.072526664 0.98900002 1.8254722e-38
-0.11020286 -0.072526664 0.98900002 1.8254722e-38
-0.10831904 -0.072526664 0.98900002 1.8254372e-38
-0.10643524 -0.072526664 0.98900002 1.8623154e-38
-0.10486858 -0.072746672 0.99200004 1.8530956e-38
-0.10297905 -0.072746672 0.99200004 1.8807543e-38
-0.10108953 -0.072746672 0.99200004 1.8439123e-38
-0.099200003 -0.072746672 0.99200004 1.8531319e-38
-0.097310476 -0.072746672 0.99200004 1.8531319e-38
-0.095709525 -0.072966672 0.99500006 1.8439123e-38
-0.093814291 -0.072966672 0.99500006 1.8623154e-38
-0.09191905 -0.072966672 0.99500006 1.8991937e-38
-0.090023816 -0.072966672 0.99500006 1.843876e-38
-0.088128574 -0.072966672 0.99500006 1.8346565e-38
-0.08623334 -0.072966672 0.99500006 1.8530956e-38
-0.08408381 -0.072746672 0.99200004 1.8530956e-38
-0.08194571 -0.072526664 0.98900002 1.8070341e-38
-0.080061905 -0.072526664 0.98900002 1.7978145e-38
-0.0781781 -0.072526664 0.98900002 1.7977782e-38
-0.076294288 -0.072526664 0.98900002 1.7885586e-38
-0.074260004 -0.072379999 0.98700005 1.7701195e-38
-0.072379999 -0.072379999 0.98700005 1.7701195e-38
-0.070285715 -0.072160006 0.98400003 1.7148384e-38
-0.068411432 -0.072160006 0.98400003 1.7148384e-38
-0.066537142 -0.072160006 0.98400003 1.7332053e-38
-0.064268574 -0.071719997 0.97800004 1.6686683e-38
-0.062405713 -0.071719997 0.97800004 1.5672519e-38
-0.060357142 -0.071500003 0.97500002 1.5672519e-38
-0.058380004 -0.071353339 0.97300005 1.521155e-38
-0.056352381 -0.071133338 0.97000003 1.4842768e-38
-0.054336194 -0.070913337 0.96700007 1.4472894e-38
-0.052222859 -0.070546672 0.96200007 1.4380698e-38
-0.050390478 -0.070546672 0.96200007 1.51179e-38
-0.048558097 -0.070546672 0.96200007 1.5302291e-38
-0.046580002 -0.070326671 0.95900005 1.5485954e-38
-0.044753335 -0.070326671 0.95900005 1.5854736e-38
-0.13278572 -0.069642857 0.97500002 1.5948752e-38
-0.13092858 -0.069642857 0.97500002 1.6317535e-38
-0.12946858 -0.06985715 0.97800004 1.6225705e-38
-0.12760572 -0.06985715 0.97800004 1.6871074e-38
-0.12574285 -0.06985715 0.97800004 1.6688115e-38
-0.12388001 -0.06985715 0.97800004 1.7149093e-38
-0.12239143 -0.070071429 0.98100007 1.7149093e-38
-0.12052286 -0.070071429 0.98100007 1.7333485e-38
-0.11901715 -0.070285715 0.98400003 1.7333129e-38
-0.11750001 -0.070500001 0.98700005 1.7701911e-38
-0.11585429 -0.070642859 0.98900002 1.7794107e-38
-0.11397048 -0.070642859 0.98900002 1.7978498e-38
-0.11208667 -0.070642859 0.98900002 1.7978138e-38
-0.11020286 -0.070642859 0.98900002 1.8346921e-38
-0.10831904 -0.070642859 0.98900002 1.8346565e-38
-0.1067581 -0.070857145 0.99200004 1.8530956e-38
-0.10486858 -0.070857145 0.99200004 1.8439479e-38
-0.10297905 -0.070857145 0.99200004 1.8716066e-38
-0.10108953 -0.070857145 0.99200004 1.8439479e-38
-0.099200003 -0.070857145 0.99200004 1.862387e-38
-0.097310476 -0.070857145 0.99200004 1.862387e-38
-0.095709525 -0.071071438 0.99500006 1.8531675e-38
-0.093814291 -0.071071438 0.99500006 1.871535e-38
-0.09191905 -0.071071438 0.99500006 1.8991937e-38
-0.090023816 -0.071071438 0.99500006 1.8530956e-38
-0.088128574 -0.071071438 0.99500006 1.8530956e-38
-0.08623334 -0.071071438 0.99500006 1.8530959e-38
-0.084338099 -0.071071438 0.99500006 1.8438763e-38
-0.08194571 -0.070642859 0.98900002 1.8070341e-38
-0.080061905 -0.070642859 0.98900002 1.7978145e-38
-0.0781781 -0.070642859 0.98900002 1.8069978e-38
-0.076294288 -0.070642859 0.98900002 1.7793391e-38
-0.074260004 -0.070500001 0.98700005 1.7609e-38
-0.072379999 -0.070500001 0.98700005 1.7609e-38
-0.070500001 -0.070500001 0.98700005 1.7148384e-38
-0.068411432 -0.070285715 0.98400003 1.7148384e-38
-0.066537142 -0.070285715 0.98400003 1.7424248e-38
-0.064465716 -0.070071429 0.98100007 1.6686683e-38
-0.062405713 -0.06985715 0.97800004 1.5580333e-38
-0.060357142 -0.069642857 0.97500002 1.5488137e-38
-0.058380004 -0.069500007 0.97300005 1.5304096e-38
-0.056352381 -0.069285713 0.97000003 1.4843118e-38
-0.054504763 -0.069285713 0.97000003 1.4564363e-38
-0.052222859 -0.068714291 0.96200007 1.5209733e-38
-0.050390478 -0.068714291 0.96200007 1.567002e-38
-0.048406668 -0.068500005 0.95900005 1.5024651e-38
-0.046580002 -0.068500005 0.95900005 1.5024616e-38
-0.044753335 -0.068500005 0.95900005 1.6038768e-38
-0.13278572 -0.067785718 0.97500002 1.5948752e-38
-0.13092858 -0.067785718 0.97500002 1.6409731e-38
-0.12946858 -0.067994289 0.97800004 1.6133869e-38
-0.12760572 -0.067994289 0.97800004 1.6779239e-38
-0.12574285 -0.067994289 0.97800004 1.6688115e-38
-0.12388001 -0.067994289 0.97800004 1.7056898e-38
-0.12239143 -0.068202861 0.98100007 1.7148375e-38
-0.12052286 -0.068202861 0.98100007 1.7424961e-38
-0.11901715 -0.068411432 0.98400003 1.7333129e-38
-0.11750001 -0.068620004 0.98700005 1.7701911e-38
-0.11562001 -0.068620004 0.98700005 1.7701911e-38
-0.11397048 -0.068759046 0.98900002 1.7886303e-38
-0.11208667 -0.068759046 0.98900002 1.7886305e-38
-0.11020286 -0.068759046 0.98900002 1.8347283e-38
-0.10864762 -0.068967618 0.99200004 1.8439116e-38
-0.1067581 -0.068967618 0.99200004 1.8346921e-38
-0.10486858 -0.068967618 0.99200004 1.843876e-38
-0.10297905 -0.068967618 0.99200004 1.8715347e-38
-0.10108953 -0.068967618 0.99200004 1.8623507e-38
-0.099200003 -0.068967618 0.99200004 1.8807899e-38
-0.097310476 -0.068967618 0.99200004 1.8623507e-38
-0.095709525 -0.06917619 0.99500006 1.8623507e-38
-0.093814291 -0.06917619 0.99500006 1.880719e-38
-0.09191905 -0.06917619 0.99500006 1.880719e-38
-0.090023816 -0.06917619 0.99500006 1.8530956e-38
-0.088128574 -0.06917619 0.99500006 1.8715347e-38
-0.08623334 -0.06917619 0.99500006 1.8530603e-38
-0.084338099 -0.06917619 0.99500006 1.8254016e-38
-0.082194284 -0.068967618 0.99200004 1.8070341e-38
-0.080304772 -0.068967618 0.99200004 1.7885949e-38
-0.078415245 -0.068967618 0.99200004 1.7885586e-38
-0.076294288 -0.068759046 0.98900002 1.7609e-38
-0.074410483 -0.068759046 0.98900002 1.7609002e-38
-0.072379999 -0.068620004 0.98700005 1.7332415e-38
-0.070500001 -0.068620004 0.98700005 1.7148384e-38
-0.068411432 -0.068411432 0.98400003 1.7148384e-38
-0.066537142 -0.068411432 0.98400003 1.724057e-38
-0.064465716 -0.068202861 0.98100007 1.641081e-38
-0.062405713 -0.067994289 0.97800004 1.5303749e-38
-0.060357142 -0.067785718 0.97500002 1.5211553e-38
-0.058380004 -0.067646675 0.97300005 1.5118989e-38
-0.056352381 -0.067438096 0.97000003 1.5118989e-38
-0.054336194 -0.067229524 0.96700007 1.5671424e-38
-0.052222859 -0.06688191 0.96200007 1.7330946e-38
-0.050390478 -0.06688191 0.96200007 1.7145866e-38
-0.048406668 -0.066673338 0.95900005 1.4933171e-38
-0.046337146 -0.066325717 0.95400006 1.493243e-38
-0.044520002 -0.066325717 0.95400006 1.6038777e-38
-0.042702857 -0.066325717 0.95400006 1.5946582e-38
-0.040885717 -0.066325717 0.95400006 1.5577799e-38
-0.13436668 -0.065793335 0.97300005 1.5948399e-38
-0.13251334 -0.065793335 0.97300005 1.5764721e-38
-0.13066001 -0.065793335 0.97300005 1.6317895e-38
-0.12907143 -0.065928571 0.97500002 1.6226065e-38
-0.12760572 -0.066131428 0.97800004 1.6779239e-38
-0.12574285 -0.066131428 0.97800004 1.6779592e-38
-0.12388001 -0.066131428 0.97800004 1.7148375e-38
-0.12239143 -0.066334285 0.98100007 1.7148375e-38
-0.12052286 -0.066334285 0.98100007 1.7424961e-38
-0.11901715 -0.066537142 0.98400003 1.7332766e-38
-0.11714286 -0.066537142 0.98400003 1.7701548e-38
-0.11562001 -0.066740006 0.98700005 1.7701548e-38
-0.11374 -0.066740006 0.98700005 1.7978135e-38
-0.11208667 -0.066875242 0.98900002 1.7886303e-38
-0.11020286 -0.066875242 0.98900002 1.8255085e-38
-0.10831904 -0.066875242 0.98900002 1.8439116e-38
-0.1067581 -0.067078099 0.99200004 1.8439116e-38
-0.10486858 -0.067078099 0.99200004 1.843876e-38
-0.10297905 -0.067078099 0.99200004 1.8623151e-38
-0.10108953 -0.067078099 0.99200004 1.8623507e-38
-0.099200003 -0.067078099 0.99200004 1.8623507e-38
-0.097310476 -0.067078099 0.99200004 1.8439116e-38
-0.095998101 -0.067483813 0.99800003 1.8623507e-38
-0.093814291 -0.067280956 0.99500006 1.8623151e-38
-0.09191905 -0.067280956 0.99500006 1.8530956e-38
-0.090023816 -0.067280956 0.99500006 1.8069978e-38
-0.088128574 -0.067280956 0.99500006 1.8346565e-38
-0.08623334 -0.067280956 0.99500006 1.8254016e-38
-0.084338099 -0.067280956 0.99500006 1.8254016e-38
-0.082442857 -0.067280956 0.99500006 1.7978501e-38
-0.080304772 -0.067078099 0.99200004 1.7886305e-38
-0.078415245 -0.067078099 0.99200004 1.7701914e-38
-0.076294288 -0.066875242 0.98900002 1.7517523e-38
-0.074410483 -0.066875242 0.98900002 1.7517167e-38
-0.072379999 -0.066740006 0.98700005 1.7424971e-38
-0.070500001 -0.066740006 0.98700005 1.714874e-38
-0.068411432 -0.066537142 0.98400003 1.7056545e-38
-0.066537142 -0.066537142 0.98400003 1.6871788e-38
-0.064662859 -0.066537142 0.98400003 1.6226418e-38
-0.062405713 -0.066131428 0.97800004 1.5211185e-38
-0.060357142 -0.065928571 0.97500002 1.530338e-38
-0.058380004 -0.065793335 0.97300005 1.5394137e-38
-0.056352381 -0.065590478 0.97000003 1.5762919e-38
-0.054336194 -0.065387622 0.96700007 1.6315027e-38
-0.052222859 -0.065049522 0.96200007 1.6960396e-38
-0.050390478 -0.065049522 0.96200007 1.6777437e-38
-0.048406668 -0.064846672 0.95900005 1.502572e-38
-0.046337146 -0.064508572 0.95400006 1.5024623e-38
-0.044520002 -0.064508572 0.95400006 1.5577796e-38
-0.042702857 -0.064508572 0.95400006 1.5485601e-38
-0.040885717 -0.064508572 0.95400006 1.5485601e-38
-0.039068572 -0.064508572 0.95400006 1.548631e-38
-0.13436668 -0.063940004 0.97300005 1.6224263e-38
-0.13251334 -0.063940004 0.97300005 1.585692e-38
-0.13066001 -0.063940004 0.97300005 1.6317898e-38
-0.12907143 -0.064071432 0.97500002 1.6226421e-38
-0.12760572 -0.064268574 0.97800004 1.6779595e-38
-0.12574285 -0.064268574 0.97800004 1.6687396e-38
-0.12388001 -0.064268574 0.97800004 1.7056179e-38
-0.12239143 -0.064465716 0.98100007 1.7239851e-38
-0.12089143 -0.064662859 0.98400003 1.7332047e-38
-0.11901715 -0.064662859 0.98400003 1.7424243e-38
-0.11714286 -0.064662859 0.98400003 1.7793025e-38
-0.11562001 -0.064860001 0.98700005 1.7701548e-38
-0.11374 -0.064860001 0.98700005 1.8162526e-38
-0.11208667 -0.064991429 0.98900002 1.8070331e-38
-0.11020286 -0.064991429 0.98900002 1.8254722e-38
-0.10831904 -0.064991429 0.98900002 1.8346921e-38
-0.1067581 -0.065188579 0.99200004 1.8439116e-38
-0.10486858 -0.065188579 0.99200004 1.8439116e-38
-0.10297905 -0.065188579 0.99200004 1.8623507e-38
-0.10108953 -0.065188579 0.99200004 1.8531309e-38
-0.099200003 -0.065188579 0.99200004 1.8531309e-38
-0.097310476 -0.065188579 0.99200004 1.8439113e-38
-0.095998101 -0.065582857 0.99800003 1.8531309e-38
-0.093814291 -0.065385722 0.99500006 1.8531309e-38
-0.09191905 -0.065385722 0.99500006 1.8531309e-38
-0.090023816 -0.065385722 0.99500006 1.8162173e-38
-0.088128574 -0.065385722 0.99500006 1.8346565e-38
-0.08623334 -0.065385722 0.99500006 1.8254369e-38
-0.084338099 -0.065385722 0.99500006 1.8162173e-38
-0.082442857 -0.065385722 0.99500006 1.8069978e-38
-0.080547623 -0.065385722 0.99500006 1.7977782e-38
-0.078415245 -0.065188579 0.99200004 1.7701911e-38
-0.076294288 -0.064991429 0.98900002 1.751752e-38
-0.074410483 -0.064991429 0.98900002 1.7332776e-38
-0.072379999 -0.064860001 0.98700005 1.724058e-38
-0.070500001 -0.064860001 0.98700005 1.6687762e-38
-0.068620004 -0.064860001 0.98700005 1.6595567e-38
-0.066740006 -0.064860001 0.98700005 1.6687033e-38
-0.064662859 -0.064662859 0.98400003 1.6041664e-38
-0.062405713 -0.064268574 0.97800004 1.6317885e-38
-0.060357142 -0.064071432 0.97500002 1.6963255e-38
-0.058380004 -0.063940004 0.97300005 1.7699741e-38
-0.056352381 -0.063742854 0.97000003 1.8529501e-38
-0.05405524 -0.063217148 0.96200007 1.7515375e-38
-0.052222859 -0.063217148 0.96200007 1.5118288e-38
-0.050390478 -0.063217148 0.96200007 1.4842385e-38
-0.048406668 -0.063020006 0.95900005 1.5118972e-38
-0.046434287 -0.062822863 0.95600003 1.5117534e-38
-0.044520002 -0.062691435 0.95400006 1.5394121e-38
-0.042702857 -0.062691435 0.95400006 1.5394114e-38
-0.040885717 -0.062691435 0.95400006 1.5394114e-38
-0.13436668 -0.062086668 0.97300005 1.6498314e-38
-0.13251334 -0.062086668 0.97300005 1.5764008e-38
-0.13092858 -0.062214289 0.97500002 1.6409377e-38
-0.12946858 -0.062405713 0.97800004 1.6225699e-38
-0.12799715 -0.062597148 0.98100007 1.6686678e-38
-0.12612858 -0.062597148 0.98100007 1.6595201e-38
-0.12426001 -0.062597148 0.98100007 1.7056179e-38
-0.12276572 -0.062788568 0.98400003 1.7148375e-38
-0.12089143 -0.062788568 0.98400003 1.724057e-38
-0.11901715 -0.062788568 0.98400003 1.7424245e-38
-0.11714286 -0.062788568 0.98400003 1.7700832e-38
-0.11562001 -0.062980004 0.98700005 1.7609353e-38
-0.11374 -0.062980004 0.98700005 1.7701548e-38
-0.11208667 -0.063107617 0.98900002 1.7793025e-38
-0.11020286 -0.063107617 0.98900002 1.8161808e-38
-0.10831904 -0.063107617 0.98900002 1.8070334e-38
-0.1067581 -0.063299052 0.99200004 1.8346921e-38
-0.10486858 -0.063299052 0.99200004 1.8439116e-38
-0.10329048 -0.063490473 0.99500006 1.8439116e-38
-0.10139524 -0.063490473 0.99500006 1.8439113e-38
-0.099200003 -0.063299052 0.99200004 1.8531309e-38
-0.097310476 -0.063299052 0.99200004 1.8439113e-38
-0.095709525 -0.063490473 0.99500006 1.8346918e-38
-0.094097145 -0.063681908 0.99800003 1.8254725e-38
-0.092196189 -0.063681908 0.99800003 1.8439116e-38
-0.09029524 -0.063681908 0.99800003 1.8254369e-38
-0.088394284 -0.063681908 0.99800003 1.8254369e-38
-0.086493336 -0.063681908 0.99800003 1.8254009e-38
-0.08459238 -0.063681908 0.99800003 1.8254009e-38
-0.082442857 -0.063490473 0.99500006 1.8069615e-38
-0.080547623 -0.063490473 0.99500006 1.7977419e-38
-0.078415245 -0.063299052 0.99200004 1.7702267e-38
-0.076525718 -0.063299052 0.99200004 1.7333485e-38
-0.074636191 -0.063299052 0.99200004 1.6964702e-38
-0.072526664 -0.063107617 0.98900002 1.6964702e-38
-0.070500001 -0.062980004 0.98700005 1.6595564e-38
-0.068620004 -0.062980004 0.98700005 1.6595564e-38
-0.066740006 -0.062980004 0.98700005 1.6870709e-38
-0.064662859 -0.062788568 0.98400003 1.70551e-38
-0.062788568 -0.062788568 0.98400003 1.7237356e-38
-0.060357142 -0.062214289 0.97500002 1.7790529e-38
-0.058500003 -0.062214289 0.97500002 1.8345116e-38
-0.05664286 -0.062214289 0.97500002 1.8068529e-38
-0.05405524 -0.061384764 0.96200007 1.6963633e-38
-0.052222859 -0.061384764 0.96200007 1.3828982e-38
-0.050390478 -0.061384764 0.96200007 1.3460171e-38
-0.047599047 -0.060172379 0.94300002 1.475091e-38
-0.045802858 -0.060172379 0.94300002 1.5302282e-38
-0.044006668 -0.060172379 0.94300002 1.5302282e-38
-0.042210475 -0.060172379 0.94300002 1.5210083e-38
-0.13436668 -0.060233336 0.97300005 1.6408273e-38
-0.13251334 -0.060233336 0.97300005 1.6591616e-38
-0.13066001 -0.060233336 0.97300005 1.7329181e-38
-0.12907143 -0.060357142 0.97500002 1.6686671e-38
-0.12799715 -0.060728572 0.98100007 1.6871062e-38
-0.12612858 -0.060728572 0.98100007 1.6595204e-38
-0.12426001 -0.060728572 0.98100007 1.687179e-38
-0.12276572 -0.060914289 0.98400003 1.6871435e-38
-0.12089143 -0.060914289 0.98400003 1.7148021e-38
-0.11901715 -0.060914289 0.98400003 1.7331334e-38
-0.11750001 -0.061100006 0.98700005 1.7515725e-38
-0.11562001 -0.061100006 0.98700005 1.733205e-38
-0.11374 -0.061100006 0.98700005 1.7608637e-38
-0.11208667 -0.061223812 0.98900002 1.7608637e-38
-0.11020286 -0.061223812 0.98900002 1.7977419e-38
-0.10864762 -0.061409526 0.99200004 1.7885224e-38
-0.1067581 -0.061409526 0.99200004 1.8069615e-38
-0.10518572 -0.061595239 0.99500006 1.8070331e-38
-0.10329048 -0.061595239 0.99500006 1.8070331e-38
-0.10139524 -0.061595239 0.99500006 1.8070328e-38
-0.099500008 -0.061595239 0.99500006 1.8162524e-38
-0.097604766 -0.061595239 0.99500006 1.7977782e-38
-0.095709525 -0.061595239 0.99500006 1.7793391e-38
-0.093814291 -0.061595239 0.99500006 1.7793391e-38
-0.09191905 -0.061595239 0.99500006 1.7885586e-38
-0.09029524 -0.061780956 0.99800003 1.7793031e-38
-0.088394284 -0.061780956 0.99800003 1.7793031e-38
-0.086493336 -0.061780956 0.99800003 1.7792309e-38
-0.08459238 -0.061780956 0.99800003 1.7792309e-38
-0.082442857 -0.061595239 0.99500006 1.7608634e-38
-0.080547623 -0.061595239 0.99500006 1.7516438e-38
-0.078652389 -0.061595239 0.99500006 1.7608634e-38
-0.076525718 -0.061409526 0.99200004 1.7885221e-38
-0.074636191 -0.061409526 0.99200004 1.8254712e-38
-0.072526664 -0.061223812 0.98900002 1.8531299e-38
-0.070642859 -0.061223812 0.98900002 1.8807899e-38
-0.068759046 -0.061223812 0.98900002 1.9176681e-38
-0.066875242 -0.061223812 0.98900002 1.9453268e-38
-0.064860001 -0.061100006 0.98700005 1.9545464e-38
-0.062980004 -0.061100006 0.98700005 1.7976741e-38
-0.061100006 -0.061100006 0.98700005 1.8068937e-38
-0.055500004 -0.057261907 0.92500007 1.7610419e-38
-0.053912383 -0.057447623 0.92800003 1.3646007e-38
-0.05298762 -0.058376193 0.94300002 1.244676e-38
-0.051191427 -0.058376193 0.94300002 1.2907739e-38
-0.049395241 -0.058376193 0.94300002 1.3826808e-38
-0.047447622 -0.058190476 0.94000006 1.5117547e-38
-0.045657143 -0.058190476 0.94000006 1.5210439e-38
-0.043866668 -0.058190476 0.94000006 1.5118243e-38
-0.13251334 -0.058380004 0.97300005 1.6684162e-38
-0.13066001 -0.058380004 0.97300005 1.7421727e-38
-0.12179048 -0.055200003 0.92000002 1.6963264e-38
-0.12003809 -0.055200003 0.92000002 1.705546e-38
-0.11828572 -0.055200003 0.92000002 1.6778886e-38
-0.12426001 -0.058860004 0.98100007 1.7055473e-38
-0.12276572 -0.059039999 0.98400003 1.6963986e-38
-0.12089143 -0.059039999 0.98400003 1.7148377e-38
-0.11938 -0.059220001 0.98700005 1.7239491e-38
-0.11750001 -0.059220001 0.98700005 1.7423882e-38
-0.11562001 -0.059220001 0.98700005 1.70551e-38
-0.11374 -0.059220001 0.98700005 1.7608274e-38
-0.11208667 -0.059340004 0.98900002 1.7608634e-38
-0.11020286 -0.059340004 0.98900002 1.7700829e-38
-0.10831904 -0.059340004 0.98900002 1.7424243e-38
-0.1067581 -0.059520002 0.99200004 1.7793025e-38
-0.10518572 -0.059700005 0.99500006 1.760899e-38
-0.10329048 -0.059700005 0.99500006 1.7885577e-38
-0.10139524 -0.059700005 0.99500006 1.760899e-38
-0.099200003 -0.059520002 0.99200004 1.7885577e-38
-0.097310476 -0.059520002 0.99200004 1.7793025e-38
-0.095709525 -0.059700005 0.99500006 1.7700829e-38
-0.093814291 -0.059700005 0.99500006 1.7608274e-38
-0.09191905 -0.059700005 0.99500006 1.7884861e-38
-0.09029524 -0.05988 0.99800003 1.7792312e-38
-0.088394284 -0.05988 0.99800003 1.7884507e-38
-0.086493336 -0.05988 0.99800003 1.806782e-38
-0.08459238 -0.05988 0.99800003 1.8436602e-38
-0.082442857 -0.059700005 0.99500006 1.8253293e-38
-0.080547623 -0.059700005 0.99500006 1.8437684e-38
-0.078652389 -0.059700005 0.99500006 1.8714271e-38
-0.076525718 -0.059520002 0.99200004 1.8898662e-38
-0.074636191 -0.059520002 0.99200004 1.935964e-38
-0.072526664 -0.059340004 0.98900002 1.9451836e-38
-0.065928578 -0.055380002 0.92300004 1.9821342e-38
-0.06417048 -0.055380002 0.92300004 1.9821342e-38
-0.062209524 -0.055200003 0.92000002 1.9914606e-38
-0.06045714 -0.055200003 0.92000002 1.8623868e-38
-0.05870476 -0.055200003 0.92000002 1.6230744e-38
-0.057138097 -0.055380002 0.92300004 1.6783918e-38
-0.055500004 -0.055500004 0.92500007 1.5125841e-38
-0.053912383 -0.055679999 0.92800003 9.3175166e-39
-0.052144762 -0.055679999 0.92800003 1.0788609e-38
-0.051191427 -0.05658 0.94300002 1.2724718e-38
-0.049395241 -0.05658 0.94300002 1.4746597e-38
-0.047447622 -0.056400005 0.94000006 1.5668553e-38
-0.045657143 -0.056400005 0.94000006 1.5210086e-38
-0.043866668 -0.056400005 0.94000006 1.5210086e-38
-0.13062 -0.054202858 0.93300003 7.9316604e-39
-0.12884286 -0.054202858 0.93300003 1.1711681e-38
-0.12706572 -0.054202858 0.93300003 1.4104104e-38
-0.12394572 -0.053621907 0.92300004 1.5118256e-38
-0.12179048 -0.053447623 0.92000002 1.6592317e-38
-0.12003809 -0.053447623 0.92000002 1.7975251e-38
-0.11828572 -0.053447623 0.92000002 1.7516091e-38
-0.12464001 -0.057165716 0.98400003 1.8069264e-38
-0.12276572 -0.057165716 0.98400003 1.7885586e-38
-0.12089143 -0.057165716 0.98400003 1.8530956e-38
-0.11938 -0.057340004 0.98700005 1.8714618e-38
-0.11750001 -0.057340004 0.98700005 1.8714618e-38
-0.11562001 -0.057340004 0.98700005 1.880718e-38
-0.11374 -0.057340004 0.98700005 1.8899375e-38
-0.11186 -0.057340004 0.98700005 1.9361057e-38
-0.11020286 -0.057456192 0.98900002 1.9453253e-38
-0.10831904 -0.057456192 0.98900002 1.9545098e-38
-0.1067581 -0.057630476 0.99200004 1.9637294e-38
-0.10518572 -0.057804763 0.99500006 1.9821682e-38
-0.10329048 -0.057804763 0.99500006 2.0098269e-38
-0.10139524 -0.057804763 0.99500006 2.0281944e-38
-0.099200003 -0.057630476 0.99200004 2.0466335e-38
-0.097310476 -0.057630476 0.99200004 2.0650374e-38
-0.095998101 -0.057979047 0.99800003 2.0742569e-38
-0.093814291 -0.057804763 0.99500006 2.1019156e-38
-0.09191905 -0.057804763 0.99500006 2.1387939e-38
-0.090023816 -0.057804763 0.99500006 2.1665607e-38
-0.088128574 -0.057804763 0.99500006 2.1849999e-38
-0.08623334 -0.057804763 0.99500006 2.1389383e-38
-0.08459238 -0.057979047 0.99800003 2.1389383e-38
-0.082691431 -0.057979047 0.99800003 2.1112796e-38
-0.080547623 -0.057804763 0.99500006 2.1020601e-38
-0.078415245 -0.057630476 0.99200004 2.046743e-38
-0.076525718 -0.057630476 0.99200004 2.0375234e-38
-0.069219045 -0.053447623 0.92000002 1.9176341e-38
-0.067466669 -0.053447623 0.92000002 1.8991949e-38
-0.065714285 -0.053447623 0.92000002 1.8162915e-38
-0.063961908 -0.053447623 0.92000002 1.7333154e-38
-0.062209524 -0.053447623 0.92000002 1.3832967e-38
-0.06045714 -0.053447623 0.92000002 1.0421729e-38
-0.05870476 -0.053447623 0.92000002 1.143832e-38
-0.057138097 -0.053621907 0.92300004 1.586371e-38
-0.055500004 -0.053738099 0.92500007 1.5032907e-38
-0.053912383 -0.053912383 0.92800003 6.2743223e-39
-0.052144762 -0.053912383 0.92800003 6.6488501e-39
-0.051028572 -0.054609526 0.94000006 1.0521067e-38
-0.049395241 -0.05478381 0.94300002 1.4379619e-38
-0.047599047 -0.05478381 0.94300002 1.5578162e-38
-0.045802858 -0.05478381 0.94300002 1.5301565e-38
-0.13489333 -0.05270667 0.93800002 1.6317908e-38
-0.13239715 -0.052425716 0.93300003 9.5876266e-39
-0.13062 -0.052425716 0.93300003 6.2749837e-39
-0.12884286 -0.052425716 0.93300003 9.1330482e-39
-0.12706572 -0.052425716 0.93300003 1.1801366e-38
-0.12394572 -0.051863808 0.92300004 1.2170148e-38
-0.12179048 -0.051695239 0.92000002 1.3826406e-38
-0.12003809 -0.051695239 0.92000002 1.520934e-38
-0.11828572 -0.051695239 0.92000002 1.7145122e-38
-0.11653333 -0.051695239 0.92000002 1.8343665e-38
-0.11478096 -0.051695239 0.92000002 1.7610434e-38
-0.11278286 -0.051582858 0.91800004 1.7887021e-38
-0.11103429 -0.051582858 0.91800004 1.8716041e-38
-0.10869049 -0.051301908 0.91300005 1.8900432e-38
-0.1066 -0.051133335 0.91000003 1.9268877e-38
-0.10486667 -0.051133335 0.91000003 1.9176681e-38
-0.10313334 -0.051133335 0.91000003 1.9913525e-38
-0.1014 -0.051133335 0.91000003 1.9913525e-38
-0.10831904 -0.055572383 0.98900002 2.0190467e-38
-0.10708096 -0.055909529 0.99500006 2.0098272e-38
-0.10518572 -0.055909529 0.99500006 2.0374503e-38
-0.10329048 -0.055909529 0.99500006 2.0558894e-38
-0.10139524 -0.055909529 0.99500006 2.0743291e-38
-0.099200003 -0.055740956 0.99200004 2.05589e-38
-0.097310476 -0.055740956 0.99200004 2.1479761e-38
-0.095709525 -0.055909529 0.99500006 2.1848544e-38
-0.093814291 -0.055909529 0.99500006 2.2034037e-38
-0.09191905 -0.055909529 0.99500006 2.2218428e-38
-0.090023816 -0.055909529 0.99500006 2.2403891e-38
-0.088128574 -0.055909529 0.99500006 2.1389739e-38
-0.08623334 -0.055909529 0.99500006 2.0561421e-38
-0.08459238 -0.056078095 0.99800003 1.9455073e-38
-0.082442857 -0.055909529 0.99500006 1.8351231e-38
-0.080547623 -0.055909529 0.99500006 1.9273187e-38
-0.0781781 -0.055572383 0.98900002 1.9823505e-38
-0.070971429 -0.051695239 0.92000002 1.9270331e-38
-0.069219045 -0.051695239 0.92000002 1.7888473e-38
-0.067466669 -0.051695239 0.92000002 1.7611886e-38
-0.065714285 -0.051695239 0.92000002 1.6967606e-38
-0.063961908 -0.051695239 0.92000002 1.6506627e-38
-0.062209524 -0.051695239 0.92000002 1.2363235e-38
-0.06045714 -0.051695239 0.92000002 9.3207788e-39
-0.058896191 -0.051863808 0.92300004 1.1987918e-38
-0.057138097 -0.051863808 0.92300004 1.5583547e-38
-0.055679999 -0.052144762 0.92800003 1.4753799e-38
-0.054202858 -0.052425716 0.93300003 5.9952145e-39
-0.052425716 -0.052425716 0.93300003 3.0646958e-39
-0.050919998 -0.05270667 0.93800002 8.1354554e-39
-0.049238101 -0.052819051 0.94000006 1.4380335e-38
-0.047599047 -0.05298762 0.94300002 1.5578878e-38
-0.045802858 -0.05298762 0.94300002 1.5393758e-38
-0.13489333 -0.050919998 0.93800002 1.6226068e-38
-0.13239715 -0.05064857 0.93300003 1.0786526e-38
-0.13062 -0.05064857 0.93300003 6.461966e-39
-0.12884286 -0.05064857 0.93300003 7.0151397e-39
-0.12665714 -0.050485715 0.93000007 8.9472669e-39
-0.12394572 -0.050105717 0.92300004 9.7770275e-39
-0.12218763 -0.050105717 0.92300004 1.032331e-38
-0.12003809 -0.049942859 0.92000002 1.3457961e-38
-0.11828572 -0.049942859 0.92000002 1.6594766e-38
-0.11653333 -0.049942859 0.92000002 1.714794e-38
-0.11478096 -0.049942859 0.92000002 1.420173e-38
-0.11278286 -0.049834289 0.91800004 1.1989035e-38
-0.11103429 -0.049834289 0.91800004 1.3740386e-38
-0.10869049 -0.04956286 0.91300005 1.7612602e-38
-0.1066 -0.049400002 0.91000003 1.7426403e-38
-0.10486667 -0.049400002 0.91000003 1.622786e-38
-0.10313334 -0.049400002 0.91000003 1.5493898e-38
-0.1014 -0.049400002 0.91000003 1.5493898e-38
-0.09966667 -0.049400002 0.91000003 1.558538e-38
-0.10708096 -0.054014288 0.99500006 1.6968315e-38
-0.10518572 -0.054014288 0.99500006 1.8163621e-38
-0.10329048 -0.054014288 0.99500006 1.9546555e-38
-0.10139524 -0.054014288 0.99500006 1.9361079e-38
-0.091500007 -0.04967143 0.91500002 1.7424971e-38
-0.089757144 -0.04967143 0.91500002 1.8070308e-38
-0.088014282 -0.04967143 0.91500002 2.0006417e-38
-0.086554289 -0.049834289 0.91800004 2.0097215e-38
-0.09191905 -0.054014288 0.99500006 1.9451846e-38
-0.082604766 -0.04956286 0.91300005 1.6048526e-38
-0.080865718 -0.04956286 0.91300005 1.005581e-38
-0.08623334 -0.054014288 0.99500006 6.7562512e-39
-0.08459238 -0.054177143 0.99800003 6.0186862e-39
-0.082442857 -0.054014288 0.99500006 1.3747894e-38
-0.080547623 -0.054014288 0.99500006 1.8357675e-38
-0.072723806 -0.049942859 0.92000002 1.9639817e-38
-0.070971429 -0.049942859 0.92000002 1.7427122e-38
-0.069219045 -0.049942859 0.92000002 1.466739e-38
-0.067466669 -0.049942859 0.92000002 1.4482998e-38
-0.065714285 -0.049942859 0.92000002 1.5771233e-38
-0.063961908 -0.049942859 0.92000002 1.8444906e-38
-0.062209524 -0.049942859 0.92000002 1.8442e-38
-0.06045714 -0.049942859 0.92000002 1.7059066e-38
-0.058896191 -0.050105717 0.92300004 1.6966845e-38
-0.057261907 -0.050214287 0.92500007 1.4385367e-38
-0.055679999 -0.050377145 0.92800003 1.0982761e-38
-0.054202858 -0.05064857 0.93300003 5.0822405e-39
-0.052538101 -0.050757144 0.93500006 4.5373666e-39
-0.050919998 -0.050919998 0.93800002 8.0408005e-39
-0.049238101 -0.051028572 0.94000006 1.382967e-38
-0.047599047 -0.051191427 0.94300002 1.5396995e-38
-0.045802858 -0.051191427 0.94300002 1.5485594e-38
-0.044006668 -0.051191427 0.94300002 1.5209007e-38
-0.13489333 -0.049133334 0.93800002 1.5951276e-38
-0.13268095 -0.048976194 0.93500006 1.0788321e-38
-0.13062 -0.048871431 0.93300003 5.3574205e-39
-0.12884286 -0.048871431 0.93300003 5.3574205e-39
-0.12665714 -0.048714291 0.93000007 8.7653769e-39
-0.12394572 -0.048347622 0.92300004 9.9639201e-39
-0.12218763 -0.048347622 0.92300004 1.0512048e-38
-0.12003809 -0.048190478 0.92000002 1.4107677e-38
-0.11828572 -0.048190478 0.92000002 1.6132771e-38
-0.11653333 -0.048190478 0.92000002 1.6224966e-38
-0.11478096 -0.048190478 0.92000002 1.3100755e-38
-0.11278286 -0.048085716 0.91800004 8.4909733e-39
-0.11103429 -0.048085716 0.91800004 1.0702561e-38
-0.10892857 -0.047928572 0.91500002 1.558893e-38
-0.10695143 -0.047823813 0.91300005 1.7427125e-38
-0.10521238 -0.047823813 0.91300005 1.5675408e-38
-0.10313334 -0.047666669 0.91000003 1.1722169e-38
-0.1014 -0.047666669 0.91000003 1.1537777e-38
-0.09966667 -0.047666669 0.91000003 1.190474e-38
-0.097933337 -0.047666669 0.91000003 1.4947195e-38
-0.096200004 -0.047666669 0.91000003 1.7152003e-38
-0.094778098 -0.047823813 0.91300005 1.8903719e-38
-0.093039051 -0.047823813 0.91300005 1.9178126e-38
-0.091300003 -0.047823813 0.91300005 1.4199562e-38
-0.089757144 -0.047928572 0.91500002 1.4841977e-38
-0.088014282 -0.047928572 0.91500002 1.7884433e-38
-0.086271428 -0.047928572 0.91500002 2.0188675e-38
-0.084528573 -0.047928572 0.91500002 1.9727697e-38
-0.082604766 -0.047823813 0.91300005 1.3477504e-38
-0.080865718 -0.047823813 0.91300005 8.5911353e-39
-0.079300001 -0.047928572 0.91500002 5.7571563e-39
-0.077557147 -0.047928572 0.91500002 6.0337432e-39
-0.076062858 -0.048085716 0.91800004 1.4025955e-38
-0.074476197 -0.048190478 0.92000002 1.8727932e-38
-0.072723806 -0.048190478 0.92000002 2.0377032e-38
-0.070971429 -0.048190478 0.92000002 1.6228229e-38
-0.069219045 -0.048190478 0.92000002 1.3290566e-38
-0.067466669 -0.048190478 0.92000002 1.2553001e-38
-0.065928578 -0.048347622 0.92300004 1.4668832e-38
-0.06417048 -0.048347622 0.92300004 1.6789331e-38
-0.062412385 -0.048347622 0.92300004 1.9178123e-38
-0.06065429 -0.048347622 0.92300004 1.9639101e-38
-0.058896191 -0.048347622 0.92300004 1.6693896e-38
-0.057261907 -0.048452385 0.92500007 9.5948321e-39
-0.055800002 -0.048714291 0.93000007 7.6658887e-39
-0.054202858 -0.048871431 0.93300003 5.1766067e-39
-0.052538101 -0.048976194 0.93500006 4.9050771e-39
-0.050919998 -0.049133334 0.93800002 8.7772936e-39
-0.049238101 -0.049238101 0.94000006 1.3184676e-38
-0.047599047 -0.049395241 0.94300002 1.5120784e-38
-0.045802858 -0.049395241 0.94300002 1.5577436e-38
-0.13489333 -0.047346666 0.93800002 1.6226784e-38
-0.13268095 -0.047195241 0.93500006 1.2446763e-38
-0.13062 -0.047094285 0.93300003 4.9908366e-39
-0.12884286 -0.047094285 0.93300003 4.1610759e-39
-0.12665714 -0.04694286 0.93000007 7.3846355e-39
-0.12421428 -0.046690479 0.92500007 1.1072461e-38
-0.12218763 -0.046589527 0.92300004 1.4013723e-38
-0.12003809 -0.046438098 0.92000002 1.6871788e-38
-0.11828572 -0.046438098 0.92000002 1.5216217e-38
-0.11653333 -0.046438098 0.92000002 1.1436196e-38
-0.11478096 -0.046438098 0.92000002 6.0135981e-39
-0.11302857 -0.046438098 0.92000002 4.1696855e-39
-0.11103429 -0.046337146 0.91800004 6.1954684e-39
-0.10892857 -0.046185717 0.91500002 1.1450619e-38
-0.10718572 -0.046185717 0.91500002 1.5953444e-38
-0.10521238 -0.046084765 0.91300005 1.9456878e-38
-0.10347334 -0.046084765 0.91300005 1.8535628e-38
-0.1014 -0.045933332 0.91000003 1.6322933e-38
-0.09966667 -0.045933332 0.91000003 1.6876116e-38
-0.097933337 -0.045933332 0.91000003 2.0102963e-38
-0.096200004 -0.045933332 0.91000003 2.0837291e-38
-0.094778098 -0.046084765 0.91300005 1.9730944e-38
-0.093039051 -0.046084765 0.91300005 1.7796978e-38
-0.091300003 -0.046084765 0.91300005 1.1988653e-38
-0.089757144 -0.046185717 0.91500002 1.1712417e-38
-0.088014282 -0.046185717 0.91500002 1.503146e-38
-0.086271428 -0.046185717 0.91500002 1.8439098e-38
-0.084528573 -0.046185717 0.91500002 2.2126923e-38
-0.082785718 -0.046185717 0.91500002 2.0839462e-38
-0.081042856 -0.046185717 0.91500002 1.8626767e-38
-0.079300001 -0.046185717 0.91500002 1.7343549e-38
-0.077557147 -0.046185717 0.91500002 1.8265505e-38
-0.076062858 -0.046337146 0.91800004 1.9457253e-38
-0.074476197 -0.046438098 0.92000002 1.9180666e-38
-0.072723806 -0.046438098 0.92000002 1.7339262e-38
-0.070971429 -0.046438098 0.92000002 1.4573393e-38
-0.069444761 -0.046589527 0.92300004 1.1910891e-38
-0.067686662 -0.046589527 0.92300004 1.1818696e-38
-0.065928578 -0.046589527 0.92300004 1.2553374e-38
-0.06417048 -0.046589527 0.92300004 1.2276787e-38
-0.062412385 -0.046589527 0.92300004 1.7059384e-38
-0.06065429 -0.046589527 0.92300004 1.9548666e-38
-0.059023816 -0.046690479 0.92500007 1.6968289e-38
-0.057447623 -0.046841905 0.92800003 8.3019003e-39
-0.055980001 -0.047094285 0.93300003 3.4378686e-39
-0.05431905 -0.047195241 0.93500006 2.8846948e-39
-0.052538101 -0.047195241 0.93500006 6.5599321e-39
-0.050919998 -0.047346666 0.93800002 1.0800931e-38
-0.049238101 -0.047447622 0.94000006 1.42903e-38
-0.047599047 -0.047599047 0.94300002 1.5488843e-38
-0.045802858 -0.047599047 0.94300002 1.5577796e-38
-0.13489333 -0.045560002 0.93800002 1.6317908e-38
-0.13310668 -0.045560002 0.93800002 1.3275452e-38
-0.13090001 -0.045414288 0.93500006 8.4892132e-39
-0.12911905 -0.045414288 0.93500006 5.2623662e-39
-0.12706572 -0.045317143 0.93300003 5.7290518e-39
-0.12421428 -0.044928573 0.92500007 1.0154442e-38
-0.12218763 -0.044831429 0.92300004 1.3830774e-38
-0.12042952 -0.044831429 0.92300004 1.5490295e-38
-0.11828572 -0.044685714 0.92000002 1.2732345e-38
-0.11653333 -0.044685714 0.92000002 6.0942596e-39
-0.11478096 -0.044685714 0.92000002 1.877377e-39
-0.11302857 -0.044685714 0.92000002 2.9837246e-39
-0.11103429 -0.044588573 0.91800004 4.7289577e-39
-0.10892857 -0.044442859 0.91500002 7.3104354e-39
-0.10718572 -0.044442859 0.91500002 1.3558843e-38
-0.10521238 -0.044345718 0.91300005 1.7799842e-38
-0.10347334 -0.044345718 0.91300005 1.9639098e-38
-0.10173429 -0.044345718 0.91300005 1.8624947e-38
-0.09966667 -0.044199999 0.91000003 1.9084871e-38
-0.097933337 -0.044199999 0.91000003 2.1113175e-38
-0.096517146 -0.044345718 0.91300005 2.0745096e-38
-0.094778098 -0.044345718 0.91300005 1.8163618e-38
-0.093039051 -0.044345718 0.91300005 1.420568e-38
-0.091300003 -0.044345718 0.91300005 1.1624202e-38
-0.089757144 -0.044442859 0.91500002 1.1345788e-38
-0.088014282 -0.044442859 0.91500002 1.2544331e-38
-0.086271428 -0.044442859 0.91500002 1.5304086e-38
-0.084528573 -0.044442859 0.91500002 1.9729477e-38
-0.082785718 -0.044442859 0.91500002 2.1665242e-38
-0.081042856 -0.044442859 0.91500002 2.0927677e-38
-0.079300001 -0.044442859 0.91500002 2.0007531e-38
-0.077557147 -0.044442859 0.91500002 2.1482661e-38
-0.076062858 -0.044588573 0.91800004 2.0747257e-38
-0.074476197 -0.044685714 0.92000002 1.687504e-38
-0.072723806 -0.044685714 0.92000002 1.4026696e-38
-0.070971429 -0.044685714 0.92000002 1.2735958e-38
-0.069444761 -0.044831429 0.92300004 1.2095273e-38
-0.067686662 -0.044831429 0.92300004 1.2464055e-38
-0.065928578 -0.044831429 0.92300004 1.2095273e-38
-0.06417048 -0.044831429 0.92300004 1.0804534e-38
-0.062412385 -0.044831429 0.92300004 1.4205665e-38
-0.060785718 -0.044928573 0.92500007 1.7985685e-38
-0.05921524 -0.045074288 0.92800003 1.4575554e-38
-0.057571433 -0.045171432 0.93000007 6.0935562e-39
-0.055980001 -0.045317143 0.93300003 2.7957334e-39
-0.05431905 -0.045414288 0.93500006 3.0723203e-39
-0.05270667 -0.045560002 0.93800002 7.8456137e-39
-0.050919998 -0.045560002 0.93800002 1.2639786e-38
-0.049238101 -0.045657143 0.94000006 1.5026067e-38
-0.047599047 -0.045802858 0.94300002 1.539485e-38
-0.045802858 -0.045802858 0.94300002 1.5485957e-38
-0.13518095 -0.043866668 0.94000006 1.6317908e-38
-0.13339049 -0.043866668 0.94000006 1.4289604e-38
-0.13132 -0.043773334 0.93800002 9.5019597e-39
-0.12953334 -0.043773334 0.93800002 4.9843738e-39
-0.1273381 -0.043633334 0.93500006 4.4412249e-39
-0.12488572 -0.043400005 0.93000007 7.9446588e-39
-0.12245239 -0.043166671 0.92500007 1.2911669e-38
-0.12042952 -0.043073334 0.92300004 1.3557039e-38
-0.11828572 -0.042933334 0.92000002 1.1166792e-38
-0.11653333 -0.042933334 0.92000002 5.8194454e-39
-0.11478096 -0.042933334 0.92000002 1.6026314e-39
-0.11302857 -0.042933334 0.92000002 3.446544e-39
-0.11103429 -0.04284 0.91800004 5.3739866e-39
-0.10928572 -0.04284 0.91800004 5.1895954e-39
-0.10718572 -0.042700004 0.91500002 8.5002793e-39
-0.10544286 -0.042700004 0.91500002 1.1358344e-38
-0.10347334 -0.04260667 0.91300005 1.6967201e-38
-0.10173429 -0.04260667 0.91300005 2.0839417e-38
-0.099995241 -0.04260667 0.91300005 2.1480503e-38
-0.098256193 -0.04260667 0.91300005 1.8622438e-38
-0.096517146 -0.04260667 0.91300005 1.4659133e-38
-0.094778098 -0.04260667 0.91300005 1.1893264e-38
-0.093039051 -0.04260667 0.91300005 1.1713514e-38
-0.091300003 -0.04260667 0.91300005 1.2543275e-38
-0.089757144 -0.042700004 0.91500002 1.2634401e-38
-0.088014282 -0.042700004 0.91500002 1.245001e-38
-0.086271428 -0.042700004 0.91500002 1.2815893e-38
-0.084528573 -0.042700004 0.91500002 1.309248e-38
-0.082785718 -0.042700004 0.91500002 1.5581033e-38
-0.081042856 -0.042700004 0.91500002 2.0651793e-38
-0.079300001 -0.042700004 0.91500002 2.1297916e-38
-0.077557147 -0.042700004 0.91500002 2.1021329e-38
-0.076062858 -0.04284 0.91800004 1.9367524e-38
-0.074476197 -0.042933334 0.92000002 1.4942134e-38
-0.072723806 -0.042933334 0.92000002 1.2187465e-38
-0.070971429 -0.042933334 0.92000002 1.2187465e-38
-0.069444761 -0.043073334 0.92300004 1.2188194e-38
-0.067686662 -0.043073334 0.92300004 1.2188194e-38
-0.066071436 -0.043166671 0.92500007 1.2002368e-38
-0.064309523 -0.043166671 0.92500007 1.1264803e-38
-0.062547624 -0.043166671 0.92500007 1.4297878e-38
-0.060982861 -0.043306667 0.92800003 1.7893508e-38
-0.059342861 -0.043400005 0.93000007 1.5496056e-38
-0.057571433 -0.043400005 0.93000007 6.3686885e-39
-0.055980001 -0.043540001 0.93300003 1.2323958e-39
-0.05431905 -0.043633334 0.93500006 2.5231346e-39
-0.052538101 -0.043633334 0.93500006 8.3073303e-39
-0.050919998 -0.043773334 0.93800002 1.2548329e-38
-0.049133334 -0.043773334 0.93800002 1.4749836e-38
-0.047750477 -0.044146664 0.94600004 1.5210815e-38
-0.045948572 -0.044146664 0.94600004 1.5485588e-38
-0.13561238 -0.042210475 0.94300002 1.6317182e-38
-0.1338162 -0.042210475 0.94300002 1.5487421e-38
-0.13160001 -0.042076193 0.94000006 1.1713537e-38
-0.12980953 -0.042076193 0.94000006 6.6427769e-39
-0.12774667 -0.041986667 0.93800002 3.7057954e-39
-0.12528858 -0.041762859 0.93300003 7.1170338e-39
-0.12284952 -0.041539047 0.92800003 1.0795874e-38
-0.12069048 -0.041404765 0.92500007 1.2178808e-38
-0.11867143 -0.041315239 0.92300004 9.4183498e-39
-0.11653333 -0.041180953 0.92000002 5.2695464e-39
-0.11478096 -0.041180953 0.92000002 2.1543394e-39
-0.11302857 -0.041180953 0.92000002 4.0904477e-39
-0.11127619 -0.041180953 0.92000002 5.0995577e-39
-0.10928572 -0.041091431 0.91800004 4.7307752e-39
-0.10753714 -0.041091431 0.91800004 3.076974e-39
-0.10544286 -0.040957142 0.91500002 3.9989303e-39
-0.1037 -0.040957142 0.91500002 1.3651745e-38
-0.10173429 -0.040867623 0.91300005 2.0289831e-38
-0.099995241 -0.040867623 0.91300005 2.1572721e-38
-0.098256193 -0.040867623 0.91300005 1.6040983e-38
-0.096517146 -0.040867623 0.91300005 1.2909536e-38
-0.094778098 -0.040867623 0.91300005 1.198758e-38
-0.093039051 -0.040867623 0.91300005 1.217342e-38
-0.091300003 -0.040867623 0.91300005 1.3003181e-38
-0.089757144 -0.040957142 0.91500002 1.3554909e-38
-0.088014282 -0.040957142 0.91500002 1.3554909e-38
-0.086271428 -0.040957142 0.91500002 1.2726221e-38
-0.084528573 -0.040957142 0.91500002 1.1343287e-38
-0.082785718 -0.040957142 0.91500002 1.2080803e-38
-0.081042856 -0.040957142 0.91500002 1.9456453e-38
-0.079300001 -0.040957142 0.91500002 2.074654e-38
-0.077811427 -0.041091431 0.91800004 1.991678e-38
-0.076062858 -0.041091431 0.91800004 1.5962079e-38
-0.074476197 -0.041180953 0.92000002 1.3288405e-38
-0.072723806 -0.041180953 0.92000002 1.2005232e-38
-0.071202859 -0.041315239 0.92300004 1.2374015e-38
-0.069444761 -0.041315239 0.92300004 1.2739207e-38
-0.067833342 -0.041404765 0.92500007 1.2278229e-38
-0.066071436 -0.041404765 0.92500007 1.1817977e-38
-0.064309523 -0.041404765 0.92500007 1.1356999e-38
-0.062547624 -0.041404765 0.92500007 1.4206409e-38
-0.060982861 -0.041539047 0.92800003 1.7617647e-38
-0.059342861 -0.041628573 0.93000007 1.5499315e-38
-0.057757143 -0.041762859 0.93300003 6.5563392e-39
-0.055980001 -0.041762859 0.93300003 2.2418463e-39
-0.05431905 -0.041852385 0.93500006 4.0857589e-39
-0.052538101 -0.041852385 0.93500006 1.0333461e-38
-0.050919998 -0.041986667 0.93800002 1.245396e-38
-0.049133334 -0.041986667 0.93800002 1.4013348e-38
-0.047346666 -0.041986667 0.93800002 1.50275e-38
-0.13604382 -0.04054286 0.94600004 1.6040945e-38
-0.1338162 -0.040414285 0.94300002 1.5579967e-38
-0.13202 -0.040414285 0.94300002 1.1804653e-38
-0.12980953 -0.040285718 0.94000006 6.4573066e-39
-0.12774667 -0.040200002 0.93800002 3.155528e-39
-0.12528858 -0.039985713 0.93300003 6.382375e-39
-0.12284952 -0.03977143 0.92800003 1.1716032e-38
-0.1210819 -0.03977143 0.92800003 1.4205314e-38
-0.11867143 -0.039557144 0.92300004 1.190472e-38
-0.11691333 -0.039557144 0.92300004 5.8198083e-39
-0.11478096 -0.039428573 0.92000002 1.2349139e-39
-0.11302857 -0.039428573 0.92000002 3.5398046e-39
-0.11127619 -0.039428573 0.92000002 5.0073621e-39
-0.10952381 -0.039428573 0.92000002 5.283949e-39
-0.10777143 -0.039428573 0.92000002 4.2741131e-39
-0.10578857 -0.039342858 0.91800004 2.4302005e-39
-0.10404 -0.039342858 0.91800004 8.404551e-39
-0.10229144 -0.039342858 0.91800004 1.7347527e-38
-0.10021429 -0.039214283 0.91500002 1.9547992e-38
-0.098471433 -0.039214283 0.91500002 1.198795e-38
-0.096728571 -0.039214283 0.91500002 9.7799492e-39
-0.094985716 -0.039214283 0.91500002 1.1623862e-38
-0.093039051 -0.039128575 0.91300005 1.2818792e-38
-0.091300003 -0.039128575 0.91300005 1.3095379e-38
-0.089757144 -0.039214283 0.91500002 1.3554909e-38
-0.088014282 -0.039214283 0.91500002 1.3647104e-38
-0.086271428 -0.039214283 0.91500002 1.3278689e-38
-0.08480572 -0.039342858 0.91800004 1.2264537e-38
-0.08305715 -0.039342858 0.91800004 1.1344729e-38
-0.081308573 -0.039342858 0.91800004 1.6507684e-38
-0.079560004 -0.039342858 0.91800004 1.9180276e-38
-0.077811427 -0.039342858 0.91800004 1.908808e-38
-0.076228574 -0.039428573 0.92000002 1.6237594e-38
-0.074719049 -0.039557144 0.92300004 1.3102942e-38
-0.07296095 -0.039557144 0.92300004 1.1637894e-38
-0.071202859 -0.039557144 0.92300004 1.2283264e-38
-0.069444761 -0.039557144 0.92300004 1.2463699e-38
-0.067833342 -0.039642859 0.92500007 1.181833e-38
-0.066071436 -0.039642859 0.92500007 1.2369361e-38
-0.064309523 -0.039642859 0.92500007 1.3475709e-38
-0.062750474 -0.03977143 0.92800003 1.687682e-38
-0.061114289 -0.039857145 0.93000007 1.8444145e-38
-0.059342861 -0.039857145 0.93000007 1.7611899e-38
-0.057757143 -0.039985713 0.93300003 1.5030421e-38
-0.055980001 -0.039985713 0.93300003 1.0247394e-38
-0.05431905 -0.040071432 0.93500006 9.3254381e-39
-0.052538101 -0.040071432 0.93500006 1.0979927e-38
-0.050919998 -0.040200002 0.93800002 1.1440906e-38
-0.049133334 -0.040200002 0.93800002 1.3552735e-38
-0.047346666 -0.040200002 0.93800002 1.4843474e-38
-0.14038572 -0.038945716 0.95100003 1.6223534e-38
-0.13813715 -0.03882286 0.94800007 1.631573e-38
-0.13633144 -0.03882286 0.94800007 1.6132421e-38
-0.13424191 -0.038740952 0.94600004 1.6040225e-38
-0.13202 -0.038618095 0.94300002 1.2724076e-38
-0.12980953 -0.038495239 0.94000006 7.3767294e-39
-0.1273381 -0.038290478 0.93500006 4.8092339e-39
-0.12528858 -0.03820857 0.93300003 8.4048635e-39
-0.12311429 -0.038085714 0.93000007 1.2633322e-38
-0.12134287 -0.038085714 0.93000007 1.4846017e-38
-0.11931429 -0.038003813 0.92800003 1.2180973e-38
-0.11716668 -0.037880953 0.92500007 6.5570399e-39
-0.11515524 -0.037799049 0.92300004 1.4185695e-39
-0.11339714 -0.037799049 0.92300004 3.539069e-39
-0.11127619 -0.037676193 0.92000002 4.9155266e-39
-0.10952381 -0.037676193 0.92000002 5.3765048e-39
-0.10777143 -0.037676193 0.92000002 3.8145768e-39
-0.10601905 -0.037676193 0.92000002 2.0628599e-39
-0.10426667 -0.037676193 0.92000002 7.2106713e-39
-0.10251428 -0.037676193 0.92000002 1.652243e-38
-0.10076191 -0.037676193 0.92000002 1.9181385e-38
-0.099009521 -0.037676193 0.92000002 1.2358909e-38
-0.097257145 -0.037676193 0.92000002 1.0054721e-38
-0.095504761 -0.037676193 0.92000002 1.1806438e-38
-0.093548574 -0.037594289 0.91800004 1.3002455e-38
-0.091800004 -0.037594289 0.91800004 1.3279042e-38
-0.089757144 -0.037471429 0.91500002 1.3371238e-38
-0.088014282 -0.037471429 0.91500002 1.3463433e-38
-0.086554289 -0.037594289 0.91800004 1.3279042e-38
-0.08480572 -0.037594289 0.91800004 1.2080499e-38
-0.08305715 -0.037594289 0.91800004 1.0333461e-38
-0.081485718 -0.037676193 0.92000002 1.752472e-38
-0.079733334 -0.037676193 0.92000002 1.8996979e-38
-0.077980958 -0.037676193 0.92000002 1.8996979e-38
-0.076477148 -0.037799049 0.92300004 1.6237612e-38
-0.074719049 -0.037799049 0.92300004 1.3287352e-38
-0.07296095 -0.037799049 0.92300004 1.1636822e-38
-0.071202859 -0.037799049 0.92300004 1.2005605e-38
-0.069444761 -0.037799049 0.92300004 1.2095273e-38
-0.067833342 -0.037880953 0.92500007 1.1634295e-38
-0.066071436 -0.037880953 0.92500007 1.2920008e-38
-0.064309523 -0.037880953 0.92500007 1.540929e-38
-0.062750474 -0.038003813 0.92800003 1.7245618e-38
-0.061114289 -0.038085714 0.93000007 1.6692444e-38
-0.059534285 -0.03820857 0.93300003 1.7426744e-38
-0.057757143 -0.03820857 0.93300003 1.7426744e-38
-0.055980001 -0.03820857 0.93300003 1.4112431e-38
-0.05431905 -0.038290478 0.93500006 1.2452909e-38
-0.052538101 -0.038290478 0.93500006 1.0982433e-38
-0.050919998 -0.038413331 0.93800002 1.0798042e-38
-0.049395241 -0.038618095 0.94300002 1.3276511e-38
-0.047599047 -0.038618095 0.94300002 1.4751641e-38
-0.13857429 -0.037134286 0.95100003 1.6131702e-38
-0.13676286 -0.037134286 0.95100003 1.6132418e-38
