# .PCD v0.7 - Point Cloud Data file format
VERSION 0.7
FIELDS x y z rgb
SIZE 4 4 4 4
TYPE F F F F
COUNT 1 1 1 1
WIDTH 1016
HEIGHT 1
VIEWPOINT 0 0 0 1 0 0 0
POINTS 1016
DATA ascii
-0.064761907 0.12589714 0.54400003 1.9551237e-38
-0.063725717 0.12589714 0.54400003 1.7627386e-38
-0.062804759 0.12612857 0.54500002 1.7996169e-38
-0.06188 0.12636 0.546 1.799545e-38
-0.060839999 0.12636 0.546 1.799545e-38
-0.059799999 0.12636 0.546 1.799545e-38
-0.058760002 0.12636 0.546 1.799545e-38
-0.057719998 0.12636 0.546 1.7994734e-38
-0.056679998 0.12636 0.546 1.7994734e-38
-0.055640001 0.12636 0.546 1.7719226e-38
-0.0546 0.12636 0.546 1.7719226e-38
-0.053658098 0.12659143 0.54700005 1.7443721e-38
-0.052616194 0.12659143 0.54700005 1.6706156e-38
-0.051762857 0.1270543 0.54900002 1.8727973e-38
-0.050717145 0.1270543 0.54900002 2.0846656e-38
-0.049761903 0.12728572 0.55000001 2.3326213e-38
-0.048891433 0.12774858 0.55200005 2.3326213e-38
-0.047926668 0.12798001 0.55300003 2.341769e-38
-0.046958096 0.12821144 0.55400002 2.341769e-38
-0.045902859 0.12821144 0.55400002 2.2407501e-38
-0.044928569 0.12844285 0.55500001 2.1669936e-38
-0.043950479 0.1286743 0.55600005 1.726005e-38
-0.042891432 0.1286743 0.55600005 1.3387836e-38
-0.041982856 0.12913714 0.55800003 3.0007475e-39
-0.041066665 0.1296 0.56 1.7100087e-39
-0.040214289 0.13029429 0.56300002 1.0167117e-38
-0.03921143 0.13052571 0.56400001 1.8550769e-38
-0.038204763 0.13075714 0.565 2.2867037e-38
-0.037128571 0.13075714 0.565 1.9916777e-38
-0.03605238 0.13075714 0.565 1.6055025e-38
-0.034976188 0.13075714 0.565 1.5040874e-38
-0.034079999 0.13145143 0.56800002 1.4125757e-38
-0.032998096 0.13145143 0.56800002 1.3388192e-38
-0.031972378 0.13168286 0.56900001 1.6879028e-38
-0.030997144 0.13214572 0.57100004 1.8907332e-38
-0.10293333 0.13066666 0.56 1.2634414e-38
-0.10168476 0.13043334 0.55900002 1.3927992e-38
-0.10062 0.13043334 0.55900002 1.7247034e-38
-0.099555239 0.13043334 0.55900002 1.5039102e-38
-0.097785719 0.1295 0.55500001 9.6917557e-39
-0.096554287 0.12926668 0.55400002 5.5645086e-39
-0.09532667 0.12903333 0.55300003 5.9332911e-39
-0.094102859 0.1288 0.55200005 3.4519446e-39
-0.093051434 0.1288 0.55200005 5.2958572e-39
-0.091833338 0.12856667 0.551 1.5957056e-38
-0.090454288 0.12810001 0.54900002 2.2040518e-38
-0.089245722 0.12786667 0.54800004 2.3050705e-38
-0.088040963 0.12763335 0.54700005 1.9086293e-38
-0.086839996 0.1274 0.546 1.4942214e-38
-0.0858 0.1274 0.546 1.2729519e-38
-0.084760003 0.1274 0.546 1.3465609e-38
-0.083719999 0.1274 0.546 1.4571957e-38
-0.082528576 0.12716667 0.54500002 1.4755639e-38
-0.081340954 0.12693335 0.54400003 1.5124422e-38
-0.080304772 0.12693335 0.54400003 1.5216973e-38
-0.079268575 0.12693335 0.54400003 1.5309169e-38
-0.078232385 0.12693335 0.54400003 1.5584324e-38
-0.076912388 0.12646668 0.54200006 1.5584324e-38
-0.075880013 0.12646668 0.54200006 1.5769068e-38
-0.074847631 0.12646668 0.54200006 1.5861264e-38
-0.074087627 0.12693335 0.54400003 1.5400646e-38
-0.072917148 0.1267 0.54300004 1.4202102e-38
-0.071882859 0.1267 0.54300004 1.4296777e-38
-0.070848577 0.1267 0.54300004 2.1303645e-38
-0.06968572 0.12646668 0.54200006 2.341769e-38
-0.068653338 0.12646668 0.54200006 2.341769e-38
-0.067745715 0.1267 0.54300004 2.2957791e-38
-0.066711433 0.1267 0.54300004 2.212803e-38
-0.065677151 0.1267 0.54300004 1.9097106e-38
-0.064880952 0.12716667 0.54500002 1.8359541e-38
-0.063842863 0.12716667 0.54500002 1.7719582e-38
-0.062920004 0.1274 0.546 1.7903973e-38
-0.06188 0.1274 0.546 1.7996169e-38
-0.060839999 0.1274 0.546 1.7996169e-38
-0.059799999 0.1274 0.546 1.8179481e-38
-0.058760002 0.1274 0.546 1.8087285e-38
-0.057719998 0.1274 0.546 1.799509e-38
-0.056679998 0.1274 0.546 1.799509e-38
-0.055640001 0.1274 0.546 1.7902538e-38
-0.0546 0.1274 0.546 1.7994734e-38
-0.053658098 0.12763335 0.54700005 1.7443718e-38
-0.052712385 0.12786667 0.54800004 1.6890544e-38
-0.051857144 0.12833333 0.55000001 1.9831074e-38
-0.050809525 0.12833333 0.55000001 2.1765011e-38
-0.049852382 0.12856667 0.551 2.341769e-38
-0.048891433 0.1288 0.55200005 2.341769e-38
-0.047926668 0.12903333 0.55300003 2.3417687e-38
-0.046958096 0.12926668 0.55400002 2.3417687e-38
-0.045902859 0.12926668 0.55400002 2.341769e-38
-0.044928569 0.1295 0.55500001 2.3325494e-38
-0.043950479 0.12973335 0.55600005 2.2315305e-38
-0.042891432 0.12973335 0.55600005 1.9733828e-38
-0.041982856 0.1302 0.55800003 1.0177919e-38
-0.041140001 0.13090001 0.56100005 6.1213117e-39
-0.040214289 0.13136667 0.56300002 1.2743553e-38
-0.039280951 0.13183333 0.565 1.9560959e-38
-0.038204763 0.13183333 0.565 2.3050705e-38
-0.037194289 0.13206668 0.56600004 1.8625315e-38
-0.036116194 0.13206668 0.56600004 1.4032842e-38
-0.035100002 0.1323 0.56700003 1.4217234e-38
-0.034079999 0.13253334 0.56800002 1.4216874e-38
-0.033056188 0.13276666 0.56900001 1.4032482e-38
-0.032028574 0.133 0.57000005 1.7431839e-38
-0.030997144 0.13323334 0.57100004 1.8906969e-38
-0.10293333 0.13173334 0.56 1.1987956e-38
-0.10186666 0.13173334 0.56 1.1345826e-38
-0.10062 0.1314981 0.55900002 1.7246346e-38
-0.099555239 0.1314981 0.55900002 1.6695363e-38
-0.09796191 0.13079239 0.55600005 1.190119e-38
-0.096554287 0.13032191 0.55400002 7.2204103e-39
-0.095499046 0.13032191 0.55400002 7.6813885e-39
-0.094273336 0.13008668 0.55300003 1.1175145e-38
-0.093051434 0.12985143 0.55200005 1.7075661e-38
-0.091833338 0.12961619 0.551 2.1484829e-38
-0.09061905 0.12938096 0.55000001 2.2775202e-38
-0.089408576 0.12914573 0.54900002 2.3234378e-38
-0.08820191 0.12891048 0.54800004 2.2404617e-38
-0.086999051 0.12867525 0.54700005 1.8904479e-38
-0.0858 0.12843999 0.546 1.3464937e-38
-0.084760003 0.12843999 0.546 1.1443433e-38
-0.083719999 0.12843999 0.546 1.319515e-38
-0.082680002 0.12843999 0.546 1.4756361e-38
-0.081490479 0.12820476 0.54500002 1.5125143e-38
-0.080452383 0.12820476 0.54500002 1.5584674e-38
-0.079414286 0.12820476 0.54500002 1.5769065e-38
-0.078376196 0.12820476 0.54500002 1.5584684e-38
-0.077196196 0.12796953 0.54400003 1.5492488e-38
-0.076159999 0.12796953 0.54400003 1.5492488e-38
-0.075123817 0.12796953 0.54400003 1.5861271e-38
-0.074087627 0.12796953 0.54400003 1.5676879e-38
-0.07305143 0.12796953 0.54400003 1.4662728e-38
-0.072015241 0.12796953 0.54400003 1.3560333e-38
-0.070848577 0.1277343 0.54300004 1.9829636e-38
-0.069814295 0.1277343 0.54300004 2.341769e-38
-0.068780005 0.1277343 0.54300004 2.341769e-38
-0.067870483 0.12796953 0.54400003 2.3234018e-38
-0.066834286 0.12796953 0.54400003 2.2957431e-38
-0.065798096 0.12796953 0.54400003 1.9925424e-38
-0.064880952 0.12820476 0.54500002 1.8173707e-38
-0.063959993 0.12843999 0.546 1.7076014e-38
-0.062920004 0.12843999 0.546 1.7536991e-38
-0.06188 0.12843999 0.546 1.8179478e-38
-0.060839999 0.12843999 0.546 1.8179478e-38
-0.059799999 0.12843999 0.546 1.8271675e-38
-0.058760002 0.12843999 0.546 1.8179481e-38
-0.057719998 0.12843999 0.546 1.8087285e-38
-0.056679998 0.12843999 0.546 1.799509e-38
-0.055640001 0.12843999 0.546 1.7627386e-38
-0.054700006 0.12867525 0.54700005 1.753519e-38
-0.053854287 0.12914573 0.54900002 1.8178036e-38
-0.052808572 0.12914573 0.54900002 1.89156e-38
-0.051857144 0.12938096 0.55000001 2.2222387e-38
-0.050994292 0.12985143 0.55200005 2.2867037e-38
-0.049942859 0.12985143 0.55200005 2.341769e-38
-0.048980005 0.13008668 0.55300003 2.2956712e-38
-0.048013333 0.13032191 0.55400002 2.341769e-38
-0.046958096 0.13032191 0.55400002 2.341769e-38
-0.045902859 0.13032191 0.55400002 2.3417687e-38
-0.045009527 0.13079239 0.55600005 2.3417687e-38
-0.043950479 0.13079239 0.55600005 2.3326213e-38
-0.042968575 0.13102762 0.55700004 2.3234018e-38
-0.041982856 0.13126285 0.55800003 2.2315305e-38
-0.041140001 0.13196859 0.56100005 2.0563588e-38
-0.040285714 0.13267428 0.56400001 2.1303677e-38
-0.039280951 0.13290952 0.565 2.2132353e-38
-0.038204763 0.13290952 0.565 2.2499334e-38
-0.03726 0.13338001 0.56700003 1.7336378e-38
-0.036243808 0.13361524 0.56800002 1.3665509e-38
-0.035161905 0.13361524 0.56800002 1.4218683e-38
-0.034139998 0.13385047 0.56900001 1.4952283e-38
-0.033056188 0.13385047 0.56900001 1.5136675e-38
-0.032028574 0.13408571 0.57000005 1.7706988e-38
-0.10293333 0.1328 0.56 1.254005e-38
-0.10186666 0.1328 0.56 1.1619138e-38
-0.1008 0.1328 0.56 1.6782093e-38
-0.09973333 0.1328 0.56 1.7523306e-38
-0.098138101 0.13208857 0.55700004 1.3466698e-38
-0.096902862 0.13185143 0.55600005 9.8833006e-39
-0.095499046 0.13137715 0.55400002 1.0713061e-38
-0.094443806 0.13137715 0.55400002 1.7153442e-38
-0.093220003 0.13114001 0.55300003 2.1855412e-38
-0.092000008 0.13090287 0.55200005 2.2958154e-38
-0.090783805 0.13066572 0.551 2.3050349e-38
-0.089571431 0.13042857 0.55000001 2.3049986e-38
-0.088362865 0.13019143 0.54900002 2.2681204e-38
-0.087158099 0.12995429 0.54800004 2.2038005e-38
-0.085957147 0.12971716 0.54700005 1.7428224e-38
-0.084915251 0.12971716 0.54700005 1.2366501e-38
-0.083873339 0.12971716 0.54700005 1.2735284e-38
-0.082680002 0.12947999 0.546 1.4296456e-38
-0.081639998 0.12947999 0.546 1.484963e-38
-0.080599993 0.12947999 0.546 1.5584314e-38
-0.079414286 0.12924285 0.54500002 1.5768705e-38
-0.078376196 0.12924285 0.54500002 1.5492841e-38
-0.077338099 0.12924285 0.54500002 1.530845e-38
-0.076300003 0.12924285 0.54500002 1.5401011e-38
-0.075261906 0.12924285 0.54500002 1.5769794e-38
-0.074223816 0.12924285 0.54500002 1.558504e-38
-0.073185712 0.12924285 0.54500002 1.4570888e-38
-0.072147623 0.12924285 0.54500002 1.2734178e-38
-0.070979051 0.12900572 0.54400003 2.0478597e-38
-0.069942862 0.12900572 0.54400003 2.3326213e-38
-0.068906672 0.12900572 0.54400003 2.3326213e-38
-0.067995243 0.12924285 0.54500002 2.3325494e-38
-0.066957146 0.12924285 0.54500002 2.3233299e-38
-0.065919049 0.12924285 0.54500002 2.1028166e-38
-0.064999998 0.12947999 0.546 1.9368645e-38
-0.063959993 0.12947999 0.546 1.6983819e-38
-0.062920004 0.12947999 0.546 1.7444797e-38
-0.06188 0.12947999 0.546 1.8087285e-38
-0.060839999 0.12947999 0.546 1.8087285e-38
-0.059799999 0.12947999 0.546 1.8179481e-38
-0.058760002 0.12947999 0.546 1.8179481e-38
-0.057719998 0.12947999 0.546 1.8087285e-38
-0.056679998 0.12947999 0.546 1.799509e-38
-0.05574191 0.12971716 0.54700005 1.7534834e-38
-0.054700006 0.12971716 0.54700005 1.7350443e-38
-0.053854287 0.13019143 0.54900002 1.8820522e-38
-0.052808572 0.13019143 0.54900002 2.0203449e-38
-0.051951427 0.13066572 0.551 2.3326213e-38
-0.050994292 0.13090287 0.55200005 2.3326213e-38
-0.049942859 0.13090287 0.55200005 2.341769e-38
-0.048980005 0.13114001 0.55300003 1.9453278e-38
-0.048013333 0.13137715 0.55400002 2.0279436e-38
-0.046958096 0.13137715 0.55400002 2.3507723e-38
-0.045902859 0.13137715 0.55400002 2.3417687e-38
-0.045090482 0.13208857 0.55700004 2.3417687e-38
-0.044029526 0.13208857 0.55700004 2.341769e-38
-0.043045714 0.13232571 0.55800003 2.341769e-38
-0.042058099 0.13256286 0.55900002 2.341769e-38
-0.041140001 0.13303715 0.56100005 2.3325494e-38
-0.040285714 0.13374858 0.56400001 2.2774842e-38
-0.039280951 0.13398571 0.565 2.2129472e-38
-0.038204763 0.13398571 0.565 1.9922541e-38
-0.037325714 0.13469715 0.56800002 1.6326911e-38
-0.036243808 0.13469715 0.56800002 1.3758056e-38
-0.035161905 0.13469715 0.56800002 1.4034643e-38
-0.034139998 0.13493429 0.56900001 1.5778439e-38
-0.033114288 0.13517143 0.57000005 1.6516004e-38
-0.032084763 0.13540858 0.57100004 1.8167231e-38
-0.10098001 0.13410573 0.56100005 1.3280134e-38
-0.09973333 0.13386667 0.56 1.4757437e-38
-0.098314285 0.13338858 0.55800003 1.7154523e-38
-0.096902862 0.13291049 0.55600005 1.8629265e-38
-0.09567143 0.13267143 0.55500001 2.0473178e-38
-0.094443806 0.13243239 0.55400002 2.1668144e-38
-0.09338858 0.13243239 0.55400002 2.268229e-38
-0.092166677 0.13219334 0.55300003 2.2589374e-38
-0.090948582 0.1319543 0.55200005 2.1667418e-38
-0.089734286 0.13171524 0.551 2.1023122e-38
-0.088523813 0.13147619 0.55000001 2.1207513e-38
-0.087158099 0.1309981 0.54800004 2.2129482e-38
-0.086114287 0.1309981 0.54800004 2.2129482e-38
-0.085070483 0.1309981 0.54800004 1.8075807e-38
-0.083873339 0.13075906 0.54700005 1.3466028e-38
-0.082831435 0.13075906 0.54700005 1.1996607e-38
-0.081639998 0.13052 0.546 1.319515e-38
-0.080599993 0.13052 0.546 1.5032232e-38
-0.079560004 0.13052 0.546 1.5401014e-38
-0.07852 0.13052 0.546 1.5309519e-38
-0.077480003 0.13052 0.546 1.5309519e-38
-0.076439999 0.13052 0.546 1.5401011e-38
-0.075399995 0.13052 0.546 1.521662e-38
-0.074360006 0.13052 0.546 1.4112431e-38
-0.073320001 0.13052 0.546 1.4389017e-38
-0.072147623 0.13028096 0.54500002 1.5952076e-38
-0.071109526 0.13028096 0.54500002 2.2497901e-38
-0.070071429 0.13028096 0.54500002 2.341769e-38
-0.069033332 0.13028096 0.54500002 2.341769e-38
-0.067995243 0.13028096 0.54500002 2.341769e-38
-0.066957146 0.13028096 0.54500002 2.341769e-38
-0.065919049 0.13028096 0.54500002 2.2498255e-38
-0.064999998 0.13052 0.546 2.2129472e-38
-0.063959993 0.13052 0.546 1.9559163e-38
-0.062920004 0.13052 0.546 1.8268424e-38
-0.06188 0.13052 0.546 1.7260406e-38
-0.060839999 0.13052 0.546 1.7260406e-38
-0.059799999 0.13052 0.546 1.7811777e-38
-0.058760002 0.13052 0.546 1.7811777e-38
-0.057719998 0.13052 0.546 1.8087285e-38
-0.056783814 0.13075906 0.54700005 1.799509e-38
-0.05574191 0.13075906 0.54700005 1.8270232e-38
-0.054800004 0.1309981 0.54800004 1.89156e-38
-0.053854287 0.13123715 0.54900002 2.213127e-38
-0.053000953 0.13171524 0.551 2.2683366e-38
-0.052045718 0.1319543 0.55200005 2.341769e-38
-0.051086668 0.13219334 0.55300003 2.341769e-38
-0.050033335 0.13219334 0.55300003 2.341769e-38
-0.048980005 0.13219334 0.55300003 1.5765453e-38
-0.048013333 0.13243239 0.55400002 1.5121881e-38
-0.046958096 0.13243239 0.55400002 1.6781403e-38
-0.045902859 0.13243239 0.55400002 1.9451833e-38
-0.045090482 0.13314953 0.55700004 2.2586485e-38
-0.044108573 0.13338858 0.55800003 2.341769e-38
-0.043045714 0.13338858 0.55800003 2.341769e-38
-0.042058099 0.13362762 0.55900002 2.341769e-38
-0.041140001 0.13410573 0.56100005 2.341769e-38
-0.040357143 0.1350619 0.565 2.3050705e-38
-0.039280951 0.1350619 0.565 2.083801e-38
-0.038272385 0.13530096 0.56600004 1.8173702e-38
-0.037325714 0.13577905 0.56800002 1.5868811e-38
-0.036243808 0.13577905 0.56800002 1.3942812e-38
-0.035223808 0.1360181 0.56900001 1.3758421e-38
-0.034139998 0.1360181 0.56900001 1.6053944e-38
-0.03317238 0.1364962 0.57100004 1.7529074e-38
-0.10098001 0.1351743 0.56100005 1.1619896e-38
-0.09973333 0.13493334 0.56 1.4200981e-38
-0.098314285 0.13445143 0.55800003 1.8257589e-38
-0.097077146 0.13421048 0.55700004 2.0100092e-38
-0.095843814 0.13396953 0.55600005 2.2220592e-38
-0.094614282 0.13372858 0.55500001 2.2588658e-38
-0.09338858 0.13348763 0.55400002 2.2865243e-38
-0.092166677 0.13324668 0.55300003 2.231351e-38
-0.090948582 0.13300572 0.55200005 2.0377402e-38
-0.089897148 0.13300572 0.55200005 1.7985711e-38
-0.088523813 0.13252382 0.55000001 1.8446689e-38
-0.087317146 0.13228285 0.54900002 2.2128033e-38
-0.086114287 0.13204192 0.54800004 2.3234379e-38
-0.085070483 0.13204192 0.54800004 2.2221678e-38
-0.083873339 0.13180096 0.54700005 1.7796287e-38
-0.082831435 0.13180096 0.54700005 1.2919322e-38
-0.081789531 0.13180096 0.54700005 1.2827126e-38
-0.080599993 0.13156 0.546 1.4295377e-38
-0.079560004 0.13156 0.546 1.5125138e-38
-0.07852 0.13156 0.546 1.5492841e-38
-0.077480003 0.13156 0.546 1.5400646e-38
-0.076439999 0.13156 0.546 1.4940747e-38
-0.075399995 0.13156 0.546 1.4571964e-38
-0.074360006 0.13156 0.546 1.3652169e-38
-0.073320001 0.13156 0.546 1.5403885e-38
-0.072279997 0.13156 0.546 2.1019525e-38
-0.07124 0.13156 0.546 2.3509167e-38
-0.070199996 0.13156 0.546 2.341769e-38
-0.069159999 0.13156 0.546 2.341769e-38
-0.068120003 0.13156 0.546 2.341769e-38
-0.067079999 0.13156 0.546 2.341769e-38
-0.066040002 0.13156 0.546 2.341769e-38
-0.064999998 0.13156 0.546 2.3325494e-38
-0.063959993 0.13156 0.546 2.139587e-38
-0.062920004 0.13156 0.546 1.9551957e-38
-0.06188 0.13156 0.546 1.6341686e-38
-0.06095143 0.13180096 0.54700005 1.6618273e-38
-0.059799999 0.13156 0.546 1.7443715e-38
-0.058760002 0.13156 0.546 1.7443715e-38
-0.057719998 0.13156 0.546 1.7902891e-38
-0.056783814 0.13180096 0.54700005 1.77185e-38
-0.05574191 0.13180096 0.54700005 1.8361346e-38
-0.054800004 0.13204192 0.54800004 1.9375495e-38
-0.053952381 0.13252382 0.55000001 2.3234378e-38
-0.053097147 0.13300572 0.55200005 2.3234378e-38
-0.052140001 0.13324668 0.55300003 2.341769e-38
-0.051086668 0.13324668 0.55300003 2.341769e-38
-0.050033335 0.13324668 0.55300003 2.1389752e-38
-0.049068574 0.13348763 0.55400002 1.5765818e-38
-0.048013333 0.13348763 0.55400002 1.4479761e-38
-0.046958096 0.13348763 0.55400002 1.4664153e-38
-0.045902859 0.13348763 0.55400002 1.5951642e-38
-0.045090482 0.13421048 0.55700004 1.8072141e-38
-0.044108573 0.13445143 0.55800003 2.0927326e-38
-0.043122858 0.13469239 0.55900002 2.2863434e-38
-0.042058099 0.13469239 0.55900002 2.3417687e-38
-0.041140001 0.1351743 0.56100005 2.3417687e-38
-0.040428575 0.13637906 0.56600004 2.3326213e-38
-0.03935048 0.13637906 0.56600004 1.9546192e-38
-0.038272385 0.13637906 0.56600004 1.6516357e-38
-0.037325714 0.13686097 0.56800002 1.5778792e-38
-0.036307618 0.1371019 0.56900001 1.4678931e-38
-0.035223808 0.1371019 0.56900001 1.4125757e-38
-0.034260001 0.13758382 0.57100004 1.6052867e-38
-0.03317238 0.13758382 0.57100004 1.7251411e-38
-0.10098001 0.13624287 0.56100005 1.0698321e-38
-0.09973333 0.13600001 0.56 1.1066741e-38
-0.098314285 0.13551429 0.55800003 1.7520435e-38
-0.097077146 0.13527143 0.55700004 2.0006817e-38
-0.095843814 0.13502859 0.55600005 2.2311708e-38
-0.094614282 0.13478573 0.55500001 2.1943289e-38
-0.09338858 0.13454285 0.55400002 2.0375963e-38
-0.092333339 0.13454285 0.55400002 1.7155995e-38
-0.091113336 0.13430001 0.55300003 1.577306e-38
-0.089897148 0.13405715 0.55200005 1.4122154e-38
-0.088684767 0.13381429 0.551 1.4767524e-38
-0.087476186 0.13357143 0.55000001 1.8353417e-38
-0.086271435 0.13332859 0.54900002 2.2224189e-38
-0.085225724 0.13332859 0.54900002 2.3234378e-38
-0.084026672 0.13308571 0.54800004 2.3142182e-38
-0.082982861 0.13308571 0.54800004 1.9919333e-38
-0.081789531 0.13284287 0.54700005 1.4940772e-38
-0.080747627 0.13284287 0.54700005 1.1812234e-38
-0.079560004 0.13259999 0.546 1.2641995e-38
-0.07852 0.13259999 0.546 1.3743295e-38
-0.077480003 0.13259999 0.546 1.3466708e-38
-0.076439999 0.13259999 0.546 1.3834752e-38
-0.075399995 0.13259999 0.546 1.6508425e-38
-0.074360006 0.13259999 0.546 2.1022033e-38
-0.073320001 0.13259999 0.546 2.3234369e-38
-0.072279997 0.13259999 0.546 2.341769e-38
-0.07124 0.13259999 0.546 2.341769e-38
-0.070199996 0.13259999 0.546 2.341769e-38
-0.069159999 0.13259999 0.546 2.341769e-38
-0.068120003 0.13259999 0.546 2.341769e-38
-0.067079999 0.13259999 0.546 2.341769e-38
-0.066040002 0.13259999 0.546 2.341769e-38
-0.064999998 0.13259999 0.546 2.341769e-38
-0.064077146 0.13284287 0.54700005 2.3050705e-38
-0.063035242 0.13284287 0.54700005 2.2774118e-38
-0.061993334 0.13284287 0.54700005 2.139587e-38
-0.06095143 0.13284287 0.54700005 2.0750501e-38
-0.05990953 0.13284287 0.54700005 1.863973e-38
-0.058867622 0.13284287 0.54700005 1.780997e-38
-0.057825722 0.13284287 0.54700005 1.8086922e-38
-0.056887619 0.13308571 0.54800004 1.8824482e-38
-0.055843815 0.13308571 0.54800004 2.2039074e-38
-0.054900002 0.13332859 0.54900002 2.2683366e-38
-0.054050475 0.13381429 0.551 2.341769e-38
-0.053193338 0.13430001 0.55300003 2.341769e-38
-0.052140001 0.13430001 0.55300003 2.341769e-38
-0.051086668 0.13430001 0.55300003 1.8070343e-38
-0.050033335 0.13430001 0.55300003 1.5583245e-38
-0.049068574 0.13454285 0.55400002 1.5767636e-38
-0.048013333 0.13454285 0.55400002 1.6045299e-38
-0.046958096 0.13454285 0.55400002 1.6045299e-38
-0.045902859 0.13454285 0.55400002 1.5676516e-38
-0.045171432 0.13551429 0.55800003 1.4662365e-38
-0.04418762 0.13575713 0.55900002 1.4752042e-38
-0.043122858 0.13575713 0.55900002 1.7702302e-38
-0.042058099 0.13575713 0.55900002 2.1850001e-38
-0.041213334 0.13648573 0.56200004 2.3509523e-38
-0.040428575 0.13745716 0.56600004 2.3326213e-38
-0.03935048 0.13745716 0.56600004 1.8439845e-38
-0.038272385 0.13745716 0.56600004 1.458603e-38
-0.037391428 0.13818571 0.56900001 1.458603e-38
-0.036307618 0.13818571 0.56900001 1.4402707e-38
-0.035223808 0.13818571 0.56900001 1.4033924e-38
-0.034320004 0.13891429 0.57200003 1.6697155e-38
-0.099377148 0.13657714 0.55800003 1.1526589e-38
-0.098314285 0.13657714 0.55800003 1.6873936e-38
-0.097077146 0.13633239 0.55700004 1.9822058e-38
-0.095843814 0.13608763 0.55600005 2.2587927e-38
-0.094614282 0.13584284 0.55500001 2.1392999e-38
-0.093557142 0.13584284 0.55500001 1.8442739e-38
-0.092333339 0.13559809 0.55400002 1.5043382e-38
-0.091278099 0.13559809 0.55400002 1.4213621e-38
-0.090060003 0.13535333 0.55300003 1.3389268e-38
-0.088845722 0.13510859 0.55200005 1.3204877e-38
-0.087635234 0.13486381 0.551 1.6512741e-38
-0.086428568 0.13461906 0.55000001 1.9831784e-38
-0.085225724 0.13437429 0.54900002 2.3234378e-38
-0.084180005 0.13437429 0.54900002 2.3234378e-38
-0.082982861 0.13412954 0.54800004 2.3050705e-38
-0.081939049 0.13412954 0.54800004 1.9547271e-38
-0.080895238 0.13412954 0.54800004 1.3288474e-38
-0.079705723 0.13388477 0.54700005 1.1444562e-38
-0.078663819 0.13388477 0.54700005 1.2362468e-38
-0.077621907 0.13388477 0.54700005 1.3284424e-38
-0.076580003 0.13388477 0.54700005 1.4296472e-38
-0.075538106 0.13388477 0.54700005 1.8260884e-38
-0.074360006 0.13364001 0.546 2.3048905e-38
-0.073320001 0.13364001 0.546 2.3417687e-38
-0.072279997 0.13364001 0.546 2.341769e-38
-0.07124 0.13364001 0.546 2.341769e-38
-0.070199996 0.13364001 0.546 2.3326213e-38
-0.069159999 0.13364001 0.546 2.0836931e-38
-0.068120003 0.13364001 0.546 1.9182439e-38
-0.067079999 0.13364001 0.546 2.148733e-38
-0.066040002 0.13364001 0.546 2.3418043e-38
-0.064999998 0.13364001 0.546 2.3418043e-38
-0.064077146 0.13388477 0.54700005 2.341769e-38
-0.06315048 0.13412954 0.54800004 2.341769e-38
-0.062106673 0.13412954 0.54800004 2.3326213e-38
-0.061062861 0.13412954 0.54800004 2.2404257e-38
-0.06001905 0.13412954 0.54800004 2.0017617e-38
-0.058975242 0.13412954 0.54800004 1.8634683e-38
-0.057931431 0.13412954 0.54800004 1.7901446e-38
-0.056991432 0.13437429 0.54900002 1.9192182e-38
-0.055945717 0.13437429 0.54900002 2.3326213e-38
-0.055 0.13461906 0.55000001 2.3326213e-38
-0.054148573 0.13510859 0.55200005 2.341769e-38
-0.053193338 0.13535333 0.55300003 2.341769e-38
-0.052140001 0.13535333 0.55300003 2.3141103e-38
-0.051179051 0.13559809 0.55400002 1.6503018e-38
-0.050123811 0.13559809 0.55400002 1.5032582e-38
-0.049068574 0.13559809 0.55400002 1.6046734e-38
-0.048013333 0.13559809 0.55400002 1.6505561e-38
-0.046958096 0.13559809 0.55400002 1.632117e-38
-0.045902859 0.13559809 0.55400002 1.6045299e-38
-0.045252379 0.13682191 0.55900002 1.5031147e-38
-0.04418762 0.13682191 0.55900002 1.4294276e-38
-0.043200001 0.13706666 0.56 1.4755254e-38
-0.042133335 0.13706666 0.56 2.0097921e-38
-0.041360002 0.13804571 0.56400001 2.350952e-38
-0.040357143 0.13829048 0.565 2.3050705e-38
-0.03935048 0.13853525 0.56600004 1.8256533e-38
-0.038272385 0.13853525 0.56600004 1.5136675e-38
-0.037391428 0.13926953 0.56900001 1.5044479e-38
-0.036307618 0.13926953 0.56900001 1.4126836e-38
-0.035347622 0.13975905 0.57100004 1.4403423e-38
-0.034320004 0.14000382 0.57200003 1.7893906e-38
-0.033288572 0.14024857 0.57300001 1.7248537e-38
-0.10314 0.13986 0.56700003 1.4292503e-38
-0.10169999 0.13936667 0.565 1.1803221e-38
-0.10062381 0.13936667 0.565 1.1066735e-38
-0.099019058 0.13862668 0.56200004 1.4109191e-38
-0.097425714 0.13788667 0.55900002 1.8624909e-38
-0.096016198 0.13739334 0.55700004 2.1482973e-38
-0.094784766 0.13714668 0.55600005 2.0102963e-38
-0.093557142 0.13689999 0.55500001 1.5861964e-38
-0.092500001 0.13689999 0.55500001 1.3019394e-38
-0.091278099 0.13665333 0.55400002 1.3849155e-38
-0.090222858 0.13665333 0.55400002 1.4033561e-38
-0.089006677 0.13640667 0.55300003 1.4125757e-38
-0.087794289 0.13616002 0.55200005 1.5228129e-38
-0.086585715 0.13591333 0.551 1.5873498e-38
-0.085380957 0.13566667 0.55000001 2.0011121e-38
-0.084180005 0.13542001 0.54900002 2.2683359e-38
-0.083134286 0.13542001 0.54900002 2.3234378e-38
-0.082088575 0.13542001 0.54900002 2.3142182e-38
-0.081042856 0.13542001 0.54900002 2.0380663e-38
-0.079851434 0.13517334 0.54800004 1.4387948e-38
-0.07880763 0.13517334 0.54800004 1.2826345e-38
-0.077763818 0.13517334 0.54800004 1.8265888e-38
-0.076720007 0.13517334 0.54800004 2.341769e-38
-0.075676195 0.13517334 0.54800004 2.341769e-38
-0.074496195 0.13492668 0.54700005 2.3417687e-38
-0.073454291 0.13492668 0.54700005 2.3417687e-38
-0.072412387 0.13492668 0.54700005 2.341769e-38
-0.07124 0.13468 0.546 2.341769e-38
-0.070199996 0.13468 0.546 2.1763213e-38
-0.069159999 0.13468 0.546 1.3742194e-38
-0.068120003 0.13468 0.546 1.0260708e-38
-0.067202859 0.13492668 0.54700005 1.2012425e-38
-0.066040002 0.13468 0.546 1.9734884e-38
-0.064999998 0.13468 0.546 2.2683351e-38
-0.064194292 0.13517334 0.54800004 2.341769e-38
-0.063265711 0.13542001 0.54900002 2.341769e-38
-0.06222 0.13542001 0.54900002 2.341769e-38
-0.061174288 0.13542001 0.54900002 2.3325494e-38
-0.060128573 0.13542001 0.54900002 2.2498973e-38
-0.059082858 0.13542001 0.54900002 2.1853604e-38
-0.058037147 0.13542001 0.54900002 2.2314579e-38
-0.057095237 0.13566667 0.55000001 2.2683362e-38
-0.056047622 0.13566667 0.55000001 2.341769e-38
-0.055099998 0.13591333 0.551 2.341769e-38
-0.054148573 0.13616002 0.55200005 2.341769e-38
-0.053193338 0.13640667 0.55300003 1.8900104e-38
-0.052234285 0.13665333 0.55400002 1.5675097e-38
-0.051179051 0.13665333 0.55400002 1.5582901e-38
-0.050123811 0.13665333 0.55400002 1.5953469e-38
-0.049068574 0.13665333 0.55400002 1.6414447e-38
-0.048100002 0.13689999 0.55500001 1.650628e-38
-0.047042858 0.13689999 0.55500001 1.6321889e-38
-0.046068575 0.13714668 0.55600005 1.6138576e-38
-0.045252379 0.13788667 0.55900002 1.5677598e-38
-0.044266667 0.13813333 0.56 1.4297175e-38
-0.043277148 0.13838001 0.56100005 1.3744001e-38
-0.042208575 0.13838001 0.56100005 1.8810429e-38
-0.041433334 0.13936667 0.565 2.2958873e-38
-0.040357143 0.13936667 0.565 2.3142182e-38
-0.03935048 0.13961335 0.56600004 2.0284118e-38
-0.038272385 0.13961335 0.56600004 1.4310548e-38
-0.037457146 0.14060001 0.57000005 1.3480787e-38
-0.036371432 0.14060001 0.57000005 1.3574389e-38
-0.035347622 0.14084667 0.57100004 1.4865128e-38
-0.034320004 0.14109334 0.57200003 1.8538559e-38
-0.033288572 0.14134 0.57300001 1.641806e-38
-0.10277619 0.14044285 0.565 1.4661639e-38
-0.10152 0.1401943 0.56400001 1.2080161e-38
-0.10044572 0.1401943 0.56400001 1.0975586e-38
-0.099371433 0.1401943 0.56400001 1.3741455e-38
-0.097774297 0.13944857 0.56100005 1.595451e-38
-0.096188575 0.13870285 0.55800003 2.0287705e-38
-0.094955251 0.1384543 0.55700004 1.8630745e-38
-0.093725726 0.13820572 0.55600005 1.494292e-38
-0.092500001 0.13795714 0.55500001 1.2835371e-38
-0.091278099 0.13770857 0.55400002 1.3941719e-38
-0.090222858 0.13770857 0.55400002 1.4309066e-38
-0.089167625 0.13770857 0.55400002 1.4493458e-38
-0.087953337 0.13746001 0.55300003 1.4769321e-38
-0.086742863 0.13721143 0.55200005 1.4769321e-38
-0.085536189 0.13696286 0.551 1.7250662e-38
-0.084333338 0.13671429 0.55000001 1.9924336e-38
-0.083134286 0.13646571 0.54900002 2.3326213e-38
-0.082088575 0.13646571 0.54900002 2.3326213e-38
-0.081042856 0.13646571 0.54900002 2.3050705e-38
-0.079997145 0.13646571 0.54900002 1.7703359e-38
-0.078951433 0.13646571 0.54900002 1.4574463e-38
-0.077763818 0.13621716 0.54800004 2.1028157e-38
-0.076720007 0.13621716 0.54800004 2.341769e-38
-0.075676195 0.13621716 0.54800004 2.341769e-38
-0.074632384 0.13621716 0.54800004 2.3417687e-38
-0.073454291 0.13596858 0.54700005 2.3417687e-38
-0.072412387 0.13596858 0.54700005 2.3326213e-38
-0.071370482 0.13596858 0.54700005 2.2219866e-38
-0.070328578 0.13596858 0.54700005 1.4408106e-38
-0.069286674 0.13596858 0.54700005 9.429542e-39
-0.068244763 0.13596858 0.54700005 6.0345013e-39
-0.067202859 0.13596858 0.54700005 6.587675e-39
-0.066160962 0.13596858 0.54700005 1.3664015e-38
-0.065238103 0.13621716 0.54800004 1.7720623e-38
-0.06431143 0.13646571 0.54900002 2.3326208e-38
-0.063265711 0.13646571 0.54900002 2.3326208e-38
-0.06222 0.13646571 0.54900002 2.3417687e-38
-0.061285712 0.13671429 0.55000001 2.3417687e-38
-0.060238093 0.13671429 0.55000001 2.341769e-38
-0.059190478 0.13671429 0.55000001 2.3048907e-38
-0.058142859 0.13671429 0.55000001 2.341769e-38
-0.057095237 0.13671429 0.55000001 2.341769e-38
-0.056149524 0.13696286 0.551 2.341769e-38
-0.055200007 0.13721143 0.55200005 2.341769e-38
-0.054148573 0.13721143 0.55200005 2.341769e-38
-0.053193338 0.13746001 0.55300003 1.68718e-38
-0.052234285 0.13770857 0.55400002 1.4571967e-38
-0.051179051 0.13770857 0.55400002 1.577051e-38
-0.050123811 0.13770857 0.55400002 1.6414084e-38
-0.049157143 0.13795714 0.55500001 1.6598476e-38
-0.048186671 0.13820572 0.55600005 1.6690668e-38
-0.047212381 0.1384543 0.55700004 1.6321886e-38
-0.046234287 0.13870285 0.55800003 1.6046381e-38
-0.045252379 0.13895144 0.55900002 1.5585403e-38
-0.044345718 0.13944857 0.56100005 1.3010399e-38
-0.043354288 0.13969715 0.56200004 1.3563573e-38
-0.042283811 0.13969715 0.56200004 1.9361458e-38
-0.041433334 0.14044285 0.565 2.3233662e-38
-0.040357143 0.14044285 0.565 2.3234378e-38
-0.03935048 0.14069144 0.56600004 2.1390465e-38
-0.038272385 0.14069144 0.56600004 1.8174799e-38
-0.037457146 0.14168572 0.57000005 1.5685517e-38
-0.036371432 0.14168572 0.57000005 1.3757704e-38
-0.035347622 0.14193429 0.57100004 1.532503e-38
-0.034320004 0.14218286 0.57200003 2.0194105e-38
-0.033230476 0.14218286 0.57200003 1.4754563e-38
-0.10277619 0.14151904 0.565 1.4754904e-38
-0.10134 0.14101809 0.56300002 1.3095382e-38
-0.10026763 0.14101809 0.56300002 1.0978843e-38
-0.099371433 0.14126857 0.56400001 1.2546168e-38
-0.097948581 0.14076763 0.56200004 1.5953459e-38
-0.09670572 0.14051716 0.56100005 2.0932023e-38
-0.094955251 0.13951525 0.55700004 1.9183187e-38
-0.093725726 0.13926478 0.55600005 1.5310971e-38
-0.092500001 0.13901427 0.55500001 1.3019777e-38
-0.091442853 0.13901427 0.55500001 1.3941733e-38
-0.090385713 0.13901427 0.55500001 1.4216874e-38
-0.089167625 0.13876382 0.55400002 1.4309069e-38
-0.088112384 0.13876382 0.55400002 1.4678568e-38
-0.087057143 0.13876382 0.55400002 1.4678568e-38
-0.08584667 0.13851334 0.55300003 1.6056808e-38
-0.084486663 0.13801238 0.551 1.6149004e-38
-0.083285719 0.13776191 0.55000001 2.0287705e-38
-0.082238093 0.13776191 0.55000001 2.2683356e-38
-0.081042856 0.13751143 0.54900002 2.3142182e-38
-0.079997145 0.13751143 0.54900002 2.3142182e-38
-0.078951433 0.13751143 0.54900002 2.3326213e-38
-0.077905715 0.13751143 0.54900002 2.3326213e-38
-0.076860003 0.13751143 0.54900002 2.341769e-38
-0.075676195 0.13726096 0.54800004 2.341769e-38
-0.074632384 0.13726096 0.54800004 2.341769e-38
-0.073588572 0.13726096 0.54800004 2.2126951e-38
-0.072544768 0.13726096 0.54800004 1.5962863e-38
-0.071500957 0.13726096 0.54800004 1.2275038e-38
-0.070457146 0.13726096 0.54800004 9.0679593e-39
-0.069286674 0.13701048 0.54700005 9.3445462e-39
-0.068244763 0.13701048 0.54700005 9.8980857e-39
-0.067202859 0.13701048 0.54700005 9.5293032e-39
-0.066160962 0.13701048 0.54700005 1.0907905e-38
-0.065357141 0.13751143 0.54900002 1.0815709e-38
-0.06431143 0.13751143 0.54900002 1.4028148e-38
-0.063265711 0.13751143 0.54900002 1.6701821e-38
-0.062333338 0.13776191 0.55000001 2.1575212e-38
-0.061285712 0.13776191 0.55000001 2.3234375e-38
-0.060238093 0.13776191 0.55000001 2.341769e-38
-0.059190478 0.13776191 0.55000001 2.341769e-38
-0.058248568 0.13801238 0.551 2.341769e-38
-0.057199046 0.13801238 0.551 2.341769e-38
-0.056251429 0.13826287 0.55200005 2.341769e-38
-0.055300001 0.13851334 0.55300003 2.046743e-38
-0.054246668 0.13851334 0.55300003 1.7888123e-38
-0.053289525 0.13876382 0.55400002 1.5767623e-38
-0.052234285 0.13876382 0.55400002 1.5769791e-38
-0.051271427 0.13901427 0.55500001 1.6415161e-38
-0.050304763 0.13926478 0.55600005 1.6599189e-38
-0.049245719 0.13926478 0.55600005 1.6506993e-38
-0.048273336 0.13951525 0.55700004 1.64148e-38
-0.047297146 0.13976572 0.55800003 1.6230409e-38
-0.046317145 0.14001618 0.55900002 1.6138574e-38
-0.04533333 0.14026666 0.56 1.5401009e-38
-0.044345718 0.14051716 0.56100005 1.4113507e-38
-0.043354288 0.14076763 0.56200004 1.7893528e-38
-0.042359047 0.14101809 0.56300002 2.1574516e-38
-0.041433334 0.14151904 0.565 2.3141826e-38
-0.040428575 0.14176954 0.56600004 2.3326213e-38
-0.039420001 0.14202 0.56700003 2.3234018e-38
-0.038340002 0.14202 0.56700003 2.2223829e-38
-0.03752286 0.14302191 0.57100004 2.0656503e-38
-0.036435243 0.14302191 0.57100004 2.010621e-38
-0.035347622 0.14302191 0.57100004 1.9368645e-38
-0.03346286 0.14427429 0.57600003 1.2544739e-38
-0.10134 0.14209048 0.56300002 1.2911351e-38
-0.10026763 0.14209048 0.56300002 1.079624e-38
-0.099371433 0.14234287 0.56400001 1.3377717e-38
-0.097948581 0.1418381 0.56200004 1.724383e-38
-0.09670572 0.14158572 0.56100005 2.0655068e-38
-0.09512572 0.14082858 0.55800003 1.9092792e-38
-0.093894288 0.1405762 0.55700004 1.512838e-38
-0.092666678 0.14032382 0.55600005 1.3110886e-38
-0.091442853 0.14007142 0.55500001 1.3940647e-38
-0.090385713 0.14007142 0.55500001 1.4309066e-38
-0.089328572 0.14007142 0.55500001 1.4401262e-38
-0.088112384 0.13981906 0.55400002 1.495336e-38
-0.087057143 0.13981906 0.55400002 1.5137751e-38
-0.086001903 0.13981906 0.55400002 1.4587448e-38
-0.084640011 0.13931429 0.55200005 1.4218666e-38
-0.083588578 0.13931429 0.55200005 1.7159903e-38
-0.082387611 0.1390619 0.551 1.9649185e-38
-0.081190474 0.13880952 0.55000001 2.3326213e-38
-0.080142856 0.13880952 0.55000001 2.3326213e-38
-0.079095237 0.13880952 0.55000001 2.341769e-38
-0.078047626 0.13880952 0.55000001 2.341769e-38
-0.076860003 0.13855714 0.54900002 2.341769e-38
-0.075814284 0.13855714 0.54900002 2.341769e-38
-0.074768573 0.13855714 0.54900002 2.3142182e-38
-0.073722862 0.13855714 0.54900002 1.8808987e-38
-0.072544768 0.13830477 0.54800004 1.0081392e-38
-0.071500957 0.13830477 0.54800004 8.1452841e-39
-0.070457146 0.13830477 0.54800004 8.5176694e-39
-0.069413334 0.13830477 0.54800004 9.5318213e-39
-0.068369523 0.13830477 0.54800004 1.100227e-38
-0.067325711 0.13830477 0.54800004 1.0541292e-38
-0.066281915 0.13830477 0.54800004 9.9906317e-39
-0.065476187 0.13880952 0.55000001 9.2530666e-39
-0.064428575 0.13880952 0.55000001 9.1612101e-39
-0.063380957 0.13880952 0.55000001 9.437797e-39
-0.062446665 0.1390619 0.551 1.7155937e-38
-0.061397146 0.1390619 0.551 2.0935958e-38
-0.06034762 0.1390619 0.551 2.3418043e-38
-0.059298094 0.1390619 0.551 2.3418043e-38
-0.058354288 0.13931429 0.55200005 2.341769e-38
-0.057302862 0.13931429 0.55200005 2.341769e-38
-0.056353338 0.13956667 0.55300003 2.341769e-38
-0.055400003 0.13981906 0.55400002 1.68718e-38
-0.054344762 0.13981906 0.55400002 1.6226441e-38
-0.053289525 0.13981906 0.55400002 1.6503028e-38
-0.052422862 0.14032382 0.55600005 1.6322965e-38
-0.051363815 0.14032382 0.55600005 1.6507356e-38
-0.050304763 0.14032382 0.55600005 1.6415516e-38
-0.049334288 0.1405762 0.55700004 1.6323321e-38
-0.048360001 0.14082858 0.55800003 1.6230053e-38
-0.047381904 0.14108096 0.55900002 1.6137858e-38
-0.046317145 0.14108096 0.55900002 1.6230769e-38
-0.04533333 0.14133333 0.56 1.5124422e-38
-0.044424765 0.1418381 0.56200004 1.4205708e-38
-0.043431427 0.14209048 0.56300002 2.1120369e-38
-0.042509522 0.14259525 0.565 2.3234378e-38
-0.041433334 0.14259525 0.565 2.3234378e-38
-0.0405 0.14310001 0.56700003 2.3418043e-38
-0.039420001 0.14310001 0.56700003 2.3418043e-38
-0.038340002 0.14310001 0.56700003 2.3326213e-38
-0.03752286 0.14410953 0.57100004 2.3141822e-38
-0.036435243 0.14410953 0.57100004 2.1485557e-38
-0.035533335 0.14486666 0.574 2.0287014e-38
-0.034500003 0.14511906 0.57500005 1.9179941e-38
-0.03346286 0.14537144 0.57600003 1.2541855e-38
-0.032365713 0.14537144 0.57600003 1.1346524e-38
-0.10044572 0.14341713 0.56400001 1.4664853e-38
-0.099371433 0.14341713 0.56400001 1.853707e-38
-0.097948581 0.14290859 0.56200004 2.0377752e-38
-0.096878104 0.14290859 0.56200004 2.1115317e-38
-0.09512572 0.14189143 0.55800003 2.0103342e-38
-0.093894288 0.14163715 0.55700004 1.7337473e-38
-0.092666678 0.14138287 0.55600005 1.3755539e-38
-0.09160763 0.14138287 0.55600005 1.3755539e-38
-0.090548582 0.14138287 0.55600005 1.3941014e-38
-0.089328572 0.14112857 0.55500001 1.4494188e-38
-0.088271424 0.14112857 0.55500001 1.4678212e-38
-0.087214291 0.14112857 0.55500001 1.4678212e-38
-0.086001903 0.14087428 0.55400002 1.4955518e-38
-0.084793337 0.14062001 0.55300003 1.4863322e-38
-0.083740003 0.14062001 0.55300003 1.568983e-38
-0.082537152 0.14036573 0.55200005 1.6150808e-38
-0.081485718 0.14036573 0.55200005 1.9918585e-38
-0.080434293 0.14036573 0.55200005 2.2591531e-38
-0.079239041 0.14011143 0.551 2.341769e-38
-0.078189522 0.14011143 0.551 2.341769e-38
-0.077 0.13985714 0.55000001 2.341769e-38
-0.075952381 0.13985714 0.55000001 2.0375234e-38
-0.074904762 0.13985714 0.55000001 1.347791e-38
-0.073722862 0.13960287 0.54900002 1.0712041e-38
-0.072677143 0.13960287 0.54900002 8.2414384e-39
-0.071631432 0.13960287 0.54900002 9.1633947e-39
-0.07058572 0.13960287 0.54900002 1.0082114e-38
-0.069540001 0.13960287 0.54900002 1.017431e-38
-0.068369523 0.13934858 0.54800004 1.0082114e-38
-0.067325711 0.13934858 0.54800004 9.8977228e-39
-0.066402853 0.13960287 0.54900002 1.0450891e-38
-0.065595239 0.14011143 0.551 1.02665e-38
-0.064545713 0.14011143 0.551 1.0357979e-38
-0.063496187 0.14011143 0.551 9.9891967e-39
-0.06256 0.14036573 0.55200005 1.1733334e-38
-0.061508577 0.14036573 0.55200005 1.2470899e-38
-0.060457144 0.14036573 0.55200005 1.8536003e-38
-0.059405722 0.14036573 0.55200005 2.2591531e-38
-0.058354288 0.14036573 0.55200005 2.341769e-38
-0.057302862 0.14036573 0.55200005 2.341769e-38
-0.05645524 0.14087428 0.55400002 2.341769e-38
-0.055400003 0.14087428 0.55400002 1.6134235e-38
-0.054344762 0.14087428 0.55400002 1.5216617e-38
-0.053385712 0.14112857 0.55500001 1.6230769e-38
-0.052422862 0.14138287 0.55600005 1.6506996e-38
-0.051363815 0.14138287 0.55600005 1.6506996e-38
-0.050395243 0.14163715 0.55700004 1.6323318e-38
-0.049334288 0.14163715 0.55700004 1.6231122e-38
-0.048360001 0.14189143 0.55800003 1.60471e-38
-0.047381904 0.14214572 0.55900002 1.5770513e-38
-0.046399999 0.1424 0.56 1.5126945e-38
-0.04533333 0.1424 0.56 1.4020598e-38
-0.044424765 0.14290859 0.56200004 1.6506996e-38
-0.043508574 0.14341713 0.56400001 2.2591531e-38
-0.042509522 0.14367142 0.565 2.3326213e-38
-0.04150667 0.14392573 0.56600004 2.0744736e-38
-0.0405 0.14418 0.56700003 2.2222001e-38
-0.039489523 0.14443429 0.56800002 2.3142523e-38
-0.03840762 0.14443429 0.56800002 2.3326213e-38
-0.037588574 0.14545144 0.57200003 2.3326213e-38
-0.036626667 0.14595999 0.574 2.3234378e-38
-0.035595242 0.14621429 0.57500005 2.1113878e-38
-0.034500003 0.14621429 0.57500005 1.8075391e-38
-0.033404768 0.14621429 0.57500005 1.1713892e-38
-0.032309525 0.14621429 0.57500005 1.1073222e-38
-0.099371433 0.14449143 0.56400001 1.9640919e-38
-0.097948581 0.14397906 0.56200004 2.0837304e-38
-0.096878104 0.14397906 0.56200004 2.0652913e-38
-0.09563715 0.14372286 0.56100005 2.0011847e-38
-0.094062865 0.14295429 0.55800003 1.8721108e-38
-0.093000002 0.14295429 0.55800003 1.4677513e-38
-0.091772385 0.14269809 0.55700004 1.3663361e-38
-0.090548582 0.14244191 0.55600005 1.3297438e-38
-0.089489534 0.14244191 0.55600005 1.4035003e-38
-0.088271424 0.14218572 0.55500001 1.4401988e-38
-0.087214291 0.14218572 0.55500001 1.4678575e-38
-0.086157143 0.14218572 0.55500001 1.5231025e-38
-0.08494667 0.14192952 0.55400002 1.513883e-38
-0.083740003 0.14167334 0.55300003 1.4127915e-38
-0.08268667 0.14167334 0.55300003 1.3851328e-38
-0.081485718 0.14141715 0.55200005 1.7710924e-38
-0.080434293 0.14141715 0.55200005 2.1673176e-38
-0.079382859 0.14141715 0.55200005 2.341769e-38
-0.078189522 0.14116095 0.551 2.341769e-38
-0.077140003 0.14116095 0.551 2.3326213e-38
-0.075952381 0.14090475 0.55000001 1.6134954e-38
-0.074904762 0.14090475 0.55000001 1.1086533e-38
-0.073857144 0.14090475 0.55000001 1.0072381e-38
-0.072809525 0.14090475 0.55000001 9.0697572e-39
-0.071761906 0.14090475 0.55000001 9.7151266e-39
-0.07058572 0.14064857 0.54900002 1.0082111e-38
-0.069540001 0.14064857 0.54900002 9.9899156e-39
-0.06849429 0.14064857 0.54900002 9.8062502e-39
-0.067448579 0.14064857 0.54900002 9.9906415e-39
-0.066402853 0.14064857 0.54900002 1.0542371e-38
-0.065714292 0.14141715 0.55200005 1.0450175e-38
-0.064662859 0.14141715 0.55200005 9.7158469e-39
-0.063611433 0.14141715 0.55200005 9.43926e-39
-0.062673338 0.14167334 0.55300003 9.2559337e-39
-0.061620004 0.14167334 0.55300003 7.2276298e-39
-0.060566671 0.14167334 0.55300003 1.439797e-38
-0.059513334 0.14167334 0.55300003 2.0938479e-38
-0.058460001 0.14167334 0.55300003 2.341769e-38
-0.057510477 0.14192952 0.55400002 2.341769e-38
-0.056557145 0.14218572 0.55500001 2.2772684e-38
-0.055500001 0.14218572 0.55500001 1.6042403e-38
-0.054442856 0.14218572 0.55500001 1.5400648e-38
-0.05348191 0.14244191 0.55600005 1.6506996e-38
-0.052517146 0.14269809 0.55700004 1.6506996e-38
-0.051456194 0.14269809 0.55700004 1.6506996e-38
-0.050485715 0.14295429 0.55800003 1.6415516e-38
-0.049422856 0.14295429 0.55800003 1.6323321e-38
-0.04844667 0.14321047 0.55900002 1.5954904e-38
-0.047381904 0.14321047 0.55900002 1.5493926e-38
-0.046399999 0.14346667 0.56 1.4299346e-38
-0.045414291 0.14372286 0.56100005 1.4575932e-38
-0.044503808 0.14423524 0.56300002 1.8625363e-38
-0.043585714 0.14474761 0.565 2.2774125e-38
-0.042509522 0.14474761 0.565 2.3050705e-38
-0.04150667 0.14500383 0.56600004 1.7242381e-38
-0.0405 0.14526001 0.56700003 1.7062656e-38
-0.039489523 0.1455162 0.56800002 2.1119263e-38
-0.03840762 0.1455162 0.56800002 2.332621e-38
-0.037588574 0.14654095 0.57200003 2.332621e-38
-0.036626667 0.14705333 0.574 2.3326213e-38
-0.035533335 0.14705333 0.574 2.1205714e-38
-0.034500003 0.14730954 0.57500005 1.7613328e-38
-0.033404768 0.14730954 0.57500005 1.2450373e-38
-0.032309525 0.14730954 0.57500005 1.2635856e-38
-0.031322856 0.14782192 0.57700002 1.7337833e-38
-0.099371433 0.14556572 0.56400001 2.0192663e-38
-0.098122865 0.14530763 0.56300002 1.9732033e-38
-0.096878104 0.14504954 0.56200004 1.7242751e-38
-0.095807627 0.14504954 0.56200004 1.6695681e-38
-0.094231427 0.14427523 0.55900002 1.9553745e-38
-0.093000002 0.14401715 0.55800003 1.8632537e-38
-0.091937147 0.14401715 0.55800003 1.6143255e-38
-0.090711437 0.14375906 0.55700004 1.4033198e-38
-0.089489534 0.14350095 0.55600005 1.4309785e-38
-0.088430487 0.14350095 0.55600005 1.4494184e-38
-0.087371431 0.14350095 0.55600005 1.4955162e-38
-0.086157143 0.14324285 0.55500001 1.5139546e-38
-0.08494667 0.14298476 0.55400002 1.5139546e-38
-0.083740003 0.14272667 0.55300003 1.4955532e-38
-0.08268667 0.14272667 0.55300003 1.477114e-38
-0.081633337 0.14272667 0.55300003 1.6515994e-38
-0.080434293 0.14246859 0.55200005 1.9650642e-38
-0.079382859 0.14246859 0.55200005 2.341769e-38
-0.078331433 0.14246859 0.55200005 2.341769e-38
-0.077140003 0.14221047 0.551 2.3142182e-38
-0.07609047 0.14221047 0.551 1.3738228e-38
-0.075040951 0.14221047 0.551 5.5735385e-39
-0.073991433 0.14221047 0.551 7.694038e-39
-0.072809525 0.14195238 0.55000001 9.621852e-39
-0.071761906 0.14195238 0.55000001 9.8984388e-39
-0.070714287 0.14195238 0.55000001 1.0082111e-38
-0.069666669 0.14195238 0.55000001 9.9899156e-39
-0.06861905 0.14195238 0.55000001 9.9902785e-39
-0.067571431 0.14195238 0.55000001 1.0266865e-38
-0.066523805 0.14195238 0.55000001 1.0542726e-38
-0.065714292 0.14246859 0.55200005 1.0450531e-38
-0.064662859 0.14246859 0.55200005 1.0175386e-38
-0.063726671 0.14272667 0.55300003 1.0175386e-38
-0.062673338 0.14272667 0.55300003 1.0083909e-38
-0.061620004 0.14272667 0.55300003 7.5024315e-39
-0.060676191 0.14298476 0.55400002 1.30201e-38
-0.059620954 0.14298476 0.55400002 1.9836466e-38
-0.058565717 0.14298476 0.55400002 2.341769e-38
-0.057510477 0.14298476 0.55400002 2.341769e-38
-0.056557145 0.14324285 0.55500001 2.3326213e-38
-0.055600002 0.14350095 0.55600005 1.5397389e-38
-0.054540958 0.14350095 0.55600005 1.3194447e-38
-0.053578097 0.14375906 0.55700004 1.4853968e-38
-0.052517146 0.14375906 0.55700004 1.6415161e-38
-0.051456194 0.14375906 0.55700004 1.6507356e-38
-0.050485715 0.14401715 0.55800003 1.6415161e-38
-0.049511429 0.14427523 0.55900002 1.6415161e-38
-0.048533332 0.14453332 0.56 1.5678684e-38
-0.047466666 0.14453332 0.56 1.4480141e-38
-0.046482861 0.14479144 0.56100005 1.5216257e-38
-0.045414291 0.14479144 0.56100005 2.1485559e-38
-0.044503808 0.14530763 0.56300002 2.341769e-38
-0.043585714 0.14582381 0.565 2.341769e-38
-0.042509522 0.14582381 0.565 2.2591517e-38
-0.04150667 0.14608192 0.56600004 1.2265606e-38
-0.0405 0.14634001 0.56700003 9.1532816e-39
-0.039489523 0.1465981 0.56800002 1.0720607e-38
-0.03840762 0.1465981 0.56800002 1.4484813e-38
-0.037588574 0.14763048 0.57200003 1.9739964e-38
-0.036626667 0.14814666 0.574 2.2312437e-38
-0.035533335 0.14814666 0.574 1.9546568e-38
-0.034500003 0.14840478 0.57500005 1.6507324e-38
-0.033404768 0.14840478 0.57500005 1.2266325e-38
-0.032421906 0.14892095 0.57700002 1.2821339e-38
-0.031322856 0.14892095 0.57700002 1.7799903e-38
-0.099723816 0.14716001 0.56600004 2.000718e-38
-0.098471425 0.1469 0.565 1.853565e-38
-0.097050481 0.14638001 0.56300002 1.4386847e-38
-0.095978096 0.14638001 0.56300002 1.4391466e-38
-0.094400004 0.14560001 0.56 1.9093443e-38
-0.093166672 0.14534001 0.55900002 2.0473566e-38
-0.091937147 0.14508002 0.55800003 1.8168675e-38
-0.090874292 0.14508002 0.55800003 1.3482569e-38
-0.089650482 0.14482 0.55700004 1.3759156e-38
-0.088430487 0.14456001 0.55600005 1.4493823e-38
-0.087371431 0.14456001 0.55600005 1.4862606e-38
-0.086312383 0.14456001 0.55600005 1.4955518e-38
-0.085100003 0.1443 0.55500001 1.5047713e-38
-0.083891436 0.14404 0.55400002 1.5967146e-38
-0.08268667 0.14378001 0.55300003 1.5229581e-38
-0.081633337 0.14378001 0.55300003 1.5504729e-38
-0.080580011 0.14378001 0.55300003 1.9100347e-38
-0.07952667 0.14378001 0.55300003 2.3326213e-38
-0.078331433 0.14352001 0.55200005 2.3326213e-38
-0.077280007 0.14352001 0.55200005 2.2774842e-38
-0.07609047 0.14326 0.551 1.373967e-38
-0.075040951 0.14326 0.551 6.6755645e-39
-0.073991433 0.14326 0.551 8.5194771e-39
-0.072941899 0.14326 0.551 9.8055243e-39
-0.071892381 0.14326 0.551 9.9899156e-39
-0.070842862 0.14326 0.551 1.0082108e-38
-0.069793329 0.14326 0.551 1.0082108e-38
-0.06874381 0.14326 0.551 1.0174307e-38
-0.067694284 0.14326 0.551 1.0266502e-38
-0.066644758 0.14326 0.551 1.0083546e-38
-0.065714292 0.14352001 0.55200005 1.0267937e-38
-0.064662859 0.14352001 0.55200005 1.0359417e-38
-0.063726671 0.14378001 0.55300003 1.0267221e-38
-0.062673338 0.14378001 0.55300003 9.6236512e-39
-0.061731428 0.14404 0.55400002 7.8719343e-39
-0.060676191 0.14404 0.55400002 1.292793e-38
-0.059620954 0.14404 0.55400002 1.9652795e-38
-0.058565717 0.14404 0.55400002 2.341769e-38
-0.057614285 0.1443 0.55500001 2.341769e-38
-0.05665905 0.14456001 0.55600005 2.3234378e-38
-0.055600002 0.14456001 0.55600005 1.7333857e-38
-0.054540958 0.14456001 0.55600005 1.4481968e-38
-0.053578097 0.14482 0.55700004 1.5127338e-38
-0.052611433 0.14508002 0.55800003 1.5863431e-38
-0.051548574 0.14508002 0.55800003 1.6047823e-38
-0.050576191 0.14534001 0.55900002 1.6415161e-38
-0.049600001 0.14560001 0.56 1.6230769e-38
-0.048533332 0.14560001 0.56 1.5586842e-38
-0.047551431 0.14586002 0.56100005 1.4757081e-38
-0.046482861 0.14586002 0.56100005 1.4942567e-38
-0.045495242 0.14612001 0.56200004 2.1765011e-38
-0.044582859 0.14664 0.56400001 2.3050705e-38
-0.043585714 0.1469 0.565 2.295851e-38
-0.042584766 0.14716001 0.56600004 1.7897108e-38
-0.041580003 0.14742002 0.56700003 1.1166827e-38
-0.040571429 0.14768001 0.56800002 6.4900676e-39
-0.039559048 0.14794001 0.56900001 6.397872e-39
-0.038542863 0.14820002 0.57000005 1.0164178e-38
-0.037719999 0.14923999 0.574 1.624909e-38
-0.036690477 0.1495 0.57500005 2.1669588e-38
