# .PCD v0.7 - Point Cloud Data file format
VERSION 0.7
FIELDS x y z rgb
SIZE 4 4 4 4
TYPE F F F F
COUNT 1 1 1 1
WIDTH 1013
HEIGHT 1
VIEWPOINT 0 0 0 1 0 0 0
POINTS 1013
DATA ascii
-0.14233714 0.13271049 0.72200006 1.7984997e-38
-0.14115715 0.13289431 0.72300005 1.7524019e-38
-0.14016667 0.1332619 0.72500002 1.2462971e-38
-0.13936 0.13381335 0.72800004 5.5482983e-39
-0.13835238 0.13418095 0.73000002 5.9249548e-39
-0.13714953 0.13436477 0.73100001 1.1180106e-38
-0.13631429 0.13491619 0.73400003 1.5216961e-38
-0.13565144 0.13565144 0.73800004 1.5124765e-38
-0.13497335 0.13638668 0.74200004 1.5857283e-38
-0.13392 0.13675429 0.74400002 1.6779239e-38
-0.20144285 0.13315715 0.71700001 1.4382518e-38
-0.19979811 0.13297144 0.71600002 1.4105931e-38
-0.19843429 0.13297144 0.71600002 1.2728042e-38
-0.19652 0.13260001 0.71400005 1.171389e-38
-0.19516002 0.13260001 0.71400005 1.1441972e-38
-0.19380002 0.13260001 0.71400005 1.3562471e-38
-0.19244 0.13260001 0.71400005 1.4941823e-38
-0.19027714 0.13204286 0.71100003 1.4665236e-38
-0.18812571 0.13148572 0.708 1.613779e-38
-0.18651333 0.1313 0.70700002 1.8811464e-38
-0.18490477 0.1311143 0.70600003 2.046743e-38
-0.18356 0.1311143 0.70600003 2.0559625e-38
-0.18169905 0.13074286 0.70400006 1.6416968e-38
-0.18035811 0.13074286 0.70400006 1.2175969e-38
-0.17901716 0.13074286 0.70400006 1.4114932e-38
-0.1776762 0.13074286 0.70400006 2.0384235e-38
-0.17633525 0.13074286 0.70400006 2.0839825e-38
-0.1749943 0.13074286 0.70400006 1.9088108e-38
-0.17365335 0.13074286 0.70400006 1.5687685e-38
-0.17231239 0.13074286 0.70400006 1.4028164e-38
-0.17097144 0.13074286 0.70400006 1.3111592e-38
-0.16963048 0.13074286 0.70400006 1.3941353e-38
-0.16828953 0.13074286 0.70400006 1.7801685e-38
-0.16742286 0.1311143 0.70600003 2.1856847e-38
-0.16607809 0.1311143 0.70600003 2.3326213e-38
-0.16473334 0.1311143 0.70600003 2.0191562e-38
-0.16338858 0.1311143 0.70600003 1.6505201e-38
-0.16227333 0.1313 0.70700002 1.5859832e-38
-0.16092667 0.1313 0.70700002 1.8993729e-38
-0.15958001 0.1313 0.70700002 2.3234369e-38
-0.15823333 0.1313 0.70700002 2.3234378e-38
-0.15710858 0.13148572 0.708 2.3049986e-38
-0.15576001 0.13148572 0.708 2.1671381e-38
-0.15441144 0.13148572 0.708 1.7153795e-38
-0.15306287 0.13148572 0.708 1.7157022e-38
-0.15214287 0.13185716 0.71000004 2.176501e-38
-0.15100287 0.13204286 0.71100003 2.2222033e-38
-0.15006953 0.1324143 0.71300006 1.8349817e-38
-0.14871144 0.1324143 0.71300006 1.4950107e-38
-0.14756 0.13260001 0.71400005 1.4304738e-38
-0.14660953 0.13297144 0.71600002 1.3572208e-38
-0.14524572 0.13297144 0.71600002 1.3480012e-38
-0.14408286 0.13315715 0.71700001 1.3937037e-38
-0.14311525 0.13352858 0.71900004 1.3844841e-38
-0.14233714 0.13408571 0.72200006 1.7156303e-38
-0.14115715 0.13427144 0.72300005 1.7893868e-38
-0.14016667 0.13464285 0.72500002 1.3935583e-38
-0.13936 0.13520001 0.72800004 6.098954e-39
-0.13835238 0.13557144 0.73000002 5.0973969e-39
-0.13714953 0.13575713 0.73100001 1.1274504e-38
-0.13631429 0.13631429 0.73400003 1.5861264e-38
-0.13528381 0.13668573 0.73600006 1.530809e-38
-0.20144285 0.13452287 0.71700001 1.4566907e-38
-0.20007715 0.13452287 0.71700001 1.4382515e-38
-0.19843429 0.13433523 0.71600002 1.3280852e-38
-0.19707048 0.13433523 0.71600002 1.2358896e-38
-0.19570667 0.13433523 0.71600002 1.0798407e-38
-0.19434287 0.13433523 0.71600002 1.1535972e-38
-0.19297905 0.13433523 0.71600002 1.429751e-38
-0.19108002 0.13396001 0.71400005 1.5864836e-38
-0.18865715 0.13320953 0.71000004 1.7057633e-38
-0.18677714 0.13283429 0.708 1.9823502e-38
-0.18516667 0.13264666 0.70700002 2.056107e-38
-0.18381999 0.13264666 0.70700002 1.8624962e-38
-0.18221524 0.13245904 0.70600003 1.3199091e-38
-0.18087047 0.13245904 0.70600003 8.9580919e-39
-0.17952573 0.13245904 0.70600003 1.2458586e-38
-0.1776762 0.13208382 0.70400006 1.8082519e-38
-0.17633525 0.13208382 0.70400006 2.1759601e-38
-0.1749943 0.13208382 0.70400006 2.1206427e-38
-0.17365335 0.13208382 0.70400006 1.8264834e-38
-0.17231239 0.13208382 0.70400006 1.4853596e-38
-0.17145716 0.13245904 0.70600003 1.3477854e-38
-0.17011239 0.13245904 0.70600003 1.504518e-38
-0.16876763 0.13245904 0.70600003 2.0837304e-38
-0.16742286 0.13245904 0.70600003 2.3142185e-38
-0.16607809 0.13245904 0.70600003 2.3326213e-38
-0.16496667 0.13264666 0.70700002 1.7241302e-38
-0.16362001 0.13264666 0.70700002 1.5306626e-38
-0.16227333 0.13264666 0.70700002 1.521443e-38
-0.16092667 0.13264666 0.70700002 1.6872128e-38
-0.15958001 0.13264666 0.70700002 2.148191e-38
-0.15845715 0.13283429 0.708 2.3325129e-38
-0.15710858 0.13283429 0.708 2.350952e-38
-0.15576001 0.13283429 0.708 2.3050705e-38
-0.15484762 0.13320953 0.71000004 2.2128749e-38
-0.15349525 0.13320953 0.71000004 2.0104784e-38
-0.15235715 0.13339715 0.71100003 2.1856488e-38
-0.15100287 0.13339715 0.71100003 2.1484831e-38
-0.15006953 0.13377239 0.71300006 1.6782854e-38
-0.14871144 0.13377239 0.71300006 1.3572208e-38
-0.14797334 0.13433523 0.71600002 1.3572208e-38
-0.14660953 0.13433523 0.71600002 1.375552e-38
-0.14544858 0.13452287 0.71700001 1.3571129e-38
-0.14408286 0.13452287 0.71700001 1.3294542e-38
-0.14311525 0.1348981 0.71900004 1.311015e-38
-0.1425343 0.13564858 0.72300005 1.7156303e-38
-0.14154762 0.13602382 0.72500002 1.8447042e-38
-0.14055334 0.13639906 0.72700006 1.5133072e-38
-0.13936 0.13658668 0.72800004 6.1900958e-39
-0.13835238 0.13696191 0.73000002 7.0251856e-39
-0.13752477 0.13752477 0.73300004 1.3571075e-38
-0.13631429 0.13771239 0.73400003 1.7058715e-38
-0.13528381 0.13808762 0.73600006 1.5583585e-38
-0.20007715 0.13588856 0.71700001 1.438395e-38
-0.19871143 0.13588856 0.71700001 1.3096821e-38
-0.19707048 0.13569905 0.71600002 1.2543648e-38
-0.19570667 0.13569905 0.71600002 1.1167563e-38
-0.19434287 0.13569905 0.71600002 1.0614389e-38
-0.19297905 0.13569905 0.71600002 1.2087341e-38
-0.19108002 0.13532001 0.71400005 1.5590775e-38
-0.18865715 0.13456191 0.71000004 1.8348012e-38
-0.18677714 0.13418286 0.708 1.9823142e-38
-0.18542856 0.13418286 0.708 1.8074657e-38
-0.18407999 0.13418286 0.708 1.1713158e-38
-0.18247333 0.13399334 0.70700002 6.2048137e-39
-0.18087047 0.13380381 0.70600003 4.9140749e-39
-0.17952573 0.13380381 0.70600003 7.9493378e-39
-0.17818096 0.13380381 0.70600003 1.0899598e-38
-0.17683619 0.13380381 0.70600003 1.7429954e-38
-0.1749943 0.13342477 0.70400006 2.1394366e-38
-0.17365335 0.13342477 0.70400006 2.0932021e-38
-0.1728019 0.13380381 0.70600003 1.9272499e-38
-0.17145716 0.13380381 0.70600003 1.8999139e-38
-0.17035334 0.13399334 0.70700002 2.1027443e-38
-0.16900666 0.13399334 0.70700002 2.2588655e-38
-0.16766 0.13399334 0.70700002 2.1574503e-38
-0.16631334 0.13399334 0.70700002 1.9362512e-38
-0.16496667 0.13399334 0.70700002 1.3738578e-38
-0.16385144 0.13418286 0.708 1.245325e-38
-0.16250286 0.13418286 0.708 1.2545445e-38
-0.16115429 0.13418286 0.708 1.346201e-38
-0.15980572 0.13418286 0.708 1.4383966e-38
-0.15845715 0.13418286 0.708 1.7330229e-38
-0.15755239 0.13456191 0.71000004 2.1663424e-38
-0.15620001 0.13456191 0.71000004 2.2680488e-38
-0.15484762 0.13456191 0.71000004 2.3325856e-38
-0.15349525 0.13456191 0.71000004 2.3326213e-38
-0.15235715 0.13475142 0.71100003 2.0929127e-38
-0.15142763 0.13513048 0.71300006 1.7709852e-38
-0.15006953 0.13513048 0.71300006 1.5589353e-38
-0.14892001 0.13532001 0.71400005 1.4123584e-38
-0.14797334 0.13569905 0.71600002 1.3939192e-38
-0.14681429 0.13588856 0.71700001 1.3847718e-38
-0.14544858 0.13588856 0.71700001 1.3571131e-38
-0.14448477 0.13626763 0.71900004 1.3661877e-38
-0.1433143 0.13645715 0.72000003 1.4122855e-38
-0.1425343 0.13702573 0.72300005 1.8168287e-38
-0.14154762 0.13740477 0.72500002 2.0473178e-38
-0.14074668 0.13797334 0.72800004 1.9181748e-38
-0.13974287 0.13835238 0.73000002 1.3926597e-38
-0.13854189 0.13854189 0.73100001 1.3196888e-38
-0.13752477 0.13892095 0.73300004 1.5409583e-38
-0.13668573 0.13948955 0.73600006 1.7150535e-38
-0.13528381 0.13948955 0.73600006 1.5859797e-38
-0.20007715 0.13725428 0.71700001 1.4476149e-38
-0.19871143 0.13725428 0.71700001 1.346596e-38
-0.1973457 0.13725428 0.71700001 1.2912786e-38
-0.19598 0.13725428 0.71700001 1.1443787e-38
-0.19434287 0.13706286 0.71600002 1.0614026e-38
-0.19297905 0.13706286 0.71600002 1.208661e-38
-0.19161524 0.13706286 0.71600002 1.5590044e-38
-0.18892285 0.13610572 0.71100003 1.8073227e-38
-0.18730478 0.1359143 0.71000004 1.844201e-38
-0.1859524 0.1359143 0.71000004 1.4854659e-38
-0.18407999 0.13553143 0.708 7.6634e-39
-0.18247333 0.13534001 0.70700002 2.3455676e-39
-0.18112667 0.13534001 0.70700002 4.1894802e-39
-0.17952573 0.13514857 0.70600003 6.5753885e-39
-0.17818096 0.13514857 0.70600003 7.0363666e-39
-0.17683619 0.13514857 0.70600003 1.3377665e-38
-0.17549144 0.13514857 0.70600003 1.8171838e-38
-0.17414667 0.13514857 0.70600003 2.2035822e-38
-0.1728019 0.13514857 0.70600003 2.1390453e-38
-0.1717 0.13534001 0.70700002 2.120644e-38
-0.17035334 0.13534001 0.70700002 2.268157e-38
-0.16900666 0.13534001 0.70700002 2.3326213e-38
-0.16766 0.13534001 0.70700002 1.8808627e-38
-0.16631334 0.13534001 0.70700002 1.6137469e-38
-0.16520001 0.13553143 0.708 1.3463796e-38
-0.16385144 0.13553143 0.708 1.3373048e-38
-0.16250286 0.13553143 0.708 1.3741831e-38
-0.16115429 0.13553143 0.708 1.3557074e-38
-0.15980572 0.13553143 0.708 1.2635117e-38
-0.15845715 0.13553143 0.708 1.4565779e-38
-0.15755239 0.1359143 0.71000004 1.7516039e-38
-0.15620001 0.1359143 0.71000004 2.1479045e-38
-0.15484762 0.1359143 0.71000004 2.350915e-38
-0.15371142 0.13610572 0.71100003 2.3142182e-38
-0.15278573 0.13648859 0.71300006 1.9730944e-38
-0.15142763 0.13648859 0.71300006 1.5594388e-38
-0.15028 0.13668001 0.71400005 1.4764627e-38
-0.14933714 0.13706286 0.71600002 1.4400173e-38
-0.14818001 0.13725428 0.71700001 1.4031391e-38
-0.14681429 0.13725428 0.71700001 1.4031391e-38
-0.14585429 0.13763715 0.71900004 1.3662608e-38
-0.14448477 0.13763715 0.71900004 1.3936669e-38
-0.1433143 0.13782857 0.72000003 1.5503994e-38
-0.14233714 0.13821143 0.72200006 1.853565e-38
-0.14154762 0.13878572 0.72500002 2.0195172e-38
-0.14074668 0.13936 0.72800004 2.0285569e-38
-0.13974287 0.13974287 0.73000002 1.6597744e-38
-0.13854189 0.13993429 0.73100001 1.5861236e-38
-0.13752477 0.14031714 0.73300004 1.6783192e-38
-0.13668573 0.14089143 0.73600006 1.7701551e-38
-0.13528381 0.14089143 0.73600006 1.6503008e-38
-0.20007715 0.13861999 0.71700001 1.4476143e-38
-0.19871143 0.13861999 0.71700001 1.4016976e-38
-0.1973457 0.13861999 0.71700001 1.4109171e-38
-0.19598 0.13861999 0.71700001 1.2180273e-38
-0.19434287 0.13842668 0.71600002 1.0981729e-38
-0.19297905 0.13842668 0.71600002 1.1535254e-38
-0.19161524 0.13842668 0.71600002 1.3379166e-38
-0.18892285 0.13746001 0.71100003 1.6506602e-38
-0.18756858 0.13746001 0.71100003 1.696758e-38
-0.1859524 0.13726667 0.71000004 1.4854261e-38
-0.18460001 0.13726667 0.71000004 8.3083715e-39
-0.18273142 0.13688 0.708 4.9194951e-39
-0.18112667 0.13668667 0.70700002 6.3024295e-39
-0.17952573 0.13649334 0.70600003 7.3111837e-39
-0.17818096 0.13649334 0.70600003 6.9424011e-39
-0.17683619 0.13649334 0.70600003 1.0068363e-38
-0.17549144 0.13649334 0.70600003 1.0805928e-38
-0.17414667 0.13649334 0.70600003 1.6233576e-38
-0.1728019 0.13649334 0.70600003 2.1304336e-38
-0.1717 0.13668667 0.70700002 2.2312068e-38
-0.17035334 0.13668667 0.70700002 2.1758895e-38
-0.16924572 0.13688 0.708 2.0192272e-38
-0.16789715 0.13688 0.708 1.3646383e-38
-0.16654858 0.13688 0.708 1.282059e-38
-0.16520001 0.13688 0.708 1.3742547e-38
-0.16385144 0.13688 0.708 1.4386481e-38
-0.16250286 0.13688 0.708 1.4478677e-38
-0.16115429 0.13688 0.708 1.4570509e-38
-0.16025715 0.13726667 0.71000004 1.4201727e-38
-0.15890476 0.13726667 0.71000004 1.4199206e-38
-0.15755239 0.13726667 0.71000004 1.3461641e-38
-0.15620001 0.13726667 0.71000004 1.4935695e-38
-0.15506572 0.13746001 0.71100003 2.2864519e-38
-0.15371142 0.13746001 0.71100003 2.3050705e-38
-0.15278573 0.13784668 0.71300006 1.8901902e-38
-0.15164001 0.13804002 0.71400005 1.4306533e-38
-0.15070096 0.13842668 0.71600002 1.4214337e-38
-0.14954571 0.13861999 0.71700001 1.4491653e-38
-0.14818001 0.13861999 0.71700001 1.4030675e-38
-0.14722382 0.13900667 0.71900004 1.375517e-38
-0.14585429 0.13900667 0.71900004 1.3294191e-38
-0.14448477 0.13900667 0.71900004 1.4304012e-38
-0.1433143 0.1392 0.72000003 1.7346468e-38
-0.14233714 0.13958667 0.72200006 2.0008982e-38
-0.14154762 0.14016667 0.72500002 1.9916787e-38
-0.14113334 0.14113334 0.73000002 1.9824581e-38
-0.13993429 0.14132667 0.73100001 1.8902625e-38
-0.13854189 0.14132667 0.73100001 1.8810783e-38
-0.13771239 0.14190666 0.73400003 1.7796631e-38
-0.13631429 0.14190666 0.73400003 1.7149816e-38
-0.13491619 0.14190666 0.73400003 1.5766882e-38
-0.19926573 0.1403762 0.71900004 1.4568344e-38
-0.1973457 0.13998571 0.71700001 1.4937127e-38
-0.19598 0.13998571 0.71700001 1.3559597e-38
-0.19461429 0.13998571 0.71700001 1.2084467e-38
-0.19324857 0.13998571 0.71700001 1.0983878e-38
-0.19161524 0.13979048 0.71600002 1.2551203e-38
-0.18892285 0.13881429 0.71100003 1.4944327e-38
-0.18756858 0.13881429 0.71100003 1.5866283e-38
-0.1862143 0.13881429 0.71100003 1.2277153e-38
-0.18460001 0.13861905 0.71000004 7.9439582e-39
-0.18324763 0.13861905 0.71000004 5.4712171e-39
-0.18138285 0.13822857 0.708 6.3931734e-39
-0.17977999 0.13803333 0.70700002 6.667975e-39
-0.17843334 0.13803333 0.70700002 6.7601707e-39
-0.17708668 0.13803333 0.70700002 7.2196887e-39
-0.17598857 0.13822857 0.708 6.0211455e-39
-0.17464 0.13822857 0.708 1.2272747e-38
-0.17329141 0.13822857 0.708 2.0385963e-38
-0.17194286 0.13822857 0.708 2.2128766e-38
-0.17059429 0.13822857 0.708 2.1022418e-38
-0.16924572 0.13822857 0.708 1.7614034e-38
-0.16789715 0.13822857 0.708 1.2819862e-38
-0.16654858 0.13822857 0.708 1.3003547e-38
-0.16566667 0.13861905 0.71000004 1.420209e-38
-0.1643143 0.13861905 0.71000004 1.4661989e-38
-0.16296192 0.13861905 0.71000004 1.4754185e-38
-0.16160953 0.13861905 0.71000004 1.4754541e-38
-0.16025715 0.13861905 0.71000004 1.4662345e-38
-0.15912858 0.13881429 0.71100003 1.4292841e-38
-0.1577743 0.13881429 0.71100003 1.2448928e-38
-0.15642001 0.13881429 0.71100003 1.3741053e-38
-0.15550192 0.13920477 0.71300006 2.2591475e-38
-0.15414383 0.13920477 0.71300006 2.2774842e-38
-0.15278573 0.13920477 0.71300006 1.8994821e-38
-0.15164001 0.13940001 0.71400005 1.4582051e-38
-0.15070096 0.13979048 0.71600002 1.4397659e-38
-0.14954571 0.13998571 0.71700001 1.4492006e-38
-0.14818001 0.13998571 0.71700001 1.3938832e-38
-0.14722382 0.1403762 0.71900004 1.3571129e-38
-0.14585429 0.1403762 0.71900004 1.3017955e-38
-0.14468573 0.14057143 0.72000003 1.4763192e-38
-0.1433143 0.14057143 0.72000003 1.8727604e-38
-0.1425343 0.14115715 0.72300005 2.0654708e-38
-0.14193811 0.14193811 0.72700006 2.0009338e-38
-0.14113334 0.14252381 0.73000002 2.0007533e-38
-0.13993429 0.14271905 0.73100001 1.945436e-38
-0.13854189 0.14271905 0.73100001 1.9269966e-38
-0.13771239 0.14330477 0.73400003 1.7887031e-38
-0.13631429 0.14330477 0.73400003 1.6873951e-38
-0.13491619 0.14330477 0.73400003 1.6044191e-38
-0.19926573 0.14174572 0.71900004 1.4659824e-38
-0.1978962 0.14174572 0.71900004 1.4936411e-38
-0.19598 0.14135143 0.71700001 1.3559595e-38
-0.19461429 0.14135143 0.71700001 1.2268856e-38
-0.19324857 0.14135143 0.71700001 1.1077155e-38
-0.19161524 0.14115429 0.71600002 1.2183503e-38
-0.18972 0.14076 0.71400005 1.5864838e-38
-0.18756858 0.14016858 0.71100003 1.7800947e-38
-0.1862143 0.14016858 0.71100003 1.5315627e-38
-0.18486001 0.14016858 0.71100003 7.6633902e-39
-0.18350571 0.14016858 0.71100003 3.3568511e-39
-0.18189524 0.13997144 0.71000004 5.2007637e-39
-0.17977999 0.13937999 0.70700002 6.8516474e-39
-0.17843334 0.13937999 0.70700002 7.4048212e-39
-0.1778381 0.13997144 0.71000004 7.7725149e-39
-0.17648572 0.13997144 0.71000004 6.3895805e-39
-0.17513335 0.13997144 0.71000004 9.056379e-39
-0.17378096 0.13997144 0.71000004 1.4495921e-38
-0.17242858 0.13997144 0.71000004 1.9640553e-38
-0.17107619 0.13997144 0.71000004 1.8534205e-38
-0.16972381 0.13997144 0.71000004 1.7429603e-38
-0.16837144 0.13997144 0.71000004 1.3096408e-38
-0.16701905 0.13997144 0.71000004 1.3740752e-38
-0.16566667 0.13997144 0.71000004 1.4478317e-38
-0.1643143 0.13997144 0.71000004 1.4662345e-38
-0.16319144 0.14016858 0.71100003 1.4754541e-38
-0.16183715 0.14016858 0.71100003 1.4754541e-38
-0.16048285 0.14016858 0.71100003 1.4662345e-38
-0.15912858 0.14016858 0.71100003 1.3925859e-38
-0.1577743 0.14016858 0.71100003 1.2081946e-38
-0.15686001 0.14056288 0.71300006 1.4110966e-38
-0.15550192 0.14056288 0.71300006 2.1855399e-38
-0.15414383 0.14056288 0.71300006 2.3050349e-38
-0.15300001 0.14076 0.71400005 2.0837654e-38
-0.15206476 0.14115429 0.71600002 1.5595519e-38
-0.15091142 0.14135143 0.71700001 1.3751606e-38
-0.14954571 0.14135143 0.71700001 1.3020473e-38
-0.14818001 0.14135143 0.71700001 1.2559495e-38
-0.14722382 0.14174572 0.71900004 1.3201996e-38
-0.14585429 0.14174572 0.71900004 1.4492735e-38
-0.14468573 0.14194286 0.72000003 1.779989e-38
-0.14371239 0.14233714 0.72200006 2.0289172e-38
-0.14292859 0.14292859 0.72500002 2.102132e-38
-0.14193811 0.14332287 0.72700006 2.0283755e-38
-0.14113334 0.14391428 0.73000002 2.009901e-38
-0.13993429 0.14411142 0.73100001 1.926925e-38
-0.13854189 0.14411142 0.73100001 1.8993735e-38
-0.13752477 0.14450571 0.73300004 1.76108e-38
-0.13631429 0.14470285 0.73400003 1.67814e-38
-0.1978962 0.14311525 0.71900004 1.5120083e-38
-0.19652668 0.14311525 0.71900004 1.4387913e-38
-0.19461429 0.14271714 0.71700001 1.3004979e-38
-0.19324857 0.14271714 0.71700001 1.1352657e-38
-0.19161524 0.14251809 0.71600002 1.2735592e-38
-0.18972 0.14212 0.71400005 1.6138917e-38
-0.18809621 0.14192097 0.71300006 1.8351612e-38
-0.1867381 0.14192097 0.71300006 1.5500773e-38
-0.18486001 0.14152285 0.71100003 8.7704917e-39
-0.18350571 0.14152285 0.71100003 3.9986318e-39
-0.18215142 0.14152285 0.71100003 5.8425444e-39
-0.18079714 0.14152285 0.71100003 7.4026562e-39
-0.17944287 0.14152285 0.71100003 7.6792431e-39
-0.17808858 0.14152285 0.71100003 7.3122627e-39
-0.17673428 0.14152285 0.71100003 6.1137195e-39
-0.17513335 0.14132382 0.71000004 5.1971385e-39
-0.17378096 0.14132382 0.71000004 1.1743028e-38
-0.17267144 0.14152285 0.71100003 1.863037e-38
-0.17131715 0.14152285 0.71100003 1.8445978e-38
-0.16972381 0.14132382 0.71000004 1.5770495e-38
-0.16837144 0.14132382 0.71000004 1.3096821e-38
-0.16701905 0.14132382 0.71000004 1.355672e-38
-0.16566667 0.14132382 0.71000004 1.420209e-38
-0.1643143 0.14132382 0.71000004 1.4570149e-38
-0.16319144 0.14152285 0.71100003 1.4662345e-38
-0.16183715 0.14152285 0.71100003 1.4570509e-38
-0.16048285 0.14152285 0.71100003 1.4386118e-38
-0.15912858 0.14152285 0.71100003 1.3098616e-38
-0.1582181 0.14192097 0.71300006 1.217666e-38
-0.15686001 0.14192097 0.71300006 1.5952012e-38
-0.15550192 0.14192097 0.71300006 2.2497901e-38
-0.15414383 0.14192097 0.71300006 2.3142182e-38
-0.15342857 0.14251809 0.71600002 2.1759248e-38
-0.15206476 0.14251809 0.71600002 1.8816931e-38
-0.15091142 0.14271714 0.71700001 1.6051063e-38
-0.14954571 0.14271714 0.71700001 1.2836827e-38
-0.14818001 0.14271714 0.71700001 1.173048e-38
-0.14722382 0.14311525 0.71900004 1.2833548e-38
-0.14585429 0.14311525 0.71900004 1.532283e-38
-0.14508763 0.14371239 0.72200006 1.9733112e-38
-0.14391144 0.14391144 0.72300005 2.0839459e-38
-0.14292859 0.14430954 0.72500002 2.0929127e-38
-0.14213334 0.14490667 0.72800004 2.0283757e-38
-0.14113334 0.14530477 0.73000002 2.0099366e-38
-0.13993429 0.14550382 0.73100001 1.9361801e-38
-0.13854189 0.14550382 0.73100001 1.908593e-38
-0.13752477 0.1459019 0.73300004 1.7702996e-38
-0.13612859 0.1459019 0.73300004 1.6965428e-38
-0.20286763 0.1460924 0.72700006 1.5397399e-38
-0.20148288 0.1460924 0.72700006 1.4567641e-38
-0.19899715 0.14528857 0.72300005 1.4475445e-38
-0.19680001 0.14468573 0.72000003 1.4202443e-38
-0.19515716 0.14448477 0.71900004 1.4294639e-38
-0.19378762 0.14448477 0.71900004 1.3653588e-38
-0.19188286 0.14408286 0.71700001 1.5220914e-38
-0.19025144 0.1438819 0.71600002 1.7704795e-38
-0.18836001 0.14348 0.71400005 1.9364316e-38
-0.1867381 0.14327906 0.71300006 1.8537082e-38
-0.18538001 0.14327906 0.71300006 1.4664866e-38
-0.18350571 0.14287715 0.71100003 7.5870839e-39
-0.18215142 0.14287715 0.71100003 4.9134106e-39
-0.18079714 0.14287715 0.71100003 4.2773725e-39
-0.17944287 0.14287715 0.71100003 5.4759157e-39
-0.17808858 0.14287715 0.71100003 6.2095178e-39
-0.17673428 0.14287715 0.71100003 4.3656052e-39
-0.17538001 0.14287715 0.71100003 5.6552426e-39
-0.17402571 0.14287715 0.71100003 1.3030893e-38
-0.17267144 0.14287715 0.71100003 2.0932361e-38
-0.17131715 0.14287715 0.71100003 2.1208948e-38
-0.16996287 0.14287715 0.71100003 1.890407e-38
-0.16837144 0.1426762 0.71000004 1.2726963e-38
-0.16701905 0.1426762 0.71000004 1.11654e-38
-0.16566667 0.1426762 0.71000004 1.2548335e-38
-0.16454571 0.14287715 0.71100003 1.4018055e-38
-0.16319144 0.14287715 0.71100003 1.411025e-38
-0.16183715 0.14287715 0.71100003 1.4017699e-38
-0.16048285 0.14287715 0.71100003 1.3187938e-38
-0.15957619 0.14327906 0.71300006 1.2729108e-38
-0.1582181 0.14327906 0.71300006 1.6970107e-38
-0.15686001 0.14327906 0.71300006 1.9270354e-38
-0.15572001 0.14348 0.71400005 2.2865961e-38
-0.15436 0.14348 0.71400005 2.2865595e-38
-0.15342857 0.1438819 0.71600002 2.2681204e-38
-0.15206476 0.1438819 0.71600002 2.1669223e-38
-0.15091142 0.14408286 0.71700001 2.0931658e-38
-0.14954571 0.14408286 0.71700001 1.789679e-38
-0.14859334 0.14448477 0.71900004 1.4854334e-38
-0.14722382 0.14448477 0.71900004 1.5040488e-38
-0.14605714 0.14468573 0.72000003 1.817514e-38
-0.14528857 0.14528857 0.72300005 2.074654e-38
-0.14430954 0.14569049 0.72500002 2.0838736e-38
-0.14332287 0.1460924 0.72700006 2.0836931e-38
-0.14252381 0.14669524 0.73000002 2.0099366e-38
-0.14132667 0.14689618 0.73100001 2.0007171e-38
-0.13993429 0.14689618 0.73100001 1.9361801e-38
-0.13854189 0.14689618 0.73100001 1.9085574e-38
-0.13752477 0.1472981 0.73300004 1.7794836e-38
-0.13612859 0.1472981 0.73300004 1.6872882e-38
-0.20286763 0.14747715 0.72700006 1.5397762e-38
-0.20148288 0.14747715 0.72700006 1.5028251e-38
-0.2000981 0.14747715 0.72700006 1.4567272e-38
-0.19762 0.14666572 0.72300005 1.4660525e-38
-0.19542858 0.14605714 0.72000003 1.5490285e-38
-0.19378762 0.14585429 0.71900004 1.5399904e-38
-0.19188286 0.14544858 0.71700001 1.7151621e-38
-0.19025144 0.14524572 0.71600002 1.8440924e-38
-0.18888761 0.14524572 0.71600002 1.9270685e-38
-0.18700001 0.14484002 0.71400005 1.881259e-38
-0.18564001 0.14484002 0.71400005 1.7060873e-38
-0.18402192 0.14463715 0.71300006 1.1912713e-38
-0.18215142 0.14423144 0.71100003 7.4873227e-39
-0.18079714 0.14423144 0.71100003 1.6119823e-39
-0.17994764 0.14463715 0.71300006 2.9949167e-39
-0.17858954 0.14463715 0.71300006 4.278792e-39
-0.17723145 0.14463715 0.71300006 3.2646401e-39
-0.17538001 0.14423144 0.71100003 7.3090257e-39
-0.17402571 0.14423144 0.71100003 1.606761e-38
-0.17315716 0.14463715 0.71300006 2.1116402e-38
-0.17131715 0.14423144 0.71100003 2.1392989e-38
-0.16996287 0.14423144 0.71100003 2.0655436e-38
-0.16860858 0.14423144 0.71100003 1.5676872e-38
-0.16725428 0.14423144 0.71100003 1.1534577e-38
-0.16590001 0.14423144 0.71100003 1.1811164e-38
-0.16454571 0.14423144 0.71100003 1.3556723e-38
-0.16365048 0.14463715 0.71300006 1.3648919e-38
-0.16229239 0.14463715 0.71300006 1.3373398e-38
-0.1609343 0.14463715 0.71300006 1.2820225e-38
-0.15957619 0.14463715 0.71300006 1.3280865e-38
-0.15844001 0.14484002 0.71400005 1.991895e-38
-0.15708001 0.14484002 0.71400005 2.2128033e-38
-0.1561562 0.14524572 0.71600002 2.3049989e-38
-0.15479238 0.14524572 0.71600002 2.3048907e-38
-0.15364285 0.14544858 0.71700001 2.2956712e-38
-0.15227714 0.14544858 0.71700001 2.2957794e-38
-0.15133238 0.14585429 0.71900004 2.2681207e-38
-0.15017143 0.14605714 0.72000003 2.1024942e-38
-0.1488 0.14605714 0.72000003 1.8166878e-38
-0.14742857 0.14605714 0.72000003 1.7339262e-38
-0.14666572 0.14666572 0.72300005 1.9828544e-38
-0.14569049 0.14707144 0.72500002 2.1758169e-38
-0.14470762 0.14747715 0.72700006 2.1020604e-38
-0.14352001 0.14768001 0.72800004 2.06529e-38
-0.14252381 0.14808571 0.73000002 2.0007531e-38
-0.14132667 0.14828858 0.73100001 2.0007531e-38
-0.14031714 0.14869429 0.73300004 1.9362161e-38
-0.13892095 0.14869429 0.73300004 1.9177407e-38
-0.13752477 0.14869429 0.73300004 1.7702277e-38
-0.13612859 0.14869429 0.73300004 1.6872867e-38
-0.20148288 0.14886191 0.72700006 1.5305213e-38
-0.2000981 0.14886191 0.72700006 1.4198865e-38
-0.19816668 0.14845239 0.72500002 1.4292471e-38
-0.19624287 0.14804286 0.72300005 1.6044188e-38
-0.1945962 0.1478381 0.72200006 1.6320071e-38
-0.19241811 0.14722382 0.71900004 1.7703006e-38
-0.19051714 0.14681429 0.71700001 1.8348362e-38
-0.18915144 0.14681429 0.71700001 1.8624949e-38
-0.18752381 0.14660953 0.71600002 1.8811136e-38
-0.18616 0.14660953 0.71600002 1.9548701e-38
-0.18402192 0.14599524 0.71300006 1.614544e-38
-0.18266381 0.14599524 0.71300006 1.254981e-38
-0.18130574 0.14599524 0.71300006 1.7949765e-39
-0.17994764 0.14599524 0.71300006 1.149607e-39
-0.17858954 0.14599524 0.71300006 3.6327191e-39
-0.17723145 0.14599524 0.71300006 8.5190875e-39
-0.17587335 0.14599524 0.71300006 1.5037646e-38
-0.17451525 0.14599524 0.71300006 2.0477162e-38
-0.17315716 0.14599524 0.71300006 2.2589008e-38
-0.17179905 0.14599524 0.71300006 2.2589008e-38
-0.17044096 0.14599524 0.71300006 2.1945084e-38
-0.16860858 0.14558572 0.71100003 2.0930932e-38
-0.16725428 0.14558572 0.71100003 1.7153844e-38
-0.16590001 0.14558572 0.71100003 1.3466019e-38
-0.16500859 0.14599524 0.71300006 1.0704456e-38
-0.16365048 0.14599524 0.71300006 1.0520065e-38
-0.16229239 0.14599524 0.71300006 1.1346562e-38
-0.1609343 0.14599524 0.71300006 1.4849996e-38
-0.15980001 0.1462 0.71400005 1.7979975e-38
-0.15888381 0.14660953 0.71600002 2.286632e-38
-0.15752001 0.14660953 0.71600002 2.3326213e-38
-0.15637429 0.14681429 0.71700001 2.2865235e-38
-0.15500857 0.14681429 0.71700001 2.2680844e-38
-0.15364285 0.14681429 0.71700001 2.2496453e-38
-0.15270191 0.14722382 0.71900004 2.2496453e-38
-0.15133238 0.14722382 0.71900004 2.2404257e-38
-0.15017143 0.14742857 0.72000003 2.1576301e-38
-0.14921334 0.1478381 0.72200006 2.1023127e-38
-0.1478381 0.1478381 0.72200006 2.1390831e-38
-0.14707144 0.14845239 0.72500002 2.1483026e-38
-0.1460924 0.14886191 0.72700006 2.1573777e-38
-0.14470762 0.14886191 0.72700006 2.0836212e-38
-0.14391428 0.14947619 0.73000002 2.065254e-38
-0.14271905 0.14968096 0.73100001 2.0375953e-38
-0.14171334 0.15009047 0.73300004 2.0099729e-38
-0.14031714 0.15009047 0.73300004 1.9362164e-38
-0.13892095 0.15009047 0.73300004 1.9085574e-38
-0.13752477 0.15009047 0.73300004 1.7518249e-38
-0.19871335 0.15024668 0.72700006 1.4752355e-38
-0.19678572 0.14983334 0.72500002 1.631968e-38
-0.19486572 0.14942001 0.72300005 1.678104e-38
-0.19322097 0.14921334 0.72200006 1.76108e-38
-0.19131429 0.1488 0.72000003 1.7887387e-38
-0.18967906 0.14859334 0.71900004 1.8532757e-38
-0.18778571 0.14818001 0.71700001 1.9085925e-38
-0.18616 0.14797334 0.71600002 2.0100077e-38
-0.18428002 0.14756 0.71400005 1.9181748e-38
-0.18292001 0.14756 0.71400005 1.6415879e-38
-0.18130574 0.14735334 0.71300006 9.3373463e-39
-0.17994764 0.14735334 0.71300006 4.4509779e-39
-0.17858954 0.14735334 0.71300006 6.2959275e-39
-0.17723145 0.14735334 0.71300006 1.32106e-38
-0.17587335 0.14735334 0.71300006 1.9732389e-38
-0.17451525 0.14735334 0.71300006 2.2129475e-38
-0.17315716 0.14735334 0.71300006 2.2312421e-38
-0.17179905 0.14735334 0.71300006 2.2035835e-38
-0.17044096 0.14735334 0.71300006 2.2496815e-38
-0.16908287 0.14735334 0.71300006 2.2496815e-38
-0.16772477 0.14735334 0.71300006 2.1207891e-38
-0.16636668 0.14735334 0.71300006 1.7612262e-38
-0.16500859 0.14735334 0.71300006 1.291823e-38
-0.16365048 0.14735334 0.71300006 9.8757742e-39
-0.16229239 0.14735334 0.71300006 1.1162826e-38
-0.16116002 0.14756 0.71400005 1.7155542e-38
-0.15980001 0.14756 0.71400005 2.1296837e-38
-0.15888381 0.14797334 0.71600002 2.3417333e-38
-0.15774 0.14818001 0.71700001 2.3141822e-38
-0.15637429 0.14818001 0.71700001 2.2680844e-38
-0.15500857 0.14818001 0.71700001 2.2588648e-38
-0.15407144 0.14859334 0.71900004 2.2404257e-38
-0.15270191 0.14859334 0.71900004 2.2404257e-38
-0.15154287 0.1488 0.72000003 2.2312061e-38
-0.15058859 0.14921334 0.72200006 2.2311342e-38
-0.14942001 0.14942001 0.72300005 2.2219147e-38
-0.14804286 0.14942001 0.72300005 2.2219147e-38
-0.14707144 0.14983334 0.72500002 2.1665973e-38
-0.1460924 0.15024668 0.72700006 2.1573777e-38
-0.14490667 0.15045334 0.72800004 2.0928408e-38
-0.14391428 0.15086667 0.73000002 2.0836212e-38
-0.14271905 0.15107334 0.73100001 2.046743e-38
-0.14171334 0.15148667 0.73300004 2.0007533e-38
-0.14031714 0.15148667 0.73300004 1.9269968e-38
-0.13892095 0.15148667 0.73300004 1.9177407e-38
-0.13771239 0.15169333 0.73400003 1.7702277e-38
-0.19871335 0.15163144 0.72700006 1.4661604e-38
-0.19678572 0.15121429 0.72500002 1.558356e-38
-0.19486572 0.15079714 0.72300005 1.6320422e-38
-0.19322097 0.15058859 0.72200006 1.7334573e-38
-0.19184573 0.15058859 0.72200006 1.7795189e-38
-0.18994285 0.15017143 0.72000003 1.8532754e-38
-0.18830952 0.14996287 0.71900004 1.8809338e-38
-0.18641999 0.14954571 0.71700001 1.9454707e-38
-0.1847962 0.14933714 0.71600002 1.9272487e-38
-0.18292001 0.14892001 0.71400005 1.9456878e-38
-0.18156001 0.14892001 0.71400005 1.4856884e-38
-0.17994764 0.14871144 0.71300006 1.1445646e-38
-0.17858954 0.14871144 0.71300006 1.2645595e-38
-0.17723145 0.14871144 0.71300006 1.8822688e-38
-0.17587335 0.14871144 0.71300006 2.2035835e-38
-0.17451525 0.14871144 0.71300006 2.212803e-38
-0.1734 0.14892001 0.71400005 2.1851443e-38
-0.17179905 0.14871144 0.71300006 2.1759248e-38
-0.17044096 0.14871144 0.71300006 2.2035835e-38
-0.16908287 0.14871144 0.71300006 2.2681204e-38
-0.16772477 0.14871144 0.71300006 2.2865595e-38
-0.16636668 0.14871144 0.71300006 2.2589008e-38
-0.16524 0.14892001 0.71400005 1.9273243e-38
-0.16388001 0.14892001 0.71400005 1.4940049e-38
-0.16252001 0.14892001 0.71400005 1.5126217e-38
-0.16116002 0.14892001 0.71400005 2.1672099e-38
-0.16024762 0.14933714 0.71600002 2.3326213e-38
-0.15910572 0.14954571 0.71700001 2.3141822e-38
-0.15774 0.14954571 0.71700001 2.2865235e-38
-0.15637429 0.14954571 0.71700001 2.2680844e-38
-0.15544096 0.14996287 0.71900004 2.2588648e-38
-0.15407144 0.14996287 0.71900004 2.2404257e-38
-0.1529143 0.15017143 0.72000003 2.2404257e-38
-0.15196382 0.15058859 0.72200006 2.2035474e-38
-0.15079714 0.15079714 0.72300005 2.2035474e-38
-0.14942001 0.15079714 0.72300005 2.1851083e-38
-0.14804286 0.15079714 0.72300005 2.1851083e-38
-0.14707144 0.15121429 0.72500002 2.1390105e-38
-0.1460924 0.15163144 0.72700006 2.1481582e-38
-0.14490667 0.15184 0.72800004 2.0928408e-38
-0.14391428 0.15225714 0.73000002 2.0836575e-38
-0.14271905 0.15246572 0.73100001 2.0191206e-38
-0.14171334 0.15288286 0.73300004 2.0007171e-38
-0.14050858 0.15309143 0.73400003 1.9361801e-38
-0.13911049 0.15309143 0.73400003 1.9269603e-38
-0.13808762 0.15350859 0.73600006 1.742569e-38
-0.13705714 0.15392572 0.73800004 1.6965425e-38
-0.19678572 0.15259524 0.72500002 1.5305907e-38
-0.19486572 0.15217429 0.72300005 1.6228216e-38
-0.19348858 0.15217429 0.72300005 1.7426759e-38
-0.19184573 0.15196382 0.72200006 1.7702993e-38
-0.18994285 0.15154287 0.72000003 1.8532754e-38
-0.18830952 0.15133238 0.71900004 1.8532751e-38
-0.18641999 0.15091142 0.71700001 1.917812e-38
-0.1847962 0.15070096 0.71600002 1.9547992e-38
-0.18292001 0.15028 0.71400005 2.0193361e-38
-0.18156001 0.15028 0.71400005 1.9182827e-38
-0.18020001 0.15028 0.71400005 1.743111e-38
-0.17858954 0.15006953 0.71300006 1.7616199e-38
-0.17723145 0.15006953 0.71300006 2.0750851e-38
-0.17587335 0.15006953 0.71300006 2.1943639e-38
-0.17451525 0.15006953 0.71300006 2.1759248e-38
-0.1734 0.15028 0.71400005 2.1759248e-38
-0.17204002 0.15028 0.71400005 2.1851443e-38
-0.17044096 0.15006953 0.71300006 2.1943639e-38
-0.16908287 0.15006953 0.71300006 2.2312421e-38
-0.16772477 0.15006953 0.71300006 2.2589008e-38
-0.1666 0.15028 0.71400005 2.2957791e-38
-0.16524 0.15028 0.71400005 2.2129838e-38
-0.16388001 0.15028 0.71400005 1.954836e-38
-0.16252001 0.15028 0.71400005 1.8628552e-38
-0.16161142 0.15070096 0.71600002 2.2316019e-38
-0.16024762 0.15070096 0.71600002 2.3326213e-38
-0.15910572 0.15091142 0.71700001 2.2865235e-38
-0.15774 0.15091142 0.71700001 2.2680844e-38
-0.15637429 0.15091142 0.71700001 2.2680844e-38
-0.15544096 0.15133238 0.71900004 2.2680844e-38
-0.15428571 0.15154287 0.72000003 2.2404257e-38
-0.15333906 0.15196382 0.72200006 2.2496453e-38
-0.15217429 0.15217429 0.72300005 2.2219866e-38
-0.15079714 0.15217429 0.72300005 2.2219866e-38
-0.14942001 0.15217429 0.72300005 2.1851083e-38
-0.14845239 0.15259524 0.72500002 2.1851083e-38
-0.14707144 0.15259524 0.72500002 2.1390105e-38
-0.1460924 0.15301619 0.72700006 2.1390105e-38
-0.14490667 0.15322667 0.72800004 2.0929127e-38
-0.14391428 0.15364762 0.73000002 2.0836931e-38
-0.14310953 0.15427905 0.73300004 2.0283757e-38
-0.14190666 0.15448953 0.73400003 2.009901e-38
-0.14089143 0.15491048 0.73600006 1.9545836e-38
-0.13948955 0.15491048 0.73600006 1.926924e-38
-0.13846286 0.15533143 0.73800004 1.7425327e-38
-0.13705714 0.15533143 0.73800004 1.6964709e-38
-0.13675429 0.15659429 0.74400002 2.0375947e-38
-0.19678572 0.15397619 0.72500002 1.4477245e-38
-0.19486572 0.15355143 0.72300005 1.5030409e-38
-0.19348858 0.15355143 0.72300005 1.7150908e-38
-0.19211143 0.15355143 0.72300005 1.7887021e-38
-0.19047049 0.15333906 0.72200006 1.8716782e-38
-0.18857144 0.1529143 0.72000003 1.8808978e-38
-0.18694001 0.15270191 0.71900004 1.917776e-38
-0.1847962 0.15206476 0.71600002 1.9546906e-38
-0.18343239 0.15206476 0.71600002 2.0100079e-38
-0.18156001 0.15164001 0.71400005 1.9917859e-38
-0.18020001 0.15164001 0.71400005 2.010225e-38
-0.17884001 0.15164001 0.71400005 2.047067e-38
-0.17748001 0.15164001 0.71400005 2.1023843e-38
-0.17612001 0.15164001 0.71400005 2.120643e-38
-0.17476001 0.15164001 0.71400005 2.1667408e-38
-0.17388572 0.15206476 0.71600002 2.175925e-38
-0.17252192 0.15206476 0.71600002 2.175925e-38
-0.17068 0.15164001 0.71400005 2.2035835e-38
-0.16932 0.15164001 0.71400005 2.212803e-38
-0.16796002 0.15164001 0.71400005 2.2496453e-38
-0.16706666 0.15206476 0.71600002 2.2773039e-38
-0.16570286 0.15206476 0.71600002 2.27734e-38
-0.16433905 0.15206476 0.71600002 2.2404617e-38
-0.16297524 0.15206476 0.71600002 2.2589011e-38
-0.16161142 0.15206476 0.71600002 2.2681207e-38
-0.16047142 0.15227714 0.71700001 2.2680844e-38
-0.15910572 0.15227714 0.71700001 2.2773039e-38
-0.15774 0.15227714 0.71700001 2.2680844e-38
-0.15681049 0.15270191 0.71900004 2.2680844e-38
-0.15544096 0.15270191 0.71900004 2.2588648e-38
-0.15428571 0.1529143 0.72000003 2.212767e-38
-0.15333906 0.15333906 0.72200006 2.2404257e-38
-0.15217429 0.15355143 0.72300005 2.2219866e-38
-0.15079714 0.15355143 0.72300005 2.2219866e-38
-0.14983334 0.15397619 0.72500002 2.1851083e-38
-0.14845239 0.15397619 0.72500002 2.1851083e-38
-0.14747715 0.15440097 0.72700006 2.1390105e-38
-0.1460924 0.15440097 0.72700006 2.1390105e-38
-0.14490667 0.15461335 0.72800004 2.0929127e-38
-0.14391428 0.1550381 0.73000002 2.0836931e-38
-0.14310953 0.15567525 0.73300004 2.0375953e-38
-0.14229335 0.15631241 0.73600006 2.0099729e-38
-0.14089143 0.15631241 0.73600006 1.9362164e-38
-0.13986857 0.15673715 0.73800004 1.8717148e-38
-0.13865048 0.15694954 0.73900002 1.7426409e-38
-0.13724287 0.15694954 0.73900002 1.7610457e-38
-0.19678572 0.15535714 0.72500002 1.4477601e-38
-0.19486572 0.15492858 0.72300005 1.4754522e-38
-0.19348858 0.15492858 0.72300005 1.7059413e-38
-0.19211143 0.15492858 0.72300005 1.7795186e-38
-0.19047049 0.1547143 0.72200006 1.8624947e-38
-0.18857144 0.15428571 0.72000003 1.8993369e-38
-0.18694001 0.15407144 0.71900004 1.917776e-38
-0.18505429 0.15364285 0.71700001 1.908629e-38
-0.18368857 0.15364285 0.71700001 1.9639464e-38
-0.18206859 0.15342857 0.71600002 2.0100092e-38
-0.18070477 0.15342857 0.71600002 2.0653266e-38
-0.17934094 0.15342857 0.71600002 2.1022401e-38
-0.17748001 0.15300001 0.71400005 2.0930206e-38
-0.17612001 0.15300001 0.71400005 2.1021683e-38
-0.17476001 0.15300001 0.71400005 2.1482661e-38
-0.17388572 0.15342857 0.71600002 2.175925e-38
-0.17252192 0.15342857 0.71600002 2.175925e-38
-0.17068 0.15300001 0.71400005 2.212767e-38
-0.16932 0.15300001 0.71400005 2.2219866e-38
-0.16843048 0.15342857 0.71600002 2.2312061e-38
-0.1673 0.15364285 0.71700001 2.2496453e-38
-0.16593428 0.15364285 0.71700001 2.2681204e-38
-0.16456857 0.15364285 0.71700001 2.2865595e-38
-0.16320287 0.15364285 0.71700001 2.3141822e-38
-0.16183715 0.15364285 0.71700001 2.2865235e-38
-0.16091906 0.15407144 0.71900004 2.2588648e-38
-0.15954953 0.15407144 0.71900004 2.2680844e-38
-0.15818 0.15407144 0.71900004 2.2772321e-38
-0.15681049 0.15407144 0.71900004 2.2772321e-38
-0.15565714 0.15428571 0.72000003 2.2588648e-38
-0.15428571 0.15428571 0.72000003 2.2496453e-38
-0.15333906 0.1547143 0.72200006 2.2588648e-38
-0.15217429 0.15492858 0.72300005 2.2312061e-38
-0.15121429 0.15535714 0.72500002 2.2312061e-38
-0.14983334 0.15535714 0.72500002 2.1943279e-38
-0.14845239 0.15535714 0.72500002 2.1851083e-38
-0.14747715 0.15578572 0.72700006 2.1482301e-38
-0.1460924 0.15578572 0.72700006 2.1481582e-38
-0.14490667 0.156 0.72800004 2.1112799e-38
-0.14391428 0.15642858 0.73000002 2.0837291e-38
-0.14271905 0.15664285 0.73100001 2.0376313e-38
-0.14229335 0.15771429 0.73600006 2.0007894e-38
-0.1412743 0.15814286 0.73800004 1.9085937e-38
-0.13986857 0.15814286 0.73800004 1.8349076e-38
-0.13865048 0.15835714 0.73900002 1.8164684e-38
-0.1973286 0.15717047 0.72700006 1.4385771e-38
-0.19540477 0.1567381 0.72500002 1.41106e-38
-0.19348858 0.15630573 0.72300005 1.6046709e-38
-0.19211143 0.15630573 0.72300005 1.7703346e-38
-0.1907343 0.15630573 0.72300005 1.8348716e-38
-0.18909526 0.15608953 0.72200006 1.8900454e-38
-0.18720001 0.15565714 0.72000003 1.9084846e-38
-0.18505429 0.15500857 0.71700001 1.917777e-38
-0.18368857 0.15500857 0.71700001 1.9638748e-38
-0.18232284 0.15500857 0.71700001 2.0099729e-38
-0.18070477 0.15479238 0.71600002 2.0376316e-38
-0.17934094 0.15479238 0.71600002 2.0745096e-38
-0.17797714 0.15479238 0.71600002 2.0745096e-38
-0.17612001 0.15436 0.71400005 2.1021683e-38
-0.17476001 0.15436 0.71400005 2.1206074e-38
-0.17388572 0.15479238 0.71600002 2.1666336e-38
-0.17252192 0.15479238 0.71600002 2.1850727e-38
-0.17115809 0.15479238 0.71600002 2.2035835e-38
-0.16979429 0.15479238 0.71600002 2.212803e-38
-0.16843048 0.15479238 0.71600002 2.2312421e-38
-0.1673 0.15500857 0.71700001 2.2312421e-38
-0.16593428 0.15500857 0.71700001 2.2588648e-38
-0.16456857 0.15500857 0.71700001 2.2588648e-38
-0.16320287 0.15500857 0.71700001 2.2680844e-38
-0.16183715 0.15500857 0.71700001 2.2773039e-38
-0.16091906 0.15544096 0.71900004 2.2773039e-38
-0.15954953 0.15544096 0.71900004 2.2680844e-38
-0.15818 0.15544096 0.71900004 2.2680844e-38
-0.15681049 0.15544096 0.71900004 2.2588648e-38
-0.15565714 0.15565714 0.72000003 2.2588648e-38
-0.15428571 0.15565714 0.72000003 2.2496453e-38
-0.15333906 0.15608953 0.72200006 2.2404257e-38
-0.15217429 0.15630573 0.72300005 2.2219866e-38
-0.15121429 0.1567381 0.72500002 2.2219866e-38
-0.14983334 0.1567381 0.72500002 2.1943279e-38
-0.14886191 0.15717047 0.72700006 2.1851083e-38
-0.14747715 0.15717047 0.72700006 2.1666692e-38
-0.14629334 0.15738668 0.72800004 2.1758888e-38
-0.14490667 0.15738668 0.72800004 2.0929127e-38
-0.14391428 0.15781905 0.73000002 2.0745096e-38
-0.14271905 0.15803523 0.73100001 2.0468509e-38
-0.19540477 0.15811905 0.72500002 1.4293562e-38
-0.19348858 0.15768287 0.72300005 1.5492106e-38
-0.19211143 0.15768287 0.72300005 1.7610056e-38
-0.1907343 0.15768287 0.72300005 1.8439817e-38
-0.18909526 0.15746477 0.72200006 1.871571e-38
-0.18772002 0.15746477 0.72200006 1.9268884e-38
-0.18582858 0.15702857 0.72000003 1.9269606e-38
-0.18420096 0.15681049 0.71900004 1.9638388e-38
-0.18283144 0.15681049 0.71900004 2.0099726e-38
-0.18095714 0.15637429 0.71700001 2.0376313e-38
-0.17934094 0.1561562 0.71600002 2.0468509e-38
-0.17797714 0.1561562 0.71600002 2.0837291e-38
-0.17661333 0.1561562 0.71600002 2.1205714e-38
-0.17524953 0.1561562 0.71600002 2.1297909e-38
-0.17412858 0.15637429 0.71700001 2.1758888e-38
-0.17276286 0.15637429 0.71700001 2.1943279e-38
-0.17115809 0.1561562 0.71600002 2.1943639e-38
-0.16979429 0.1561562 0.71600002 2.2220226e-38
-0.16843048 0.1561562 0.71600002 2.2312421e-38
-0.1673 0.15637429 0.71700001 2.2404617e-38
-0.16593428 0.15637429 0.71700001 2.2588648e-38
-0.16456857 0.15637429 0.71700001 2.2588648e-38
-0.16320287 0.15637429 0.71700001 2.2588648e-38
-0.16183715 0.15637429 0.71700001 2.2680844e-38
-0.16091906 0.15681049 0.71900004 2.2773039e-38
-0.15954953 0.15681049 0.71900004 2.2680844e-38
-0.15818 0.15681049 0.71900004 2.2680844e-38
-0.15702857 0.15702857 0.72000003 2.2680844e-38
-0.15565714 0.15702857 0.72000003 2.2588648e-38
-0.1547143 0.15746477 0.72200006 2.2404257e-38
-0.15355143 0.15768287 0.72300005 2.2312061e-38
-0.15217429 0.15768287 0.72300005 2.2219866e-38
-0.15121429 0.15811905 0.72500002 2.2035835e-38
-0.14983334 0.15811905 0.72500002 2.1943639e-38
-0.14886191 0.15855525 0.72700006 2.1851083e-38
-0.14747715 0.15855525 0.72700006 2.1758888e-38
-0.14629334 0.15877333 0.72800004 2.175925e-38
-0.14530477 0.15920952 0.73000002 2.0837294e-38
-0.14411142 0.15942761 0.73100001 2.0468509e-38
-0.14310953 0.15986381 0.73300004 2.0468509e-38
-0.19348858 0.15906002 0.72300005 1.4570519e-38
-0.19211143 0.15906002 0.72300005 1.6044528e-38
-0.19126192 0.1595 0.72500002 1.7611854e-38
-0.18935715 0.15906002 0.72300005 1.8623517e-38
-0.18772002 0.15884002 0.72200006 1.9637669e-38
-0.18634477 0.15884002 0.72200006 1.9822063e-38
-0.18445715 0.1584 0.72000003 1.9729868e-38
-0.18283144 0.15818 0.71900004 2.0007165e-38
-0.18095714 0.15774 0.71700001 2.0560339e-38
-0.17959143 0.15774 0.71700001 2.0745099e-38
-0.17797714 0.15752001 0.71600002 2.1021685e-38
-0.17661333 0.15752001 0.71600002 2.1205714e-38
-0.17524953 0.15752001 0.71600002 2.1297909e-38
-0.17412858 0.15774 0.71700001 2.1390468e-38
-0.17276286 0.15774 0.71700001 2.1943642e-38
-0.17139713 0.15774 0.71700001 2.2035835e-38
-0.17003143 0.15774 0.71700001 2.2312421e-38
-0.16866571 0.15774 0.71700001 2.2312421e-38
-0.1673 0.15774 0.71700001 2.2312421e-38
-0.16593428 0.15774 0.71700001 2.2496453e-38
-0.16456857 0.15774 0.71700001 2.2496453e-38
-0.16320287 0.15774 0.71700001 2.2680844e-38
-0.16183715 0.15774 0.71700001 2.2773039e-38
-0.16091906 0.15818 0.71900004 2.2773039e-38
-0.15954953 0.15818 0.71900004 2.2773039e-38
-0.15818 0.15818 0.71900004 2.2773039e-38
-0.15702857 0.1584 0.72000003 2.2773039e-38
-0.15565714 0.1584 0.72000003 2.2680844e-38
-0.15492858 0.15906002 0.72300005 2.2496453e-38
-0.15355143 0.15906002 0.72300005 2.2496453e-38
-0.15259524 0.1595 0.72500002 2.2312061e-38
-0.15121429 0.1595 0.72500002 2.2312061e-38
-0.15024668 0.15994 0.72700006 2.212767e-38
-0.14886191 0.15994 0.72700006 2.1942923e-38
-0.14768001 0.16016001 0.72800004 2.1758532e-38
-0.14629334 0.16016001 0.72800004 2.1667055e-38
-0.14550382 0.16082001 0.73100001 2.1021685e-38
-0.14411142 0.16082001 0.73100001 2.0377032e-38
-0.14310953 0.16126001 0.73300004 2.0192641e-38
-0.19675238 0.16199048 0.73000002 1.6598836e-38
-0.19455907 0.16132477 0.72700006 1.5123706e-38
-0.1931743 0.16132477 0.72700006 1.4938914e-38
-0.19126192 0.16088095 0.72500002 1.6690631e-38
-0.18935715 0.16043715 0.72300005 1.7978498e-38
-0.18798001 0.16043715 0.72300005 1.9084846e-38
-0.18634477 0.16021524 0.72200006 1.982206e-38
-0.18496954 0.16021524 0.72200006 1.9914256e-38
-0.18283144 0.15954953 0.71900004 2.0375587e-38
-0.1814619 0.15954953 0.71900004 2.0652174e-38
-0.17959143 0.15910572 0.71700001 2.0745096e-38
-0.17822573 0.15910572 0.71700001 2.1021683e-38
-0.17686 0.15910572 0.71700001 2.1113881e-38
-0.17549428 0.15910572 0.71700001 2.1113881e-38
-0.17412858 0.15910572 0.71700001 2.1113881e-38
-0.17276286 0.15910572 0.71700001 2.1851446e-38
-0.17139713 0.15910572 0.71700001 2.2035835e-38
-0.17003143 0.15910572 0.71700001 2.2220226e-38
-0.16866571 0.15910572 0.71700001 2.2220226e-38
-0.1673 0.15910572 0.71700001 2.2220226e-38
-0.16593428 0.15910572 0.71700001 2.2404257e-38
-0.16456857 0.15910572 0.71700001 2.2588648e-38
-0.16320287 0.15910572 0.71700001 2.2865235e-38
-0.16183715 0.15910572 0.71700001 2.2773039e-38
-0.16091906 0.15954953 0.71900004 2.2773039e-38
-0.15954953 0.15954953 0.71900004 2.2773039e-38
-0.15818 0.15954953 0.71900004 2.2680844e-38
-0.15702857 0.15977144 0.72000003 2.2773039e-38
-0.15565714 0.15977144 0.72000003 2.2865235e-38
-0.15492858 0.16043715 0.72300005 2.2588648e-38
-0.15355143 0.16043715 0.72300005 2.2680844e-38
-0.15259524 0.16088095 0.72500002 2.2312061e-38
-0.15121429 0.16088095 0.72500002 2.2404257e-38
-0.15024668 0.16132477 0.72700006 2.2035474e-38
-0.14886191 0.16132477 0.72700006 2.1851443e-38
-0.14768001 0.16154668 0.72800004 2.1482661e-38
-0.14669524 0.16199048 0.73000002 2.1482664e-38
-0.19675238 0.16338095 0.73000002 1.8165804e-38
-0.19482668 0.16293335 0.72800004 1.5953109e-38
-0.19344001 0.16293335 0.72800004 1.5216245e-38
-0.19178954 0.16270953 0.72700006 1.5492831e-38
-0.18988095 0.1622619 0.72500002 1.6134948e-38
-0.18798001 0.1618143 0.72300005 1.6780318e-38
-0.18660288 0.1618143 0.72300005 1.7701927e-38
-0.18496954 0.16159049 0.72200006 1.9084861e-38
-0.1835943 0.16159049 0.72200006 1.9177417e-38
-0.18171428 0.16114287 0.72000003 2.0468156e-38
-0.18009239 0.16091906 0.71900004 2.0745096e-38
-0.17822573 0.16047142 0.71700001 2.1021683e-38
-0.17686 0.16047142 0.71700001 2.1021329e-38
-0.17549428 0.16047142 0.71700001 2.1205721e-38
-0.1746143 0.16091906 0.71900004 2.1390465e-38
-0.17324477 0.16091906 0.71900004 2.1759248e-38
-0.17139713 0.16047142 0.71700001 2.1943639e-38
-0.17003143 0.16047142 0.71700001 2.212803e-38
-0.16866571 0.16047142 0.71700001 2.2312061e-38
-0.16776668 0.16091906 0.71900004 2.2404257e-38
-0.16639715 0.16091906 0.71900004 2.2496453e-38
-0.16502762 0.16091906 0.71900004 2.2588648e-38
-0.1636581 0.16091906 0.71900004 2.2773039e-38
-0.16228859 0.16091906 0.71900004 2.2773039e-38
-0.16091906 0.16091906 0.71900004 2.2773039e-38
-0.15954953 0.16091906 0.71900004 2.2773039e-38
-0.15818 0.16091906 0.71900004 2.2773039e-38
-0.15746477 0.16159049 0.72200006 2.2865235e-38
-0.15608953 0.16159049 0.72200006 2.2865235e-38
-0.15492858 0.1618143 0.72300005 2.2680844e-38
-0.15397619 0.1622619 0.72500002 2.2496453e-38
-0.15301619 0.16270953 0.72700006 2.2312061e-38
-0.15163144 0.16270953 0.72700006 2.2312061e-38
-0.15045334 0.16293335 0.72800004 2.1943279e-38
-0.14906667 0.16293335 0.72800004 2.1759248e-38
-0.19205333 0.16432001 0.72800004 1.5953094e-38
-0.19040477 0.1640943 0.72700006 1.6134948e-38
-0.1885 0.16364287 0.72500002 1.6688122e-38
-0.18660288 0.16319144 0.72300005 1.6321145e-38
-0.18522573 0.16319144 0.72300005 1.7427492e-38
-0.1835943 0.16296573 0.72200006 1.8624586e-38
-0.18221906 0.16296573 0.72200006 2.0468499e-38
-0.18009239 0.16228859 0.71900004 2.1021322e-38
-0.17872287 0.16228859 0.71900004 2.0836931e-38
-0.17735334 0.16228859 0.71900004 2.1020967e-38
-0.17598382 0.16228859 0.71900004 2.1297553e-38
-0.1746143 0.16228859 0.71900004 2.1851443e-38
-0.17324477 0.16228859 0.71900004 2.1851443e-38
-0.17187524 0.16228859 0.71900004 2.1759248e-38
-0.17050572 0.16228859 0.71900004 2.2220226e-38
-0.16913621 0.16228859 0.71900004 2.2404257e-38
-0.16776668 0.16228859 0.71900004 2.2496453e-38
-0.16639715 0.16228859 0.71900004 2.2680844e-38
-0.16502762 0.16228859 0.71900004 2.2680844e-38
-0.1636581 0.16228859 0.71900004 2.2680844e-38
-0.16228859 0.16228859 0.71900004 2.2773039e-38
-0.16114287 0.16251428 0.72000003 2.3049626e-38
-0.15977144 0.16251428 0.72000003 2.2865235e-38
-0.1584 0.16251428 0.72000003 2.2773039e-38
-0.15746477 0.16296573 0.72200006 2.2773039e-38
-0.15630573 0.16319144 0.72300005 2.2865235e-38
-0.15535714 0.16364287 0.72500002 2.2404257e-38
-0.18711905 0.16502382 0.72500002 1.7980669e-38
